ply
format ascii 1.0
comment created by gply, a Houdini tool.
comment converted from .[b]geo
comment for more information about Houdini, try:
comment www.sidefx.com
element vertex 1269
property float x
property float y
property float z
element face 0
property list uchar int vertex_indices
end_header
13.0575686 -0.269524515 11.2987127 
-21.892952 -0.353036731 11.5409794 
6.50996637 0.420886934 11.7096596 
-0.513502836 0.0561331511 13.264164 
-11.7551832 0.358875543 -6.84934568 
9.8133297 0.494697869 8.76985645 
2.1396637 0.319676727 18.9239979 
11.7839346 -0.28122586 -3.70371914 
-13.736764 -0.100972936 21.4115582 
4.66127682 0.258034915 17.5318623 
4.45020294 -0.141645372 4.92214108 
-6.42424059 -0.409149975 11.9814262 
22.3187962 0.644065917 -9.05305862 
-10.3711729 0.110021301 12.3356838 
14.1399889 -0.484056652 -9.74966717 
-19.7186317 0.0258809142 9.38622761 
-19.1195126 0.185106948 5.11962414 
-14.2200756 0.0897513852 3.82267356 
-20.9477482 0.086966522 1.68507409 
3.7853241 -0.292996556 6.74887133 
-0.226789549 -0.44501403 4.6325717 
-14.313098 0.138932571 5.56301165 
5.93285084 0.0711678639 -0.472889006 
14.011097 0.0890577286 7.79538441 
21.8150101 -0.204765707 -0.257274747 
16.653698 -0.423948497 -13.7943392 
8.59506607 0.452944219 6.92808104 
-5.32907104 -0.319050193 4.36026192 
13.1794004 0.0335268453 1.28900671 
22.1072006 -0.124488331 8.58303261 
-25.0314503 0.0352745317 19.1906548 
-23.5973225 -0.43529579 15.8662453 
7.58289766 0.251133353 -12.0334997 
-15.6182709 0.137613207 2.09085083 
-19.625433 0.122390695 -6.11847401 
-12.3272877 0.344329387 21.3423729 
-21.2523251 0.00458477624 1.98021328 
17.0993824 0.0932864994 -9.5604763 
17.6368103 -0.102016598 12.1204996 
17.7064896 0.0179112107 16.4392433 
0.106955111 -0.16549097 -4.37729502 
-2.95782685 -0.302216053 14.627737 
2.7966888 -0.0314523131 -4.53046131 
-14.2585115 -0.196274385 -1.14566004 
-14.9244032 0.072324641 -6.02197933 
-2.0623529 -0.172986954 5.37644482 
10.3641748 -0.0158211831 -16.2468109 
7.12985802 0.581545711 8.02942467 
-3.65846968 -0.254194915 12.9954739 
-1.56669581 -0.268542051 17.3162346 
-1.24913383 -0.252522081 7.03920174 
-21.6533546 -0.359612644 13.7269421 
-22.9663429 -0.165461272 -10.1208515 
24.0692749 -0.494120955 8.13873196 
-22.6015759 0.079116419 0.221700713 
-22.0780277 0.0350518264 -5.32672024 
0.953654408 -0.599090517 9.27490902 
-6.53561878 0.270155817 -18.3792553 
4.49974442 0.0595620647 7.48532677 
-24.6084557 -0.289700538 5.15680218 
-6.389534 -0.300452083 0.0190390423 
-16.9647503 -0.380384743 -9.13345623 
2.62671685 0.2560381 -6.91204691 
-4.96867132 0.161955088 -10.5209093 
10.9193478 -0.68245703 -7.02667856 
8.13755989 0.332414359 -2.61104584 
-13.9728689 -0.672718883 -14.870327 
7.74577236 0.339785218 3.82511997 
-12.9284439 -0.00595143903 1.9225198 
3.50823784 0.391385555 -7.45741367 
24.9089622 -0.40454182 3.73087478 
23.8334064 -0.075715214 -18.1505928 
24.5295715 0.0390820168 -1.87346005 
20.3509865 0.564632297 -11.3205576 
18.0779972 -0.0137360282 10.9404469 
-9.42017555 0.204520851 17.4374714 
-5.27331591 -0.432365209 -1.8430326 
-9.99677563 -0.0795283616 4.2998662 
-14.8187351 -0.0433335528 -5.6023736 
7.35406542 0.0428973585 0.56107378 
17.5436516 0.231045976 4.44693375 
12.6076717 -0.401626915 -5.50923347 
-2.86094832 0.315220475 -12.4120159 
-10.9522791 0.535699666 18.9947414 
18.5229607 -0.10789866 -14.3123255 
-12.727869 0.0348920636 22.7494869 
9.42927742 0.242461786 0.341805547 
-24.6685963 -0.426830232 10.3999357 
-21.8006592 0.252109647 -0.606358528 
-15.0143623 0.104711391 -4.35085726 
-7.34963179 -0.63192004 -4.54283476 
18.0475464 0.337917954 -9.16981602 
-7.13241386 -0.446490526 -1.80972683 
11.7118206 -0.790428996 -6.84423637 
1.09731853 0.395195812 -13.6910677 
-7.46760273 -0.278790057 2.87252617 
24.5965347 0.0218389574 -2.05440354 
19.476263 0.0863370597 -14.9765043 
-0.0622846037 -0.367705554 4.50726843 
15.4247389 0.188374847 1.07612824 
1.68750513 0.341274977 15.3113689 
16.2007027 -0.176732391 -10.6758699 
22.4328728 -0.395149976 0.0860273466 
-18.511446 0.817839742 -2.11101222 
8.91706276 0.00100133044 -7.13820744 
-12.8118153 0.173021883 11.3728886 
20.9927502 0.0679000244 -0.421297699 
11.9896688 -0.150094673 -14.2875376 
4.13387823 -0.0413923115 3.18149662 
23.3854389 0.305363119 -5.8485527 
23.5578861 0.595829904 -11.9682827 
-18.9803181 -0.199586317 -13.6237707 
12.5026035 0.139362901 -18.9320393 
-2.5210464 -0.323229462 -0.981023908 
8.45246696 -0.113835633 -22.019062 
23.2039795 -0.480236262 0.334025741 
3.6700778 0.17111136 13.5595837 
21.0217876 0.0150631303 -0.0892052501 
-19.4723816 0.422870398 -2.65693307 
23.9448547 -0.0894051492 12.9915657 
0.431910664 -0.105799876 -4.0151515 
19.2811413 0.371270746 -11.1659241 
-1.58004677 -0.129464954 9.02828979 
7.2546587 0.351274043 -10.6813755 
1.60730398 -0.166399881 0.77130872 
15.3887701 0.173007384 1.86903107 
9.86744595 -0.386657625 -12.9079475 
5.85513878 0.447606385 10.774188 
12.1558142 -0.227732673 16.9823437 
11.3549385 -0.220523849 13.6892586 
-3.06229138 -0.19369632 -6.02545452 
10.4546089 -0.20365347 2.64372754 
10.0832644 0.333532751 9.40770817 
3.72588515 -0.214836031 0.768254042 
-22.0568562 -0.206688657 2.33422089 
-6.0304203 -0.624536335 -5.31549215 
-0.934842229 -0.122190461 -2.79412413 
11.0917587 -0.304064155 -4.97098875 
-9.17343616 -0.290001482 2.17694116 
3.62347412 -0.36551699 6.85091448 
2.62910438 -0.430497169 5.32946777 
-11.7434664 0.297361225 4.98288298 
24.3036613 0.308723778 -13.3988037 
-9.42715168 0.289207995 18.282711 
7.85745668 0.259186655 0.591308177 
2.77451348 0.380349427 -8.34245682 
-10.8250828 0.173627079 -3.94122148 
18.2458553 0.305896312 -8.85308075 
14.2810392 0.524244547 4.38754749 
19.705637 0.294692039 1.99769294 
2.47268891 0.393269807 -11.7186947 
-10.8819008 0.188659534 9.53620625 
-7.85311174 -0.231304437 8.00316048 
9.42531109 0.0998052433 -2.24803901 
-21.7819023 -0.372175753 7.32156134 
8.72980213 -0.160215527 -9.82501602 
-21.5357647 -0.139239088 -9.38020515 
-13.6254053 0.389170974 15.6251116 
1.76703393 0.209825218 -9.42682171 
-16.8125591 0.442231715 -2.83251309 
21.5879631 0.544767499 -9.43924332 
-20.1244011 0.195197389 2.6496582 
15.9864941 0.0816064402 17.3144073 
-9.14312363 -0.338579625 7.03078938 
-15.4534864 0.294178069 10.9743137 
3.57815742 0.473624438 -7.88951254 
-10.4453411 -0.0373536386 -7.44878244 
18.3120823 -0.0747709945 -1.43788278 
-2.16673613 -0.0739541873 9.46119881 
-7.21811771 -0.170860201 -11.1110973 
-12.716918 0.233462736 11.7789068 
4.08358383 0.432719827 -7.85784531 
-12.8217535 0.187466487 4.99547672 
-10.732666 0.4130826 17.7142105 
-5.84192181 0.413204938 -19.3034077 
-14.8203611 -0.0461579338 2.68010855 
23.3421154 0.49932912 -11.6078587 
-16.1128216 0.406386703 2.62850308 
9.85690689 -0.162950203 -4.93724632 
-2.01601982 -0.171455875 -0.0391507 
-11.8061771 -0.431733757 -11.5018768 
5.94422483 0.448088109 19.276165 
17.2513733 -0.358029187 -18.9654388 
2.40284395 0.175767139 15.9770603 
-20.5713215 0.529986501 0.313237041 
17.0343361 0.191427246 2.39259291 
8.30653381 0.031167075 -10.6842375 
15.3802986 -0.169313282 -1.21052694 
-22.2777119 -0.145620391 19.6544876 
-14.5837946 0.123590186 -3.37408972 
17.9582806 0.203688294 -10.5201769 
-10.8346682 0.0328655019 -23.3008327 
-2.36999393 -0.150989309 4.61907196 
11.4435225 0.160828307 6.30896473 
22.8658504 -0.0968602821 12.7691231 
-3.08161426 -0.400056094 19.2125072 
-2.3303833 0.190971434 -18.3087234 
2.79981923 -0.191286206 3.56950974 
9.60409832 0.0443823971 1.35151505 
-3.46677899 -0.0160967465 7.17212963 
-10.2120552 0.0782208219 6.43573904 
-5.84662294 0.186305732 23.4697208 
-4.12832022 -0.120017201 9.27463627 
-24.7424526 -0.261702836 11.7011843 
-19.7139091 0.178355962 -4.40689993 
16.6483784 0.108616196 -7.39455938 
18.7177296 0.0387342945 -0.593082905 
-4.60778999 -0.0304138437 -8.32640553 
24.5821934 -0.104418084 -19.6361389 
3.53676295 -0.181560889 -15.4575176 
8.43901253 0.355849206 1.26535356 
-0.0795551464 -0.531610966 5.64867449 
-3.95561099 0.265862823 -12.4365149 
8.66393852 0.00184232229 19.7567501 
-9.34717941 -0.17548357 8.17640114 
-15.1760492 0.281344831 8.02350426 
7.44703722 0.379848301 -1.52290559 
-3.28121567 0.188783258 -11.4443159 
-2.96160316 0.0682424977 -11.461648 
7.73438978 0.654118598 7.93075275 
-17.7786255 -0.487004578 -10.9202681 
-11.6241179 0.403409213 -7.17307854 
24.2417259 -0.116549529 0.0200098157 
20.6638737 0.345882386 -8.54924393 
14.2480469 -0.300810009 12.8536301 
6.42175579 0.481514096 6.19294262 
4.80134201 0.0716189444 6.25788069 
0.130191594 -0.237162843 -6.69122171 
-5.6448884 0.117862202 -11.1099434 
23.4758472 -0.135541812 -19.3710117 
-20.1618595 0.252861142 23.8044834 
19.6834946 0.465986431 -11.8700418 
-0.766366541 -0.417035431 4.54402065 
12.4967937 -0.400802583 -4.59484673 
18.3205051 -0.574438989 21.1769028 
12.7539692 -0.693008006 -8.21239185 
-3.51504397 0.0919562355 9.48535156 
-1.19894063 0.327203691 -12.587821 
6.88808966 0.350480467 -7.87100506 
12.3070831 0.109943494 9.24479485 
-2.95198703 -0.403554171 -5.22692442 
-4.86458302 -0.0584116355 -8.01159191 
-8.76175117 -0.199744865 -10.2543058 
-3.57663989 -0.255817741 -1.23036587 
12.8268547 -0.455398142 -5.73775816 
-9.08696938 -0.113832772 -6.57154846 
7.73461533 0.517523527 9.21725941 
2.09034801 -0.304833293 -0.75440377 
-4.58198881 -0.13813448 0.875129759 
-16.1414356 -0.406909287 -15.2983522 
9.16079807 0.557846189 6.9942193 
2.80029297 0.187182277 -10.2420349 
2.8409977 0.109183826 -5.66740847 
-23.8384724 0.308366865 -20.6475544 
20.1567039 0.277144015 -8.75816154 
-21.0056019 -0.105551176 4.25537062 
23.3735542 -0.0433777571 -3.06827998 
-9.66369915 -0.0860865414 5.64785004 
-22.9130974 -0.249787524 -9.42345715 
-18.1028709 0.543894291 -3.82440186 
8.07133675 0.587152898 6.32168531 
17.4084454 -0.214279085 -11.3948841 
19.2384663 0.284862965 10.6372633 
19.0698395 0.321686625 -9.18569374 
-24.4283218 -0.34718886 14.7025309 
18.2207394 -0.0180016011 11.4727011 
18.7428665 0.22241281 -12.0357771 
-10.0160093 0.0210715998 5.72688246 
-7.2519722 -0.551221311 -5.54042339 
-1.76536286 0.394396931 -13.6622515 
-4.93118191 -0.6439569 15.6997738 
-8.38713741 -0.315152317 6.6737051 
-12.8915873 0.221589595 7.51139879 
-19.0791759 -0.279370427 17.4842052 
-16.1283436 0.367092699 -3.30090523 
-22.2122822 0.360656738 25.1503029 
5.90966797 0.378299296 8.22465038 
-18.5841827 -0.196238026 -11.255847 
13.817749 -0.146422416 -13.3259735 
-5.99296618 -0.168574154 2.98318028 
-18.0793381 -0.0265466683 -6.72258663 
-19.5992641 -0.05357996 -7.20723009 
-23.5941296 -0.461313158 11.8434334 
-12.8610563 -0.613683581 -14.2209549 
-3.48506117 0.0594451204 8.80072021 
22.9467354 0.475784093 -9.44059944 
-1.26497424 -0.315755606 -5.51376057 
8.07897568 0.323807716 -2.73037505 
-21.6694107 -0.295929432 6.40163231 
-1.16032517 -0.048077751 10.3626766 
23.3082829 -0.0506991483 -3.53641701 
0.0211653523 0.20357573 -13.1019135 
-14.5880508 0.440191656 15.573575 
17.4824924 -0.0541900359 11.5696115 
21.7748451 0.0391868278 -4.05357075 
11.7345104 -0.0621823296 -0.234765694 
2.76015997 -0.203379169 0.495710611 
5.55639362 -0.200838834 3.06155109 
17.77355 -0.0511516668 1.77680588 
12.1866322 -0.0992406607 -14.7973223 
-11.4708099 0.568454981 17.3383293 
6.78268147 0.4971582 5.89590263 
2.84925723 -0.0582563281 -21.5641785 
11.9266949 -0.0798586309 3.56698656 
-24.1340733 -0.0365555696 -8.30696774 
-2.93057775 -0.285890609 14.469017 
-19.3139706 0.190140277 6.36976862 
15.5761919 0.123129338 0.933378518 
10.4221992 -0.158185497 0.298189431 
4.21411228 0.144442752 -2.68206048 
1.56292999 -0.153147519 -2.71853638 
-13.181776 0.286442459 5.81529617 
-4.95150852 -0.349872679 12.0992918 
-20.4159737 -0.0140627585 5.22305822 
-12.4924383 0.27635482 6.08051538 
12.641077 -0.637802362 -10.5406733 
-20.518177 -0.102765352 10.8885813 
3.54768205 -0.200771019 -1.17667615 
-24.1928196 0.0235915277 18.7961445 
20.2854099 -0.0457830243 -3.7073698 
-16.970892 0.439745426 -3.0501821 
8.78661537 0.515949667 9.10059166 
-4.90677071 -0.0851092264 0.352675766 
17.7310295 -0.0215773191 -5.19298315 
18.9629631 -0.0166739188 -15.2100716 
11.7147751 0.0065482338 10.1334143 
-13.7421122 0.231957972 12.5298309 
0.888672352 0.410704434 -13.4151163 
-14.2230272 0.018489819 -4.08911419 
-13.3895092 0.316002697 6.36083937 
0.229901478 0.0290651284 -0.991194665 
-20.8404694 -0.0983480439 -12.7420502 
0.636807919 -0.346877664 4.98213577 
-2.42761731 -0.448575586 -2.37530231 
-9.10050678 -0.206907898 10.5010624 
14.7462339 -0.27437377 -15.7628298 
17.1023655 -0.0187243614 9.50582123 
-7.80091 -0.445194274 0.679844081 
-15.2323523 -0.398569822 -13.4214287 
22.1499443 0.668147802 -9.49104977 
12.3728161 0.101758309 -19.0574818 
-8.81875515 -0.294312835 -10.8233204 
-16.5699158 0.38036266 6.0240159 
2.61993742 0.122429386 24.2066994 
-7.08939981 -0.204326347 4.12887192 
-6.59273052 -0.176705435 4.50535107 
-0.961775839 0.117310114 -8.95911503 
17.4432049 -0.409738094 -15.1320686 
-5.11501837 -0.592838347 -4.64509773 
1.46878552 -0.162001252 -2.29519415 
-7.3153224 -0.383019328 1.13601673 
8.3983984 0.126593187 -12.3386192 
3.83503437 -0.357168734 -17.4862442 
-1.71981728 0.00828869548 11.0845671 
6.94179726 0.359629512 -10.4702978 
-17.9603519 0.113868371 -5.71546125 
15.9833193 0.0299622528 7.61529398 
-1.12797654 -0.105298467 -1.12019527 
-21.0200691 -0.434566379 17.4370117 
-11.9557362 0.269628674 3.51049995 
4.61778259 0.165389195 9.71671104 
17.9836063 -0.00642876653 -4.6443491 
24.880621 -0.0974491313 -0.644030929 
-1.28769302 -0.0648165047 1.43984973 
2.96421099 0.24464108 12.8221521 
20.2117558 0.568587661 13.6178637 
-0.421706825 -0.55675298 6.05488586 
-24.6683979 -0.247109577 12.6216602 
18.3854065 0.0256107729 -0.909137964 
18.5300388 0.229386389 13.9425144 
-4.78828049 0.38365829 -13.995945 
6.43692446 0.215649337 17.0946331 
-5.5724287 -0.179721922 2.15506983 
21.655056 -0.0036228823 18.4405861 
23.4327259 -0.11454156 -18.92729 
8.39646435 0.49350512 10.6991167 
22.5066814 0.245565608 -6.24944687 
-2.62710881 0.0939112082 10.4075089 
4.42894173 -0.203745767 -18.2351875 
8.3251543 0.0975846425 -8.22922421 
-20.1983833 -0.0887867063 -7.87997055 
-13.2746592 0.109171331 -5.02284718 
17.2538834 0.0514915437 7.48183298 
6.18327618 -0.134005308 2.5924077 
-18.7212963 0.216460571 4.06259108 
-24.7163658 0.000824099523 -0.775090396 
-13.2946262 0.305984646 6.94879675 
22.1964207 -0.0815796182 9.01963425 
13.5696926 -0.153077245 -0.885558605 
3.36340904 0.0358132571 10.246973 
20.6513805 0.508979678 13.6963587 
23.820282 0.120818511 17.4306641 
-9.01607037 -0.467639387 -11.8154335 
9.68620968 0.0576629303 4.38680601 
14.223855 -0.118630603 -16.6272221 
14.8546495 -0.458514452 -21.0036011 
10.8844242 0.236513674 6.87927961 
-18.1520157 -0.170949906 13.8800611 
21.4907074 -0.302209169 2.17601228 
7.63788986 0.659922302 7.88249063 
20.6243343 0.146013975 1.21549022 
-15.8709478 -0.572829902 -17.8631992 
4.08129215 0.00345680583 -13.243228 
13.8127451 0.197070464 1.11711001 
17.6982841 0.0800309554 6.70221329 
-21.1246643 -0.159741953 10.5743999 
-17.3238087 -0.0837580934 12.091382 
-20.0702572 0.169230402 7.30866623 
12.5006618 0.0978540406 8.64577961 
10.7093048 -0.462931842 -6.05894041 
9.06481266 0.234275639 1.30803633 
13.5853853 -0.583297849 -10.5167494 
12.5545607 -0.357601404 -5.06964922 
-11.6190605 0.0614555106 2.51273131 
13.5118999 0.0583686344 -17.9634495 
7.20088863 0.404017895 4.64050722 
8.38880634 0.627469599 10.0854082 
-2.23184681 0.409455448 -13.6444645 
-19.3843327 0.228254467 3.20892072 
-14.5989046 -0.47891739 -12.7722082 
-19.9870682 0.0175311137 6.27654934 
4.89410257 -0.143635362 -14.3476162 
-22.1177502 -0.157702774 1.76878762 
-11.8358593 0.328040421 -7.61764717 
19.6370029 -0.197565272 5.02402353 
-6.07359838 -0.447610617 9.98922157 
-11.9038057 0.22425732 -8.17596436 
12.3742094 -0.715766549 -10.4831944 
21.7376251 0.541830003 -11.8312073 
-10.960021 0.428351611 17.0870762 
8.22092438 0.0653935969 -13.4702339 
-10.8074942 0.269635618 23.871542 
-16.3339977 0.116203934 8.64593792 
-13.6390219 -0.0545770004 -7.86960554 
-24.2600555 -0.392248571 11.9916153 
19.2086506 0.0701347589 9.3123436 
-2.33353758 -0.24135004 0.894745588 
-10.2393055 -0.037162859 3.97014499 
-7.49084473 0.0334920622 -17.4907265 
1.71758568 0.121979967 11.9669857 
-8.72179413 -0.393216997 -15.3628149 
-12.6195555 0.283286721 12.5739279 
13.6290874 -0.378326744 -21.8060646 
19.2764835 -0.187743098 -21.241518 
-22.6379948 -0.429333776 8.5563097 
3.59598756 0.0198128484 9.94930077 
-13.010479 0.176613346 -5.03331327 
-23.0788803 -0.255737454 -9.2954998 
-11.4465361 -0.194424421 -1.45734525 
24.7659931 0.233556241 -12.306118 
15.7966366 -0.474397838 -15.5252695 
17.9596653 0.272591352 2.78276539 
11.1044941 0.116120316 10.342432 
-1.11438143 0.262380481 -11.9168282 
10.9398375 -0.248527929 -2.8364377 
-24.8184223 -0.442437947 8.97780895 
-9.01972198 -0.28852576 2.24096227 
-16.1369724 -0.331564277 -11.9080153 
-22.0450439 0.0287347753 -5.14685917 
-14.7162008 0.0784558207 -7.75685644 
15.6730843 -0.280635327 -8.2487669 
18.1066208 0.0194230676 -5.19474983 
7.45990229 0.368954569 21.4916172 
-0.827407479 -0.010299108 2.73135209 
-9.40525055 -0.209103167 -2.78132367 
24.3197823 -0.473992556 8.33245754 
-7.50970173 -0.417435735 1.99246097 
-18.6580296 0.325577199 7.79056215 
4.92423725 -0.225393683 1.24510503 
2.98877621 -0.506258726 6.80077887 
-17.9534702 -0.206132933 18.8314018 
20.5933285 0.0788318366 -4.70381498 
15.7348223 0.198115692 6.0448575 
-4.97010565 -0.483338058 14.0813408 
-0.334897667 -0.0741279423 16.0763741 
-1.00951207 -0.0250420384 -8.15920067 
0.43778953 0.00910891313 -0.805521011 
14.4499006 -0.138453364 -1.89641297 
5.24540806 0.606257081 22.7343483 
-20.4235401 0.512295544 0.648124218 
17.3359604 -0.0211465582 -10.6737881 
0.219260797 -0.00285061169 1.58989382 
-1.28371871 0.247203991 -11.6171751 
14.3177147 -0.293706089 -18.4150658 
20.5311623 -0.526620328 -24.1018658 
4.290205 0.0607466958 16.1539288 
-0.377577871 -0.241354421 -4.00991297 
-22.9594746 -0.470274568 16.0301437 
21.3470955 0.425342888 -7.14673758 
18.3678951 0.211992443 2.41800165 
-0.550877213 -0.322611481 23.1417274 
-3.61524582 -0.172893256 -0.283974707 
9.55665302 -0.205132797 -13.7552423 
6.64784288 0.600879192 7.57187366 
-4.38722754 -0.0732483268 7.94778681 
17.9750633 -0.300781161 -14.5394831 
18.5479393 0.0972225964 12.1252327 
-16.6183281 0.171995297 9.80006695 
3.32696009 0.503937542 -8.19884491 
14.5602903 0.401163965 2.6233449 
-21.9254627 -0.263707131 3.04014778 
-13.7364902 0.339086592 8.89129162 
20.5422897 0.0194423571 -0.420668632 
2.37133384 -0.38010022 8.01572227 
2.01941252 -0.15966934 -3.38653231 
13.8567867 0.0736471042 7.82728577 
-4.39853096 -0.337870389 -1.27046895 
-9.17829895 -0.236294344 9.53687859 
7.57836008 0.561457276 6.29691839 
-7.85188913 -0.12085478 -11.3626394 
-22.2197208 0.548785806 -17.9507065 
4.37762356 0.0779243708 9.027215 
16.7329121 0.23734583 3.11041141 
22.7355042 0.0306139477 -4.62197161 
24.8264256 0.243506074 -6.36330795 
-12.1294737 0.414571673 14.3231583 
6.83504677 0.479201883 -9.55750275 
0.445987254 0.202737853 -16.1735706 
7.46415329 0.28136456 -3.02429318 
-14.659009 0.0566788763 -4.05485201 
19.7054043 0.234673664 -9.07892323 
-4.8267107 -0.129345775 6.11039639 
4.41243172 0.323799312 22.5179882 
-9.39755535 0.0137996664 -6.23146725 
16.3380241 -0.222062573 13.4648457 
18.9995728 0.082276471 -3.78717852 
5.31920719 0.242754921 12.1686974 
-10.366003 0.014866774 2.93087196 
-5.95575523 -0.388022482 10.2367172 
-18.9911137 0.666812479 0.599843085 
-20.4650993 -0.183513716 -12.0208387 
9.17912769 0.278588802 -0.982091546 
0.165357843 0.0425798781 -1.74905956 
-12.5223494 0.535832882 14.9024773 
16.5997066 -0.314134777 19.2996769 
10.9551125 -0.132425204 0.194757432 
-4.43120861 -0.237738118 1.79460132 
-13.1673613 0.00454315823 -7.12931204 
8.47071838 0.162420228 -7.89996672 
-25.1931057 -0.269109368 13.3621178 
-24.253891 -0.361413598 12.668622 
-19.7230377 0.216951415 7.55240107 
-17.6448917 0.0709022358 -16.9554539 
-7.5621767 -0.198521078 -8.71257782 
3.04412293 0.254233271 13.0375471 
-0.0805898011 0.266725212 13.8628025 
6.92782688 0.451925099 10.6580858 
-2.57916689 -0.225811347 1.7562474 
-19.700552 0.155803904 -5.55643988 
-15.6273508 0.0349673703 -6.77582026 
-23.3455143 -0.400697738 16.6330338 
8.67718697 -0.0817620456 -23.6937122 
5.38225985 0.277499259 12.0263929 
16.3679695 -0.619795918 -18.521389 
3.61889076 0.186207592 -5.67550707 
-18.7064648 0.201985151 5.39589453 
-23.9818516 -0.285642713 5.70615959 
10.125289 -0.0741499215 0.991726577 
-9.89719105 -0.0986798629 3.12502074 
-14.1565151 -0.414505243 -11.8597012 
20.2937164 0.190432146 0.611599445 
-18.6317978 0.316704959 -4.32287216 
-17.1889973 -0.0843099281 19.0302753 
-7.85344028 -0.391544968 -2.99701405 
-16.2234955 0.301614553 -3.76166248 
15.2879877 0.276434481 3.82481694 
-7.04901838 -0.321452916 6.93742228 
-11.0905447 0.152713656 6.97783184 
-14.1145029 -0.184233218 0.750280797 
-1.98005414 0.327661008 -17.6383915 
16.2319832 -0.0145566529 -1.66969919 
12.7730665 0.337331712 6.22993851 
1.36896992 -0.0680677667 -0.514891505 
13.598773 0.0811028555 7.68612003 
3.46015859 0.467716426 -8.27695084 
1.76441836 0.0423637405 -8.19744205 
-10.5478964 0.275450706 -5.26696634 
10.4996138 -0.201086804 -19.3863411 
9.1859436 0.18783088 -2.36668015 
4.88650656 0.569041371 -8.47329044 
17.6473217 0.308941931 -9.19277287 
-23.4567299 0.101354763 -12.2524014 
-0.012341287 0.0839950368 -1.43261302 
-24.8547783 -0.311803341 3.87114811 
16.6975498 -0.182228327 -5.39879084 
-12.0703688 0.325518101 -7.43978834 
19.7883549 -0.15527615 7.15056705 
3.69567394 0.152352631 11.9765377 
24.4405098 0.0977119356 -4.63073492 
16.0913353 0.178428859 0.752433896 
-9.75152969 -0.274371117 -9.16782284 
8.69916439 -0.165704697 -17.9245682 
7.97849035 0.292639792 -6.80560446 
-5.87550116 -0.187946409 3.59392285 
7.9412899 0.233007535 -4.96770668 
-3.24733567 -0.488396615 20.0764217 
6.69995642 0.577408612 7.41584253 
-3.55656791 -0.329495579 3.59456396 
9.8584671 -0.0544295609 -3.92885089 
14.4021378 -0.206825137 -13.5701313 
-18.7637978 0.31075424 6.16114855 
-21.5393505 0.154886231 -3.83006883 
-4.99840498 -0.218081847 8.51867104 
22.2989445 0.21637626 -14.6344786 
-13.3608084 -0.0273123756 -6.73078632 
-2.11711049 0.528517544 -15.2846413 
-4.74733448 0.146516189 -9.86693668 
-21.3174458 -0.294784904 7.6757555 
16.860321 0.235365942 3.43661141 
24.3311005 -0.654187858 6.10788202 
-2.97931051 -0.257417053 -5.84345722 
17.2559776 -0.313814074 -20.1970615 
22.9223022 0.350953996 15.9898968 
-9.84889603 -0.2076478 0.999211967 
9.62837601 0.0377446041 13.9649143 
-15.6528101 -0.34823814 -10.8187838 
23.6801929 -0.224081472 -19.9762974 
-12.2381592 -0.148131415 -3.2465229 
17.5454578 -0.00905572437 6.25748348 
11.1438389 -0.14543283 -20.992445 
21.6187229 0.0542731658 -2.26445961 
-4.89901161 -0.224266127 3.32700562 
23.3015461 -0.449276686 8.19648743 
21.093647 -0.0351428315 0.989357471 
-10.5857258 0.153248921 10.3785324 
23.5668716 0.287851363 -9.05863667 
20.8002243 -0.00988705922 -1.7413944 
12.4584513 0.0706706643 3.85635114 
20.9887638 0.453309804 -9.5724678 
-6.59296513 -0.123522662 6.51099682 
13.9827042 0.243446872 19.6477909 
-21.8045025 0.145318717 -3.90998554 
5.42071199 0.706420422 -8.25910091 
-15.0986586 0.159671843 6.7961688 
-9.32908154 0.259540528 18.3582745 
5.25245047 0.578999281 -7.7902832 
9.20515919 0.0672909766 -22.6771717 
-11.762043 -0.193078652 -2.09387302 
6.35241699 0.536402524 12.8290358 
1.23296845 -0.0353389755 -4.35606575 
-22.2766514 0.20438233 -13.5242758 
-22.694067 -0.294363648 5.5520196 
-21.0472794 -0.195089236 7.50880432 
7.02485561 0.422358662 -10.0008612 
20.4627724 0.0831144601 -4.81209517 
-14.8547049 0.120434172 -7.28748226 
22.850668 -0.138543367 10.3249407 
-6.32519245 -0.109012239 -10.7237902 
14.0386276 -0.216579124 -2.69031096 
-21.8066959 -0.484985799 14.620079 
-18.8728676 0.863362551 -1.2857945 
11.4009495 -0.270811945 14.0637274 
-13.0346546 0.428040922 16.1188049 
-8.40056229 -0.266064167 -6.5890975 
-13.7083054 0.0514163673 3.79169989 
19.1843319 -0.250417531 -20.2714024 
-5.29611063 -0.258804619 -7.09067535 
11.4485121 0.223292157 8.98815823 
0.611022532 0.00822998397 -2.74958992 
1.21917605 -0.0730121359 -7.04986906 
-8.64892197 -0.345259786 5.89915848 
-15.2201223 0.370282859 15.1266899 
-19.4697685 0.0887824893 -15.5128727 
-4.61614752 -0.22179687 2.76879168 
-15.4706802 -0.0469117872 -7.83191442 
9.38008595 -0.345045269 -9.53943729 
3.58128381 -0.357727498 6.38292599 
-3.92907667 -0.177277535 -8.85120296 
-7.41213179 -0.180920869 -11.633234 
24.1173038 0.10369195 -5.34012604 
12.0438747 -0.77666539 -10.7029333 
11.191288 0.0631302297 4.8826685 
14.4339304 -0.345793307 -12.7800913 
10.2877731 -0.156486452 2.51515698 
-1.42063534 -0.091723308 1.53299916 
9.04079151 0.0774238557 -22.1651516 
7.39361715 0.26352194 -8.38735199 
13.4568415 -0.0240449421 8.38775444 
-9.78815365 -0.0760495663 12.4335108 
-7.82482052 -0.281544358 5.61725998 
3.1007328 0.0639213324 10.4253979 
-17.9678745 0.727196574 -3.18521404 
-20.9830322 -0.210923344 7.83828926 
-15.3120098 0.18255724 6.53992319 
-9.93542194 -0.0882563442 6.77853251 
-0.649824023 -0.26251173 17.4225597 
4.61429977 0.166983515 10.4876366 
-14.5550337 0.0542889275 -4.00400734 
10.0226755 -0.258044869 -6.484869 
-9.2511034 -0.0650591478 -6.2821908 
-4.90697145 -0.19566685 -0.27253738 
24.2340908 0.123935185 -10.0330439 
-19.0568256 0.200769275 4.95367384 
-20.23419 0.363392353 -2.45509005 
8.89176559 0.347288549 6.18158102 
12.6459131 -0.164088845 16.2051907 
1.06173635 0.317735553 -12.2549486 
-10.2472935 -0.518633246 -13.720171 
-11.8518076 -0.569098592 -14.3953304 
20.0060883 0.231572405 2.41651535 
6.55549479 0.296162188 -3.81486964 
7.61025 0.176774353 -0.102848902 
0.920828104 0.139978975 -8.74269485 
8.34529972 -0.0860277712 -9.36810684 
2.41763878 -0.112204805 2.0174582 
11.2440996 -0.0269620009 -17.1178608 
-23.9782696 -0.426797539 7.75090218 
-13.4358292 -0.00977430493 3.14125037 
-21.2557602 -0.00732572982 -6.47361803 
-2.51453233 -0.226016387 3.64430809 
-17.9060993 0.515096366 -4.17794323 
-22.7697449 0.31807512 -3.32258463 
10.4308434 -0.17499581 -5.24186897 
-0.286928624 0.0675595775 -0.623075783 
6.58204794 0.21217005 15.7798786 
14.7062082 -0.325256169 -12.1872206 
9.41541386 0.0308207199 -16.8471813 
12.6725817 -0.104867496 -23.391386 
11.5950909 -0.628299892 -11.5219631 
18.3875446 0.289715916 -8.90264511 
-6.25655365 -0.559144676 -5.81738472 
1.25144875 -0.0533121638 -1.01520097 
4.33759022 -0.0951513126 3.46701694 
14.8293371 -0.247013152 -4.56833696 
-12.0965853 0.201201737 6.58070946 
19.7061291 0.0832830518 -0.716531813 
2.98958635 0.401398957 -7.6838088 
-1.81150281 -0.366824836 17.9708748 
12.6470957 -0.034023039 10.0020847 
10.4183884 -0.698158562 -8.61189079 
16.5226822 0.0772205442 5.2565155 
13.4969358 0.124733314 21.2508907 
2.35893011 -0.0420353599 3.11881447 
20.2341518 0.183352605 -5.96952868 
-16.2085781 0.431559294 2.29836535 
10.6425819 -0.751664937 -9.71259117 
-14.5712738 -0.00389695796 3.1347332 
-8.16454029 -0.317839354 -3.32633519 
4.74855328 0.415140152 -6.67427731 
7.24701881 0.293993831 4.11795521 
-17.5086727 -0.107069656 13.7215452 
7.53569174 0.283271462 19.9975185 
7.14287901 0.0351541527 -15.1613016 
9.4878788 0.182273015 -1.52854943 
7.40116882 0.316918224 -10.5845747 
7.80087948 0.183224395 18.0451317 
-11.430995 0.283755392 3.33034563 
-13.4665604 0.296828419 12.2647362 
-17.7087517 0.706515789 -3.31079364 
-17.0113907 -0.250185937 -13.2084951 
-3.15288663 -0.207612008 -6.17318535 
-1.26038527 -0.0745496601 12.7350607 
-18.8772335 0.428734869 -3.32517433 
-9.42910194 -0.0754555389 -18.0182571 
-4.14089918 0.483415574 -22.740202 
-2.3432219 -0.192142263 3.54048133 
9.61555958 0.560918927 6.76006842 
-10.2700729 -0.252307445 0.573550403 
-19.5375404 0.414139688 -19.3221836 
0.383435398 0.379112065 13.6151981 
24.1424294 -0.110034302 -0.868786514 
-23.2131367 0.0808965489 19.5572567 
-23.3521671 -0.553535998 12.7171268 
23.8369045 -0.00691020023 -2.93939757 
12.4006739 0.00576658035 4.56308079 
12.3510609 0.19094719 8.30068111 
-22.5907879 0.155109942 -2.16295242 
-15.6265211 0.153262779 3.06582093 
-0.406959176 -0.0996229574 1.76066899 
-12.6071787 -0.128621325 0.34383142 
20.4538612 0.550614178 13.7580233 
-3.80268455 -0.206733406 -0.570705712 
-9.30338383 -0.309374154 1.2978406 
21.8944302 0.436398417 -12.6500654 
19.0242596 0.202698916 -5.71016788 
-21.1523972 -0.0439249724 20.4542179 
5.44693327 0.429543018 -6.57472658 
-22.3626842 0.3025603 -3.46189356 
-15.1682625 0.281061649 12.747262 
-5.79567003 -0.3608675 0.0459308848 
-6.72092915 -0.408945531 -1.34490168 
20.2036839 -0.0948518068 8.41485691 
0.413422406 0.00419091387 -8.19880962 
21.316164 0.441529721 -7.44521809 
14.3739767 -0.364827693 -11.9310303 
4.14070511 0.080540821 10.3231621 
13.2179623 0.351417184 5.73808908 
-12.1683559 -0.0445486568 1.81789136 
-4.50650358 -0.0654990301 7.25614166 
10.9301205 -0.222575963 13.6766033 
-15.5474997 0.407132983 -1.73649669 
3.04369617 0.226020291 12.4684324 
-2.41651011 -0.114549957 11.3119822 
9.47486401 0.561750889 6.66583824 
23.2427464 0.508284986 -7.92961788 
15.059248 0.341957659 5.21993494 
-23.6709881 -0.233602405 1.28824198 
-1.26261735 0.248413309 -10.1566944 
-5.49537754 -0.198547423 5.74545574 
-9.61346626 -0.134826064 8.15279293 
8.34835911 0.494226724 7.63704395 
-11.0365181 0.301713109 15.6391277 
6.04134321 0.446750045 12.0609674 
25.0043755 -0.245833918 1.63843894 
15.9506531 0.177738771 1.40229738 
-3.89849257 -0.293754399 13.5041294 
-24.2968845 -0.230430469 6.10337019 
-9.78685665 0.096152246 -4.66502237 
-19.8257599 0.0846502706 8.27049446 
19.5774174 0.0141376629 3.85263753 
-5.60139084 -0.312567383 4.74310446 
-5.06673193 -0.271646589 8.67882824 
15.7962923 -0.691684008 -17.7338829 
-20.3935146 -0.0510939285 -5.68524599 
13.042347 0.0799929872 -18.2510967 
-19.7487049 0.686956763 0.738045931 
-21.1432629 0.143191427 1.51248002 
7.95622158 0.0761135072 -13.7574883 
-8.22624302 -0.30740729 -8.9660778 
1.6184535 -0.198991671 -2.44265223 
-7.81985998 -0.477133483 10.9236116 
-3.32697201 -0.120161548 5.0078702 
19.1087208 0.267227441 -10.2575293 
8.19467926 0.0695361793 -13.6455278 
15.9241657 -0.168841571 -8.66397476 
-5.76822042 0.323615074 -15.2846003 
-11.7392912 0.178119838 12.0528002 
9.71965599 -0.00949820504 2.36351895 
7.04796124 0.187139541 3.81494927 
-4.70657825 -0.385303229 13.6151266 
7.78999805 0.0476971455 -18.7499771 
-22.4327641 -0.22981365 -10.3240824 
-21.4692745 0.1882229 -3.56685019 
14.9372673 -0.13549909 -3.3834703 
9.46373367 0.338132054 9.99056149 
18.1402283 -0.0274347626 -5.89816618 
-1.26828671 -0.193447381 -1.9204818 
-24.5860081 -0.327668965 2.36472106 
20.7635536 0.609874547 -12.6993589 
-24.5347214 -0.453476518 9.80856037 
-1.43757439 0.457995415 -13.395627 
-4.85165787 -0.444645613 13.9559612 
-18.4264946 0.0342194326 -15.6914167 
4.25107479 0.283560783 -11.5813732 
9.97810078 -0.0729771405 13.580658 
-4.27123451 -0.0902226344 10.3956738 
-22.0439968 -0.380607873 11.3392286 
-20.9125805 -0.158228278 7.24126291 
1.27713275 -0.0245832186 -0.114852428 
21.5606365 0.51129204 -12.7996149 
-14.1103296 0.151270434 5.7685132 
-10.1351967 -0.115583718 -2.46539044 
6.00032711 -0.121370211 1.4635644 
21.0785694 0.552476525 -13.1401358 
7.93800306 0.261371493 0.212235898 
6.23935461 0.461202621 6.11803579 
3.90415072 0.388817102 -7.43111229 
-19.787075 0.64929229 -0.178618833 
-9.07609558 -0.175557479 11.1338539 
-17.5914478 0.16500546 -20.2874985 
6.37771606 0.114285544 -15.2104406 
3.48695874 0.123841859 -12.571516 
1.87580931 -0.0498882979 11.0950642 
7.59201765 0.0637575164 1.31995845 
-20.7771339 -0.160466999 -12.3976212 
-20.635519 0.255093724 -14.7858934 
11.3627491 0.0494322181 4.30421877 
14.3843307 -0.442034662 -10.0152311 
14.1193018 -0.477162302 -11.4812317 
24.5096779 0.470993012 -15.2542515 
5.34040499 0.014212152 -0.948658764 
9.15808964 0.0108339507 19.0342197 
22.5098724 -0.481363356 4.52900457 
-19.880331 0.342971742 2.26468801 
1.68994153 0.240223065 14.9202003 
9.58302975 0.0174327027 -16.3248501 
5.91465664 0.362713665 -3.59837937 
-5.52035046 0.4273597 -16.1169453 
10.6777983 -0.186404228 14.8693991 
-17.793169 0.745726585 -2.78916693 
24.7824554 -0.133686155 11.9433918 
-2.79756618 -0.414534092 -9.36670303 
15.1128931 0.302532822 18.0830498 
-17.8805332 0.0920996442 -5.9802475 
3.45874858 0.192195982 11.3039207 
-11.798502 0.215829581 8.74287415 
21.6631451 0.0734022036 -4.12423944 
9.93546295 -0.164530784 -15.8167362 
-17.8627071 0.489908904 2.77966785 
22.4708252 0.540497065 -7.92141199 
13.0885239 0.178862706 5.28673792 
-23.2140141 -0.0359677374 -7.01162624 
3.94430828 -0.161744609 0.891441226 
-23.1064949 -0.49610287 15.5563231 
-18.3271503 0.220660955 7.87450075 
11.6629763 -0.276475072 14.6144371 
-21.2388172 0.423090219 -1.15799201 
-10.1914816 0.391604751 17.8954315 
5.10045099 -0.111956254 -18.7234325 
-17.9887428 -0.441879004 -9.07131386 
-2.06275082 0.279099643 -19.1159306 
-4.73121786 -0.409150362 -3.48071408 
-8.6310358 -0.345221519 3.03896236 
18.419405 0.0213214569 1.93969357 
-8.99587345 -0.231817618 8.15904903 
22.7107983 -0.123643808 10.5401287 
-22.5162849 -0.304505259 12.1832075 
-21.6992283 0.394570947 -2.22007751 
-11.1748333 0.168939173 -7.09914112 
-11.6527376 -0.164711237 -1.99736452 
2.74257994 -0.546538293 6.39674759 
7.42401123 0.153721154 -4.08063698 
-8.01642609 -0.111189947 20.0555096 
-24.5734138 0.364166856 -6.57502699 
-2.68546104 -0.315443218 16.6187859 
-19.9493942 0.22239086 7.62468386 
-9.92884636 -0.10993772 3.43952203 
5.70577288 0.251221389 13.330513 
-19.9061661 0.324661016 23.2308502 
-8.44845581 -0.255173028 8.94021893 
-13.1404963 -0.10144151 -0.4465307 
6.26547432 0.511986613 -8.43136024 
-1.65750515 -0.155153304 1.23092008 
11.9485798 -0.00382566522 11.2531853 
1.42079389 0.197436556 -11.8310537 
24.6658916 0.267361879 -12.7063913 
20.0673676 -0.170763969 4.2354188 
-11.1516857 0.0220110174 1.9926523 
-23.9615707 -0.0728679672 -8.55064392 
-2.68655944 -0.0869364813 4.53884077 
-9.69451427 0.4011181 18.4538097 
12.426836 0.199076027 8.02836323 
-15.2619762 0.199379355 7.21618271 
-12.2250118 0.410000741 14.2988462 
-22.1602249 -0.202119887 -7.54673767 
-8.3719511 -0.332496345 -4.0223732 
-19.2126923 0.776332021 0.0354269445 
23.843586 -0.180919647 11.7386007 
15.2025976 0.289424509 2.47306871 
21.9523201 0.554764152 -8.36544609 
-9.83815193 -0.192781344 -7.42439413 
20.6702747 -0.377150923 7.18125057 
-12.5998859 0.150172964 -8.10150433 
-13.644805 -0.282554597 -11.1962967 
-6.26134109 -0.17396538 3.26361394 
-0.200496271 -0.0858621597 1.44261849 
-19.074461 0.717465997 -1.18153667 
-11.35567 -0.188625261 0.626454949 
19.7410984 0.0989955962 9.70064449 
0.810017288 -0.0397373065 2.41394329 
-4.31119442 0.570789516 -19.0613937 
-16.9754009 -0.362541765 -11.4768305 
-8.26983261 0.015038358 17.2423744 
11.4229393 -0.563124239 -12.9634542 
-23.1863651 -0.323507249 10.6775188 
21.9694366 -0.0293221362 -2.07497835 
24.7785015 0.191878468 -11.9361877 
-18.7142925 0.106670119 -15.6617689 
3.73972583 0.074220255 -3.10626817 
-20.6436291 -0.157755494 18.6102448 
-18.4132824 0.207524493 4.95467901 
-8.0080843 -0.372950703 -2.03996849 
-16.0625916 0.297470689 7.3878355 
4.6840415 0.181783125 11.1122923 
-14.1329269 -0.0276600104 -7.55206871 
3.4794848 0.404774666 -9.24133873 
-19.5061855 0.691693962 0.63832581 
-24.2672062 -0.316653848 4.44847965 
-19.353405 0.18914561 -16.1292229 
-23.9607658 -0.42723158 12.2895079 
5.25584936 -0.282001108 2.97699904 
-16.6281242 0.508615255 1.08995581 
8.24032402 0.479653656 7.2670598 
-12.0213442 0.0760838315 10.9674311 
3.63994503 0.357919931 -7.33819532 
5.16311979 0.147530556 -2.77335858 
10.4309959 -0.792053342 -10.6513233 
-11.9882689 0.52991122 16.0904331 
-11.4335308 0.222858056 -7.88374519 
18.9533253 -0.0455355905 -1.81651056 
4.97524738 -0.142666534 -19.7245502 
5.75844479 0.456366241 -6.08682108 
1.00219285 0.178412437 -9.29207325 
19.9234066 0.00127468689 8.61639023 
-2.72651052 -0.386769235 -5.46010828 
-23.0580177 -0.294103831 -8.73833656 
24.2715549 -0.0393438265 17.1169357 
-24.1417637 0.0732858405 -1.57599056 
-7.59535933 -0.400685906 9.26168919 
-4.16524076 0.460454285 -14.2283897 
15.2853231 0.220100641 1.12520111 
13.5220337 0.263062179 2.14814377 
12.7860174 0.0249700714 8.47513294 
-4.09332561 -0.294771701 12.946846 
0.527632356 -0.330192953 4.4111433 
-2.24508047 -0.0803886205 7.7683177 
-22.2032547 -0.447500527 7.84060287 
-11.792202 0.289283454 3.73339105 
5.24933434 -0.0987527296 -0.453345597 
-22.3834553 0.181406066 -5.45952034 
5.42562342 0.460835606 23.7223721 
-5.0230341 -0.296064556 -1.1826458 
-23.5968056 0.402882725 -15.2251339 
-22.0833035 0.58054167 -18.2668819 
8.88979721 0.488597512 6.77612638 
-11.8907375 0.340322882 -7.35884428 
21.0244637 0.0970664844 10.0304861 
18.4667206 -0.172168374 -16.7908115 
4.96079254 0.0592670701 5.77667093 
-14.3600502 0.120603099 5.73185492 
-10.4746733 -0.103923418 -1.85112488 
-13.5067177 0.0613312088 -5.47952795 
1.25639653 -0.536023557 7.9014473 
20.3579063 -0.421755373 6.42540169 
22.0508785 0.599333525 -11.2101955 
16.4391785 0.0984294415 4.60527563 
19.2104225 0.115773052 15.9863567 
-5.57184219 -0.354056001 9.78216648 
20.8144398 -0.519428849 -23.9587307 
1.11366451 -0.306960136 5.92068386 
0.544939458 0.120173588 1.50709593 
-5.52429485 -0.225093231 -7.31779385 
24.0513992 0.321315587 -10.8691273 
-18.390379 -0.125936642 14.1872416 
20.9124393 0.00422560563 -1.89675474 
6.23963547 0.406357765 -4.1867466 
5.45208025 0.349986434 10.8270874 
15.9739599 -0.00866036955 -7.16483116 
11.0117226 -0.722428322 -8.76804733 
-4.81601095 -0.145328343 1.94612157 
21.1148224 -0.0168413054 0.858844459 
2.25039673 0.118269399 17.6144581 
-22.307766 0.26026997 -13.9854288 
21.5084763 0.530271351 -9.2231636 
-18.4585457 0.381357938 7.24868631 
-7.97588587 -0.348124385 -7.44893885 
20.245451 0.60340929 13.3291674 
-7.07722807 -0.514128327 -7.2968955 
-23.1556988 0.281107008 -3.06581569 
5.26814842 0.58188957 -10.3135691 
-10.6380148 -0.657555699 -14.8923988 
-19.1313839 0.770222783 -0.612333179 
-14.0847454 -0.0603938438 -3.04221892 
-15.7182531 0.313708782 8.42170429 
17.727993 0.13117899 15.8309031 
-16.4482422 0.066775158 -6.05851126 
-13.3608456 0.089415364 -5.79688072 
-18.7054443 0.719949543 -2.52221489 
19.5840282 0.262955666 -9.64000988 
-16.6976662 -0.286073655 -16.4907207 
1.11881065 0.167115837 -9.39188099 
-13.853982 -0.119799688 20.9598484 
0.867955208 0.405103713 -11.0013866 
-8.02694416 -0.404571891 -6.39300156 
2.89737177 -0.0304316171 -4.35430717 
-23.3235207 0.356712759 -3.47053218 
-21.4470558 -0.0124741662 -6.96583652 
5.29446793 -0.162003398 -0.00887759775 
-3.00076962 -0.177687079 12.6595678 
-3.29680419 -0.177896038 4.60687923 
-24.6240883 -0.00347617408 -2.77448392 
8.45576954 0.125384435 -6.45209265 
-24.3320713 0.186525211 -18.903553 
-5.26898003 -0.231324211 5.51612186 
-0.0973538235 -0.1088636 1.56213689 
-10.2911882 0.726475835 20.5281086 
23.1843109 0.217384547 -14.8987541 
21.7585678 -0.357836038 1.56698537 
2.68420076 -0.00898364559 -14.3816376 
-16.6975079 0.23130466 7.2992115 
7.70789623 0.0162333678 -14.5434246 
-15.7188311 -0.100389056 -7.94839859 
-18.9105968 0.854409754 -1.15071952 
-15.4698677 0.0288839415 0.925608516 
1.63119686 -0.369381011 6.70223761 
-11.5284319 0.183246911 -8.51329231 
9.98398876 0.379023612 9.28532314 
19.3279076 -0.035151504 7.64617157 
-24.4585266 0.00829240121 -0.808827937 
-10.5751076 0.0628641695 6.57187939 
8.76263142 0.0322417915 -7.09575033 
16.9246998 0.000715027447 -0.982873976 
-5.51923132 -0.143908098 1.13678777 
-3.50536418 0.344022125 -16.9505119 
24.6605339 0.0979275852 -4.43682432 
-7.31482506 -0.614527822 -3.89018989 
-9.50988674 -0.039190568 -19.4386711 
4.83080959 0.102146246 -12.8881207 
10.918314 0.0107305525 -18.1902447 
20.3563709 0.0554897003 -4.6823144 
14.7624903 -0.282500565 11.5052204 
-19.1173038 -0.0816598237 -8.20463085 
20.6645279 0.10121277 1.73451614 
11.3111734 -0.0126115223 11.1210403 
-13.122241 -0.815542817 -15.9924669 
17.0129776 -0.00697786547 9.92767715 
-0.171061307 -0.201791853 -5.11677551 
-17.8360558 0.1323459 -5.44232893 
6.33057594 0.42571035 -7.26356697 
12.4063711 0.0549319461 2.60867929 
8.53666782 0.246364534 3.77726102 
-20.8708534 0.00884854421 -9.9320879 
-10.0455704 0.181865111 -5.76907635 
-11.1726122 -0.0891208649 -2.15809107 
-7.98200703 -0.248479187 -9.96356773 
0.78136754 -0.0670603141 -4.87216234 
-1.04012394 -0.4329063 21.065546 
-5.41770124 -0.106602281 1.61100757 
17.9289875 -0.0185421258 10.7680988 
12.5345087 0.267300069 7.00675058 
-12.6090002 0.304839998 12.7569151 
-3.78427196 -0.026937522 7.26888561 
13.8897448 0.424069583 5.54236221 
-21.1390209 0.263088495 1.1260047 
12.4862528 -0.760815561 -8.49104786 
-17.3059025 0.333665878 9.40862942 
18.1589127 -0.0491642766 -2.79948592 
10.0092754 -0.100513257 1.4743638 
5.01866531 0.231863916 14.4296141 
-1.63703394 -0.340158671 6.72707224 
-21.9435291 0.575453758 -19.3330402 
-19.4157104 0.289086163 7.46574783 
15.4325552 -0.439059913 -8.06815624 
-2.34365106 -0.402471632 17.8882732 
11.0804558 -0.507480204 -13.7203512 
-12.6384544 0.166929767 10.0855904 
24.4144039 -0.515128613 5.2989521 
-21.6262321 -0.0763696879 -6.9411726 
-9.18901157 -0.292456359 12.8779955 
22.3179874 -0.04193433 9.782094 
-1.80609012 -0.235821947 -6.25981569 
12.8754416 -0.710814238 -9.52514553 
-13.1499643 0.0540812686 -4.56776094 
-22.0427761 -0.324109346 4.40279961 
-7.42755508 -0.330514103 16.2445621 
-3.8401196 -0.521996856 18.1356869 
8.89345455 0.301682055 -1.85732412 
18.4657383 0.288767427 -9.13801575 
10.2567987 -0.661348999 -8.69264793 
-10.1620064 -0.0346766151 10.0739708 
11.6825056 -0.29887253 -4.92221928 
-24.254261 0.0436714925 -10.577322 
-9.57412815 -0.140446275 3.18304658 
-3.59718466 -0.122101769 -10.0927496 
-12.5143728 0.253500044 6.57429218 
14.4554033 -0.416520357 -5.87412596 
13.6948757 -0.337688595 10.6951637 
18.7169933 -0.234771326 -17.663681 
-18.0551777 0.593964875 1.66349006 
12.31814 -0.569466949 -6.40235281 
-19.9251099 -0.0944584683 -12.6685152 
-13.8929939 -0.0107735693 -8.75931072 
12.7186012 0.161052257 8.03526974 
-22.5012398 -0.335380375 10.6745911 
-1.58183122 -0.0328009538 -9.4535923 
-15.8778143 -0.56443125 -16.1018486 
-5.53413439 -0.515331984 -2.14087415 
-12.5287971 -0.0489646643 -1.10637558 
-17.7599163 0.0798212215 -17.9334888 
14.9844294 0.387840956 3.63862538 
-11.1770906 -0.104417369 1.47245812 
20.4851036 0.558612049 15.5985117 
-16.4516029 0.27876094 -4.44852591 
19.8032761 0.219125301 -6.78684521 
10.6502552 -0.833259404 -10.7619867 
-15.0920792 -0.404879838 -13.9265776 
3.62663913 0.0448942631 10.1434641 
17.9484749 0.12920405 -10.7017765 
-13.563201 -0.142561525 0.544849038 
10.0328131 0.264879018 5.81980371 
-19.6496449 0.00170908158 -6.52342176 
6.39431095 0.0254895836 3.97500706 
11.1599283 -0.441017956 -5.48688602 
-22.9163742 -0.390883416 10.099184 
-12.3946247 0.274081916 5.51190281 
4.60599995 0.0470700525 -1.68814254 
15.3473158 -0.123308592 11.1083765 
15.513134 -0.0719955191 -5.58499622 
0.392023742 -0.28252548 4.01566744 
10.8733664 -0.200686961 2.77662039 
2.18775463 -0.278406143 -1.90367043 
17.1706543 -0.391721547 -15.0267868 
4.05480719 0.0617312305 10.5840254 
21.8077297 0.128644437 -16.0800552 
-15.7885904 0.218854189 -4.15459585 
6.65292215 0.465572745 13.4458494 
-21.3805141 -0.0872797966 2.61013293 
-20.6383305 -0.0299156625 7.9292202 
-11.0673399 0.108759969 -6.7586441 
-14.1784439 0.267771065 9.55962467 
-17.6190052 0.461394072 -2.01759481 
-20.9118557 -0.250280112 6.17700768 
6.00516272 0.030700637 0.329637647 
-18.6317196 0.0146207344 -5.74538422 
13.3140831 -0.526826918 -5.56410933 
-19.2714844 -0.322532624 13.0786896 
7.41331434 0.412167609 -2.1738987 
17.8369198 -0.0123616243 -5.18862629 
-5.21032476 -0.452005506 -2.17362833 
2.73704982 -0.0279839281 -4.30907536 
-11.7738581 0.254267335 -8.01404762 
9.09685516 0.573051453 8.28712368 
20.6213741 0.0664201677 0.593647361 
-6.14976168 -0.604279399 -2.91243982 
23.7612 0.143119648 15.5301552 
-23.2732544 -0.293534726 3.11060452 
-24.6374378 0.400647938 -13.6719894 
-12.831502 0.253987312 6.88196993 
1.69895852 0.0359805152 11.5916233 
2.48332953 -0.240840301 9.59875679 
12.4084015 -0.0842475891 12.6329098 
24.5709381 0.0438071676 -9.48646641 
-10.041172 -0.176150471 -19.1249847 
10.1020765 -0.139109492 -3.13969254 
15.644412 -0.00971860997 10.3397789 
20.0720215 -0.0581109002 8.46539307 
11.0846109 -0.101948678 0.258621424 
15.2799349 -0.133360893 -5.33707619 
-6.55744982 -0.145159915 5.05234623 
-23.1516972 0.333867818 -4.59067249 
-5.82922697 -0.194898665 3.93085504 
-16.7078209 0.540930688 3.03973579 
8.49891186 0.0407628566 -11.5153723 
-2.82694054 -0.0873350725 7.08979416 
14.5600929 0.363443911 2.27508926 
-3.57858014 -0.344871074 -2.10907412 
-21.8914013 0.018517524 22.3183346 
-5.44833326 0.544988155 -23.0214272 
2.75704432 0.109409288 -5.76929188 
-6.42827368 0.00617939606 -15.0207767 
21.0826054 0.425981641 -8.51723003 
2.04086065 -0.397621661 6.24775076 
-20.3199825 0.160967335 -3.7708981 
-0.991759121 -0.0332328156 1.46121645 
-5.55023289 0.53093195 -19.4717598 
-13.5384636 0.046137847 10.1511087 
16.7062664 -0.533494711 -18.8930016 
-9.66647243 -0.161504 -7.18550491 
2.45748377 -0.427394509 5.41264582 
-12.3572664 0.324232519 -7.24295187 
-8.39695168 -0.294594944 -3.12116981 
-8.30597401 -0.238217562 7.4626894 
-22.7603722 -0.267536014 -8.79580975 
12.880641 0.00460716989 -15.4459267 
6.68296289 0.15059945 -15.1750956 
4.58345842 -0.194859326 1.33031368 
16.5245399 -0.0943728387 -6.53774643 
18.5743389 -0.0849592239 -14.1812735 
14.8232546 -0.150757566 -1.93755174 
6.68573618 0.247994483 4.47817278 
-15.2337513 0.147155866 -1.07589948 
-4.59178829 -0.173643336 2.50912642 
-20.5300941 -0.249585271 18.0093975 
-11.6228104 -0.671427429 -13.7495584 
-0.612514913 -0.020587679 2.65501761 
21.5446835 0.461246103 -8.47521782 
15.4784651 -0.0556431636 10.045083 
-6.99705648 -0.296143502 1.82797265 
6.00762463 0.226497829 -2.29213047 
16.4331551 -0.297684968 -11.7455635 
2.31855893 -0.0611537062 2.91864133 
-10.9639339 -0.133578867 1.25684094 
-17.2514915 0.343903154 -4.87153912 
12.3407688 0.125221834 -24.8856544 
12.0583124 -0.00577176921 9.72709751 
9.64612675 0.0452041477 -16.8638401 
-20.5483303 0.391120672 24.4892673 
-6.32028151 -0.532390773 -5.97421169 
-5.07110691 -0.188984752 -0.283834696 
