ply
format ascii 1.0
comment created by gply, a Houdini tool.
comment converted from .[b]geo
comment for more information about Houdini, try:
comment www.sidefx.com
element vertex 1270
property float x
property float y
property float z
element face 0
property list uchar int vertex_indices
end_header
-13.2668419 -0.0710992217 -10.2300978 
-11.1699715 0.115002297 -1.86979342 
8.81128311 -0.16283758 1.10998833 
-1.56073391 -0.323429316 -0.26600647 
-15.2549381 0.393340558 -18.5126514 
8.08826256 -0.120971426 -16.9361649 
-11.721693 -0.409615248 -15.7913179 
-14.8044844 0.251247406 -16.6163063 
22.9063072 0.0380767137 10.7086859 
-3.30045462 -0.119141527 8.12303162 
4.32222748 0.434460849 -13.2097111 
24.3546352 -0.231005162 9.05013752 
4.46661139 0.336584806 0.644202054 
22.924654 0.294816911 -1.01730692 
-21.5384712 0.578387976 -12.0753584 
-9.27156734 0.0587146357 3.11799192 
-18.43857 0.185698107 -6.65125704 
-11.5495911 -0.296512663 24.8649101 
-5.79123878 -0.511591434 6.87732553 
22.8609219 0.366861105 0.719696581 
9.7877655 0.440593541 -7.72613478 
-23.124136 -0.0713254884 -2.54798174 
-16.7866173 -0.103542387 6.24934912 
-20.8706074 -0.0149666481 13.8324242 
-22.1874428 -0.0304186717 19.0654125 
7.91978502 -0.0727614611 0.778221726 
0.17293857 0.246216834 7.20917177 
24.6843147 0.142142147 -4.3306179 
-2.06752396 -0.0462776944 -14.0967312 
-6.01612616 -0.00958180241 24.3110218 
23.8895779 -0.634201765 -18.5450802 
6.33683062 0.374335557 2.73363185 
-21.9154129 0.0280110352 21.9216042 
-18.1868153 0.0826318637 -7.68100214 
-2.26032376 -0.34303847 10.4097977 
-12.5606852 0.107555263 6.86426401 
-8.20640182 0.0949534774 1.84360743 
22.3875275 0.478109747 0.444536686 
13.65131 -0.45460251 -13.0992565 
0.537827253 0.0154465754 10.0856314 
-23.9726696 -0.585788131 6.70505905 
10.582839 0.243392125 -11.6936855 
21.0726299 0.287583768 1.80067968 
21.677475 0.387260199 0.11319983 
3.65321016 -0.159603253 8.34714794 
16.1374474 -0.206711516 -1.5673542 
-18.6272907 -0.287873149 5.66330147 
-21.5225506 -0.23124902 11.927062 
11.4043341 -0.317249686 0.869415522 
4.46937609 0.0607244261 -21.2346191 
-22.3763027 -0.394028872 5.03243589 
-11.7939682 -0.204783261 -10.696352 
-22.0662556 0.596428692 -11.3336163 
22.8596458 0.377837479 1.80672789 
3.08217049 0.403016239 2.45964217 
9.24585915 0.310809523 -4.86875534 
18.3401356 0.263583481 4.61745262 
-4.27394104 -0.675920546 -3.33042717 
-10.6922054 0.220545724 10.7918653 
17.5729847 -0.806236923 -7.18636513 
2.97476292 0.226564646 -5.37163115 
-9.67838764 0.00665307045 4.34273672 
-2.56170416 -0.12351431 4.876369 
12.3748837 -0.0761258379 -20.6999664 
-6.1751914 -0.650102496 -13.8249884 
17.7687588 -0.0287032612 13.4044619 
-1.70093799 -0.457719356 13.7499256 
3.40377688 0.401713997 2.36466551 
2.7612462 0.194090351 -5.05193281 
6.50760031 0.285756439 -7.22187996 
21.1805305 0.376657933 -7.36424923 
-1.89163303 -0.358314872 -2.40147567 
-10.9267759 -0.23113738 5.00607491 
-5.0054493 -0.461516798 11.115283 
24.0767746 -0.936523914 -23.6921349 
5.90329313 0.274083465 -8.02945137 
-2.06738329 -0.272939891 0.88688004 
-0.456363857 0.184689879 4.61258221 
-24.0049801 -0.145294532 -0.131594419 
21.2390976 0.281529158 12.5102978 
14.054718 -0.119022645 -19.1910954 
23.2081814 0.294005901 -4.63621855 
-20.5856953 0.48818329 -16.4145927 
19.4225464 0.230482146 0.292560399 
2.32599521 0.137923047 -22.6504955 
7.94113731 -0.00326370774 6.58641863 
22.1074429 0.442667633 -10.3175697 
6.30523443 -0.199851602 6.33558083 
17.470192 -0.804735541 -10.3196859 
-9.27055359 0.0621519685 10.0834999 
-20.4883289 0.307862729 -6.09785604 
20.6663246 0.227512896 -1.69166827 
12.5526781 -0.559748054 0.766028941 
-25.3354893 -0.189244762 4.02637005 
-15.9035072 0.167156056 5.01442909 
0.935531139 0.0615668967 -2.9801805 
-7.82005644 0.0068625412 -4.01953125 
24.0116444 0.0170342214 -14.9765425 
-19.8650227 0.562246621 -18.4649639 
-5.52409887 -0.450031281 -3.14600563 
19.0268593 0.356360793 -23.6528931 
21.4846516 0.396519214 -8.00749493 
-7.06458044 -0.207550883 1.99347651 
18.78479 -0.587512434 -12.4815235 
-12.0866623 0.228341281 8.75279045 
-7.52823305 -0.25734818 -6.97221041 
-4.73040247 -0.329078078 6.54345465 
15.3221302 0.0395611189 10.9890518 
-2.14594531 -0.0398433171 -10.5602331 
5.76989889 -0.110540166 -15.7193089 
1.70529318 0.475450903 -18.2468395 
-14.7435093 0.391985923 3.54608822 
-9.05929184 0.101486623 3.58355308 
-14.4497919 0.355467707 -1.67586637 
-18.7917366 0.311890006 -9.51692295 
9.54531765 0.432795644 -6.50862026 
4.17055845 0.3600986 -13.9715805 
3.71291375 0.297213078 12.5227547 
21.2976589 0.53463316 3.17483854 
-20.2903728 0.540997148 -16.9753571 
2.63987279 0.228386551 12.6857433 
21.4634686 0.167699739 -6.26288176 
22.8556328 0.327136904 0.293198287 
15.6034117 0.263911247 -18.7784939 
-20.9457302 0.368782997 -7.37035656 
-4.23309183 -0.548147321 0.59950912 
21.3410339 0.140580714 -1.25469923 
1.76599145 0.176730797 9.28540993 
-11.9350882 -0.0521610603 -11.2511759 
-2.33793354 -0.372319758 1.06598234 
-19.1097088 0.607788742 -15.7259731 
5.76241255 0.249521509 -5.06165981 
6.39566469 -0.241473168 -23.7548981 
15.133997 0.0447768643 -15.6364317 
-24.7512741 -0.767943501 22.5473499 
-10.3140259 0.199985132 11.6656084 
-10.7097759 -0.152614206 -10.5915537 
14.8467979 0.0158106033 -23.4537754 
-17.0907173 -0.239950895 14.1718359 
23.5362606 -0.874494553 -24.9542713 
-15.6944113 0.468195975 0.891736925 
-15.1168842 -0.0327117033 -5.3093009 
-22.5364628 0.378660351 -5.97951317 
-10.789423 0.111170657 7.03501892 
-21.1470547 -0.443780422 5.21188736 
-14.9806614 0.602017462 0.959825277 
5.32522392 0.236265361 12.1769495 
1.56586337 0.109704986 2.04801965 
-3.12931156 0.482064962 -18.1338959 
-23.153286 -0.19440724 -0.109980464 
12.8895321 -0.243962914 5.32478857 
-10.1130209 -0.103313476 0.556250155 
-6.35331678 -0.829317868 -9.54097748 
-21.6833935 -0.420285672 0.15132916 
3.04949069 0.475253969 0.574524105 
-11.4283705 -0.00202343566 -1.24122155 
-21.7803593 0.206917495 18.3845272 
-20.4304867 -0.258988589 12.1384268 
9.61201096 0.0587687269 9.39611626 
-23.8523788 -0.290905863 3.13942885 
14.6584587 -0.0770763084 -17.4702168 
-12.7465382 0.212931156 -1.91958117 
8.45163631 -0.100688159 -17.4660358 
23.2713108 0.155312136 7.93443584 
-20.3917332 0.201040462 -3.76591587 
-14.4618721 -0.1005468 18.0968323 
7.02333879 -0.161565349 4.58353853 
4.29138088 0.265556306 -16.2255554 
13.6596651 -0.294857353 6.57860088 
-19.4029388 -0.199468002 10.2883043 
6.23794222 -0.319390476 -18.6092606 
-11.5424185 -0.00960235298 -5.51012087 
-13.3169966 0.158201799 -0.258575559 
-24.2627335 0.0867019147 17.0941391 
17.4011078 -0.306864262 -5.76644611 
20.464674 0.444413692 3.05722451 
16.1290131 -0.393238574 -4.68425131 
17.47715 0.157970354 2.87493777 
-9.2503233 0.0317831337 -0.195956066 
4.48045158 0.0619485974 14.5725946 
22.9416656 0.261953384 12.8704233 
-0.364434779 0.202319607 4.40752935 
-21.7642174 -0.113324001 13.1524038 
19.6023979 0.421082258 2.45252538 
11.5278454 -0.0586373359 -8.5752697 
-10.2425547 0.206016406 7.95104504 
-9.29136467 -0.0510764867 2.10427499 
24.3131828 -0.994299054 -23.3098564 
-0.812716186 0.0684738383 9.30154324 
4.16724682 0.283081412 13.4144907 
-9.42771244 -0.0415212028 -4.49350023 
-14.0067244 0.223274738 2.95235515 
9.23861313 0.00276890304 6.373909 
-21.439846 -0.448352337 5.36333084 
22.7833042 0.4139691 -12.5001087 
14.1461325 -0.436357468 -4.59730244 
23.6237392 0.256251246 -6.20757246 
-19.4422626 0.159187391 -6.06323671 
24.6419373 -0.415523291 9.58311462 
-18.9991894 0.067533873 -4.31558228 
20.352314 0.443567783 3.49102116 
-5.9976964 -0.311754912 9.78431606 
23.7907066 0.00789211039 -14.9400578 
-14.7343006 -0.0819496438 22.7382946 
1.69179285 0.0696862563 5.3983779 
-14.234498 0.392365932 1.57363391 
-7.88431692 -1.13164306 -10.5975637 
22.4873867 0.248007089 -5.75185919 
-21.9477539 0.600294232 -10.7809143 
17.2041645 0.145997137 12.1815443 
11.7665367 -0.255254477 -1.48906398 
17.6754513 -0.298541218 -16.6626358 
8.00875854 0.42381686 -12.0334768 
-23.52285 -0.429741472 7.41957474 
-23.0865593 -0.438839316 9.97964573 
-16.7660484 0.0426793024 -3.54086041 
-19.0399876 -0.239209712 3.99830437 
22.1597996 0.475374162 -9.38639355 
-5.42041159 -0.505563438 0.982453167 
-1.10698402 -0.164841175 -10.9215298 
-16.8591938 0.608361483 -0.0901111811 
-6.65615654 -0.309810519 10.3587742 
8.05255985 0.430986732 -11.8990335 
13.1903324 -0.343911409 -0.700367451 
-19.3167706 0.276061058 -8.25992775 
-4.34824419 -0.441828847 10.9006758 
-0.49804607 -0.187995419 -5.28376722 
-16.0057659 -0.227189764 -6.56860161 
-21.985899 -0.346862346 11.01581 
23.6301785 -0.0380099602 15.9936104 
-2.96882677 0.0859281719 -9.50151157 
0.370066345 0.391637176 -14.0885582 
-16.255682 -0.00787340384 3.97054815 
-4.19598579 -0.431815773 11.9606028 
-13.9292526 -0.10366483 -11.6676006 
13.9494505 -0.271833569 -3.12083054 
6.34498358 0.169200271 -1.43867731 
-0.283408701 0.50637728 -21.7125473 
0.886132836 -0.0748811737 -8.14421844 
12.4812756 -0.418886483 -9.45226574 
-19.0535755 -0.0957826748 -0.541295886 
-18.4013271 0.347311616 -9.6728096 
-12.6051893 0.268131196 -3.60850763 
4.14383364 0.0310540497 5.89276552 
-2.62541223 -0.253670156 9.76884651 
11.4831266 -0.0200788807 5.59611654 
-3.04792643 -0.473820567 -2.05661821 
-12.9769478 0.249082282 10.6133385 
-21.8123474 0.171157673 18.5319595 
-4.66297293 -0.144877002 3.86260319 
17.6317596 -0.58382374 -11.5410175 
-12.8064747 -0.0854019299 12.7402639 
6.0935154 -0.010798241 13.504303 
-12.3658638 0.101468839 -4.2421546 
19.9642849 0.129380271 -1.05613613 
-12.537324 0.0144104194 4.28672743 
-3.87394285 -0.3019045 3.1434679 
3.15006161 0.305776149 -5.16312122 
-15.9263248 -0.0108466465 -12.2887201 
13.2429972 0.114413694 8.641325 
-21.3249435 -0.270444632 11.8821878 
1.62590754 0.132224694 -1.71237564 
-13.6699476 0.0915888175 7.14825869 
-6.3540144 -0.440621197 -0.413027853 
-14.4575758 -0.0491333865 8.21780109 
-5.14811754 -0.522176206 11.793828 
0.595654786 -0.19502227 12.4705648 
20.4642067 0.592998624 6.22652388 
4.78581047 -0.0429984592 -24.3500938 
21.2093487 0.24531424 -6.50660086 
-11.4634237 0.131157756 -2.53441787 
-18.1989117 -0.141155139 13.5238876 
3.05302191 0.376964897 -11.7065191 
-19.8983879 0.579260767 -17.8705082 
-19.2104397 0.523401856 -18.0647755 
-2.75340509 -0.0412419215 6.56815481 
-5.34046745 -0.693699479 -11.0860167 
16.5776119 -0.0804703832 -22.9219475 
-12.9917564 -0.0377718583 -0.0267041624 
16.1685295 0.181111827 -16.1885681 
17.7035828 0.208535388 18.9793053 
-1.67608643 -0.326480806 -0.385273784 
-19.0741653 0.33517167 20.4928284 
5.58611774 0.44039911 0.872411907 
9.44242191 -0.0461184978 9.80983448 
19.692194 -0.438592851 -10.2655611 
-25.2019882 -0.20750837 4.6070919 
-19.7267933 -0.558831275 5.42776012 
16.3583355 -0.604335368 -11.5950232 
22.7556839 0.454960376 1.44066775 
17.1537781 -0.142514601 -16.972147 
-7.1180048 -0.291747898 0.524304271 
5.01679373 0.268082082 -15.0317221 
21.705616 0.0126967477 -4.02988386 
-2.08670163 -0.288287967 0.131107837 
-23.6543179 0.00918582641 -1.52825761 
6.59859276 -0.267854065 20.6918316 
-7.42025232 -0.146429807 -19.0072975 
-23.5205097 0.240528852 -14.7230778 
6.14749289 -0.163024396 6.8169136 
-12.5011234 0.252107859 -3.42440557 
12.4738197 -0.246773154 -0.998396635 
3.96357894 0.18097575 -7.69148779 
-20.0636845 -0.0249388367 18.3294926 
-17.0144405 0.175001204 7.77499533 
-10.9747953 -0.183682755 -11.4776802 
0.0185688734 -0.272163928 -8.66335773 
-19.8521767 -0.084424831 -3.17451715 
-17.1221275 0.0842436031 -11.3717556 
20.6127548 0.671278596 5.49056339 
-12.6789675 0.30161503 -2.7200551 
-13.5555267 0.0239572302 11.9194441 
5.1041379 0.305776775 12.4723577 
-21.0756187 0.120424695 -3.76606464 
-23.8801746 -0.440808535 -18.2247429 
20.3836422 0.577541828 6.38152552 
-6.39095163 -0.268703312 3.77404332 
7.20598125 0.138908029 -0.705503225 
8.00418949 0.416187137 -3.80398703 
-4.37253952 -0.428234696 1.5625025 
-7.88595486 -0.263339251 10.8188276 
19.1723537 0.0373031497 -1.84489918 
9.69401836 0.453814298 -6.66348171 
-11.6430588 -0.529067159 -16.8950405 
-9.08631516 0.0781850219 4.97328138 
17.124979 -0.812305927 -10.189393 
-10.1116686 -0.00932378136 -3.21206999 
-16.0726376 -0.218420878 -6.98572779 
-22.8813438 0.723531663 -11.0392666 
-6.21192694 0.29912287 15.7632904 
-22.8987885 0.108032353 13.2131805 
7.43414259 -0.0444855615 -14.3721046 
1.38725233 0.0661251917 -8.80617523 
22.1532497 -0.506586969 -18.1714745 
-7.77800369 -0.0703176707 -1.05962896 
-7.89894438 -0.2724213 -18.289999 
6.34014559 0.198139921 -2.34811711 
-24.7520161 0.144618884 -3.20745206 
23.580864 -0.00462039467 3.28482533 
17.3470306 0.0812890977 13.3316574 
-5.1851635 -0.738102436 -10.3363934 
19.435009 -0.270076126 -8.00636196 
19.146225 -0.577645302 -11.6423855 
20.5846729 -0.0706994534 -10.5944891 
7.22332287 -0.252205551 22.7703724 
5.27715731 -0.152603507 7.30821228 
-3.07709098 -0.404712439 14.5811729 
-24.9081898 0.102964707 15.2251644 
-24.6401939 0.279509872 -6.64564085 
11.8786182 -0.201271236 -16.8505306 
-17.9652252 0.185609534 -13.1163998 
-24.3311367 -0.718380868 22.5940571 
-2.03856611 -0.47367847 16.0083885 
14.9259481 -0.35329017 -12.7985935 
-25.2914906 -0.245504797 7.08666849 
-0.76808691 -0.109183662 23.0780754 
15.5798588 -0.309666455 -2.78618097 
20.7891846 0.158901244 -7.17467594 
15.5821142 0.0991388932 15.1060619 
-13.4979382 0.217275769 1.7378149 
10.0223646 0.441319317 -8.0134716 
9.58887482 0.0406157374 14.8879557 
14.8211765 -0.706361175 -10.4353533 
19.2692699 0.170733437 -0.39474386 
-22.6019573 0.780298889 -9.7258215 
-10.1980896 0.0311088227 -0.800979197 
-18.1765747 0.349501878 -16.3112812 
16.5886765 -0.0482903905 13.5543356 
-6.96421528 -0.146174178 -2.04286599 
24.944418 -0.00211723801 13.5818768 
7.06882429 0.0225424282 7.01532507 
8.18214607 -0.127086997 -16.831913 
-11.1832905 0.16879718 8.15951347 
-13.7349977 0.304465204 -3.26621652 
-3.21637344 -0.062190555 6.8132062 
11.9362907 0.0731240064 11.6776733 
13.8431587 -0.207332641 6.91640711 
-6.26440001 -0.734093428 -11.8229322 
6.3790946 0.289288819 -7.61671782 
17.8602161 0.23932825 8.83030796 
-24.6831093 -0.0412091911 18.5275936 
-10.6019516 -0.128541216 -8.41249657 
-9.03568363 -0.332989067 -8.07250786 
11.5302906 -0.0177480914 10.3041677 
-2.57739973 -0.11751084 9.07412148 
6.09981537 -0.144041494 14.1344242 
-2.96776938 0.0325725637 -9.90683079 
-8.8568716 0.0275745671 -0.955748737 
-17.8253517 0.141324103 1.71255612 
11.8760929 -0.0639159679 -7.84618378 
8.49197674 0.211777583 -12.3289118 
-10.6141157 0.281692564 11.8452911 
-18.1216526 -0.0701251328 3.03131199 
13.2716246 -0.618537903 -11.2460032 
23.6936722 0.0854288936 -14.7006464 
-20.0426502 0.162116632 -4.46549034 
20.7558842 -0.295523375 -16.1914482 
-11.6772842 0.0782733485 5.8213253 
13.9050236 -0.476854205 -12.9982042 
20.7912865 0.0753229037 -4.98965359 
-0.174388766 -0.204609111 -2.17566013 
24.1510296 0.322637916 -6.84334183 
-17.5586929 -0.223670334 6.22548819 
-11.9009466 -0.0190205947 15.9905319 
16.1031761 -0.416339308 -11.885498 
2.1425631 0.277570456 4.32691622 
-17.1134281 0.256634086 1.56741929 
-23.7655735 0.071914725 -2.34628344 
-17.7439175 -0.13656275 11.0064316 
-20.1362648 -0.0789554119 -2.26313186 
20.7344837 -0.258686036 17.70294 
-16.9231987 0.0242525022 -10.106638 
-5.33372068 -0.431464642 -0.667677402 
-20.0386639 -0.370210588 0.338852495 
-24.5625877 -0.416498989 4.82809591 
16.180891 -0.248987973 2.68906212 
23.7966385 0.0557500906 -2.227772 
8.63351345 0.175107718 12.5916414 
24.3991489 0.618364632 -8.73600197 
-20.6372814 -0.233343288 10.7639685 
5.68569088 -0.0629415959 -15.5465536 
18.7689209 -0.149052918 -2.8793149 
-8.64890003 -0.0524848588 -2.35255146 
-8.19085789 -0.383558422 7.48109818 
-3.37896419 -0.282297224 -6.38566685 
2.75744367 -0.11954578 7.20783758 
23.2847672 -0.135984302 11.5969391 
15.25986 -0.811311483 -5.97683716 
1.40525997 0.480782092 -16.4219437 
-16.4661884 0.406525612 21.3743668 
2.43484282 0.158887431 -6.52295017 
-17.5543499 0.0942256004 -2.39330649 
-22.4324646 -0.26274395 4.07678986 
-13.4004393 -0.320266098 -8.57583714 
-16.1397724 0.441115856 -2.45979214 
8.45218468 0.140887916 12.4009037 
-11.7612753 -0.386567384 -7.36235285 
20.6675282 -0.542156219 -14.7282972 
-20.5977192 0.270139098 23.8596306 
-23.1800137 0.666729867 -8.34304714 
-24.9536324 -0.171010643 12.9415817 
5.23246479 0.27334711 -10.1144295 
-0.858203351 -0.0513079502 8.37987614 
5.67653036 0.340777665 -6.23227787 
24.0742416 -0.880774379 -20.1247139 
24.5136318 -0.663778186 -18.7606163 
9.35151196 0.0260464363 -13.5669022 
3.09893417 0.439696044 -10.3464832 
-1.91741753 -0.347108901 -1.53778863 
18.6406937 0.19838421 -24.8606644 
-5.34680176 0.293306082 19.7225952 
-14.2332659 -0.294405222 -7.06387758 
18.73493 -0.570901871 -7.57351637 
6.20264626 -0.17933619 17.6963692 
5.07865667 0.314810365 -8.16554546 
-12.9891005 -0.109872378 -6.62848902 
-10.9236984 0.132596642 -5.08041525 
4.36350584 0.33323878 11.3813305 
16.9592876 -0.146351799 0.693949819 
-8.56439686 -0.00891016889 -1.65858817 
10.5424633 0.0924379006 15.3723145 
6.85998249 0.366327077 -8.1062212 
1.64852977 -0.135176152 17.2520847 
22.8083382 0.278054088 2.83092904 
14.4603682 -0.613382995 -4.92732763 
-7.96150541 -0.11651545 -1.59777689 
-20.7284698 0.281106263 -6.6482749 
20.5716934 0.589799702 7.48188782 
9.55935955 0.050307747 12.5879526 
16.5438328 0.0527787954 -24.9560566 
7.77257872 0.0763987973 15.684104 
-8.77252674 0.107749358 21.9003029 
16.7239113 0.354186594 4.39962769 
-15.753458 0.389581919 -2.36338949 
-11.674345 -0.0767757446 5.02065468 
-9.75385284 -0.468134969 -15.8773603 
4.75041437 0.367767245 -12.9063845 
-0.593249202 -0.0675664097 -11.0271225 
-15.360301 0.532979906 -1.14981949 
4.52408266 0.334120035 -5.75508595 
8.9152298 -0.269205689 -15.7469807 
4.24497128 0.15154475 -3.79472184 
-13.7759123 0.244040787 -3.57991409 
-11.4951382 0.0116185956 -5.36999893 
-2.75945759 -0.427402258 0.905026197 
20.3472843 0.418462902 10.9839849 
-20.0624924 -0.38226667 0.0212687775 
-0.299023032 -0.202782378 -6.52698946 
2.26505995 0.140447006 -8.26189423 
-14.8667307 0.682872355 0.529523194 
-9.25087357 0.213874295 11.9896936 
20.3504429 0.467086166 7.97151804 
22.343008 0.052978009 -3.13233805 
-4.02102566 -0.629612982 -1.84653986 
15.9925585 -0.356196046 1.1608057 
10.3483257 -0.0244965535 6.85601234 
-1.02478552 -0.00576852169 9.60042477 
23.4176598 0.172642633 -3.71320844 
-23.7250652 0.709327102 -10.547123 
-12.788662 -0.0657408908 1.52089775 
9.1838665 0.349445641 -6.55858564 
24.0398884 0.431067258 -8.11874199 
0.808956265 0.200565293 6.37362862 
0.488492727 0.170054123 3.76185727 
18.3044662 -0.755021155 -9.22995758 
23.9378738 0.550562859 -12.4036312 
-9.72076511 0.118989021 -0.589574814 
-23.809473 0.34158355 -7.17509174 
-10.8592482 -0.230063617 -9.6135006 
12.2471104 -0.205369875 5.63330507 
10.5913715 -0.167523295 2.02172804 
-21.7350426 0.473253101 -6.54412842 
-10.2358828 0.00535289198 -3.56853962 
23.9936409 -0.0196752846 -15.138361 
-18.2046013 0.0994680971 -5.85170269 
6.45584774 0.193515494 3.20319486 
-13.3490286 0.0675320104 11.2165136 
21.2639866 -0.119447738 15.4076691 
11.0601025 0.103782587 -3.19086266 
9.18739414 0.111809812 12.8870049 
-8.79889679 0.443290383 13.502203 
-18.3720264 0.129621163 -7.29203606 
0.52702558 0.239600435 5.93985891 
-21.6362743 -0.257948458 -1.6694839 
18.4867668 0.250688344 4.31966543 
12.731864 0.0648429617 19.4300518 
8.53013325 -0.151599884 -16.553196 
-0.956325412 -0.0542419627 -12.160244 
2.47737575 0.367613316 1.71768391 
14.8244467 0.00638350472 12.1878691 
13.5946131 0.113951296 8.11421585 
-1.23397326 0.316537946 5.83998203 
4.86012602 0.409281701 2.67787862 
0.597750783 -0.164008573 15.3656025 
-8.66810131 -0.0589797609 3.05750537 
4.55720806 0.452688932 2.91782045 
5.90045214 0.308236778 -10.5670652 
-21.2410011 0.203502759 17.3673668 
12.2275038 0.0303322859 12.0397348 
-12.6380301 -0.222490132 -7.37673807 
-10.2094774 -0.00116823614 -4.70321655 
20.0671196 0.0836542025 12.4158821 
8.06516457 0.593132317 -9.48842525 
3.56293988 0.237898871 14.4456739 
-14.1507597 0.0145676117 10.039525 
-19.6392269 -0.29080525 -0.109740525 
6.89166403 -0.0430500656 15.3707905 
-0.219051033 0.271757156 4.63628435 
10.2638159 -0.0163287781 5.61972666 
-5.13371897 -0.481495261 10.6325741 
6.598948 0.255565822 2.7710433 
21.230648 0.129803553 -1.77528059 
-17.2430782 0.114112869 2.21141481 
-8.29533482 -0.141589835 4.25946188 
11.3289165 0.100517668 -7.21452141 
-16.2699814 0.130917728 -21.820118 
-7.66989613 -0.285846174 -7.00170994 
-9.13565063 0.345400006 13.4535484 
20.6739273 0.100032672 -4.89541197 
-23.3616638 -0.210922077 2.89072609 
0.399295866 0.254415423 -22.421711 
1.7158742 0.446925819 -17.6435013 
-23.7264881 -0.38203156 10.2411089 
24.60956 0.192579567 -5.01699495 
0.570897281 -0.0985367447 11.5390244 
2.0810802 0.215590194 2.03369999 
-13.2122746 -0.124718651 -6.93121672 
-11.174593 -0.168992788 2.45939994 
-12.864233 0.323978543 -3.17295313 
16.9955273 -0.995558858 -8.26829433 
18.1837482 -0.190181091 16.1090431 
18.6690693 0.134817839 11.6208467 
-19.4096565 -0.21287176 14.1311598 
-8.21721268 0.211574525 -4.8815279 
15.889267 0.235300332 8.26745415 
6.36433268 0.105195679 -13.6880312 
24.1774101 0.580110192 -8.68404484 
7.19114161 0.382636398 -3.56035233 
4.75622511 0.293582171 -8.85751438 
15.9152184 0.235208258 19.1160698 
13.7055855 -0.605492234 3.8087101 
18.5356255 -0.318516731 -6.07063627 
0.882103682 -0.0306309033 -6.23558044 
24.591753 0.53326261 -12.6352835 
-21.807375 -0.372123808 3.56610417 
11.8974285 0.0822991207 11.1159601 
-13.2033215 0.049255874 12.1928682 
14.6221247 -0.608893514 1.05733323 
-9.18341064 -0.0148141375 2.37825227 
-3.13278532 -0.339210242 15.080265 
12.2830954 -0.166524708 -2.62626362 
-18.574173 -0.0188209116 -1.12177384 
8.86226559 0.154561952 7.78842974 
22.9522343 -0.337344319 19.2241364 
-7.72849703 -1.11722243 -11.1626835 
-25.2115173 -0.450319946 11.6365023 
4.32861805 0.293033004 -5.39769316 
5.73830128 0.305471361 -10.5449419 
-11.0284967 -0.519474268 -19.6109276 
8.57304001 -0.00622895267 11.2148991 
-0.459832668 -0.097411409 -10.8201246 
18.1163235 0.244527459 2.92057657 
4.50580359 0.261920869 -6.71286917 
-14.1693993 0.254793048 4.99457836 
19.9799309 0.557975531 5.38437796 
-5.6999321 -0.690123498 -11.8597069 
16.8093853 0.32380262 5.0663538 
-3.2308557 0.578760684 23.9129372 
-18.2496052 -0.0572765097 -2.53127241 
-13.1464911 -0.252862692 -12.1917868 
17.320673 0.0973979831 10.9323778 
24.9944115 0.0487254672 14.3100672 
6.63319302 0.304896146 -8.0936327 
-8.24558163 -0.110761203 5.56066751 
-5.57998657 0.00288070133 13.7469206 
-8.40532589 -0.102614507 -21.0488262 
19.4390316 -0.303008139 -16.8449955 
18.2137241 -0.365938395 -5.65436459 
21.9252338 0.160311297 -1.02520764 
15.2625675 -0.620539844 -11.0524139 
24.7207718 -0.31771636 -0.91999048 
4.90235853 0.289293826 -8.87712479 
20.59338 0.219406188 -0.0615854412 
-16.3595085 0.260067314 -2.92632174 
-13.6149063 -0.299544275 23.6685753 
22.7543983 0.0752802864 -14.8431025 
6.08964062 0.158869714 -2.88983703 
1.59023011 0.346589983 -13.8881092 
10.9519653 0.00582279637 5.9483285 
23.2361126 -0.0182901211 12.214139 
-11.3771544 0.24650915 8.62695503 
-7.10001755 -0.213065565 -1.3226074 
5.50139999 -0.318757176 -24.8811798 
-14.6839972 -0.120381586 17.4413605 
-2.84603333 -0.0665272623 -10.5059147 
-11.4081116 -0.316839725 24.6736031 
-21.6817513 -0.484912902 5.39467144 
-6.74384642 -0.281729758 3.0671711 
-23.598753 -0.417203158 10.8925362 
21.0924988 0.343999386 -7.30511332 
10.892477 0.127479941 10.6511345 
9.06246376 0.145077378 7.55337667 
-7.92893648 0.0240829103 24.4878845 
-0.153156593 0.148196071 7.42687702 
10.6869535 0.11721725 -12.2362175 
-17.2758789 0.0541674346 8.84142971 
6.99659204 0.431088954 -6.58945513 
3.24797869 0.419666678 -0.744468451 
20.3554668 0.142577142 -0.829226494 
6.4038167 0.356407136 0.814693689 
2.87598419 -0.0900590569 7.10938263 
19.7724476 0.0790339261 -19.1193504 
10.1950474 -0.302409858 -22.7976913 
16.2653046 0.0946588665 5.25042629 
13.9291048 0.391640544 10.5698795 
-14.1348085 0.509042859 0.661459982 
23.2120094 0.109747417 3.04519963 
14.0871754 -0.158639953 -15.2920074 
23.3469944 0.766182005 -9.95148849 
-5.97071171 -0.470626533 1.86239874 
-16.888464 -0.0880788416 18.4372826 
-20.8894958 0.45318079 21.792429 
19.6700115 -0.364977509 -9.26228333 
14.3596907 -0.451445132 -3.97174215 
5.30598783 0.533586204 2.60905361 
-19.5402927 0.296550781 -11.4721584 
4.64711523 0.389969945 3.43996429 
11.9219589 0.0290319268 6.61438227 
22.3372936 0.053210564 -3.32223582 
-5.66744471 -0.366390854 -7.29368496 
-10.6921616 0.13215211 9.90371418 
-20.619997 -0.329174161 0.111057453 
15.4784708 0.134743616 8.75925159 
9.44485664 -0.127272397 -17.8798866 
-20.9905033 0.298760146 -10.379715 
9.07155323 -0.0719373152 4.45322514 
20.778883 -0.0577459224 -18.8614159 
7.57818365 0.58273977 -7.68632507 
22.803812 0.468424141 -8.80368614 
10.3783989 0.409792423 -8.94652081 
1.74252558 0.533907712 -15.2748222 
-18.6360283 -0.0431085713 1.5791223 
-2.42753625 -0.089720428 5.35268259 
-24.6083908 0.134602904 16.1894341 
-23.8752041 -0.275984317 4.50131989 
14.4744158 -0.439102203 5.00475168 
-23.3725185 -0.234097421 1.83063531 
-12.1450081 -0.267843306 -10.4803534 
-4.05497122 -0.45773977 0.992923319 
23.5219879 0.828357399 -10.254281 
11.3208847 -0.325114608 2.78637743 
9.12126637 -0.0322365575 10.8063097 
-10.9933968 0.112620555 -1.79933059 
-14.5568781 0.197557136 -16.4323864 
15.3359528 0.150343403 -17.4657059 
-7.80699921 -0.14416565 -6.52369595 
10.0874529 0.40469408 -10.6497412 
2.64220142 0.490197062 -11.7903481 
10.6305285 -0.029091157 16.5731277 
23.1487026 0.294509232 -4.40377569 
10.6098366 -0.246183082 3.89941049 
-8.82296944 -0.430830836 -17.8515148 
-6.08748388 -0.48244527 11.3552618 
5.0003891 0.409637302 -7.02272415 
-13.8813648 0.155032516 4.80179977 
-10.2574739 -0.179158747 1.61164594 
22.0486488 -0.195575371 -17.1700859 
2.4301405 0.0368482471 6.40667868 
14.7218742 -0.572682023 0.579367757 
4.67429399 0.31843394 -11.679431 
-5.38345766 -0.489393532 -3.24891138 
-15.7407894 0.15068303 6.96860409 
2.6676383 0.378955126 -2.19504905 
-0.554890633 -0.234966353 1.86360562 
-9.53307438 0.0226765536 -6.86625099 
1.84293211 0.281792194 3.23676038 
-6.08788919 -0.30550465 8.91225624 
-6.16099358 -0.658270061 -13.6329126 
-2.93583131 -0.323424488 11.2376938 
-19.0765724 -0.161717743 -1.0277909 
20.4175014 0.0563853942 -5.3931098 
-21.4556942 -0.224411532 -2.30801725 
19.4037113 -0.168195158 -6.46033335 
-9.07407856 -0.0449105613 7.83828926 
8.55231953 0.325901985 -4.0421195 
1.52268779 0.115715496 -8.74171925 
13.4490099 -0.17254661 -15.3967419 
10.9506359 0.0547397025 15.1045341 
-24.0239029 -0.212381929 19.1705551 
15.4094353 -0.285820127 -2.46762514 
-7.28264093 -0.475916386 6.88551807 
2.24743724 0.495778114 -16.9376202 
-19.1934719 0.243919536 -8.78663349 
-18.6378689 -0.0350025184 1.70646763 
-13.407464 -0.228039473 -16.9713478 
-23.9187908 -0.360370308 5.17119217 
-16.5579491 -0.129212409 5.77694225 
-2.89993167 -0.126262859 3.37571931 
12.3487587 -0.151416853 -2.9862144 
-16.370142 -0.0703865141 4.11266232 
-13.4251003 0.0679540113 0.263468862 
-23.8574448 0.225401729 -6.36617851 
10.9599991 0.0128838383 6.8125205 
21.0282135 0.283007801 -7.04683018 
18.5617256 -0.0632374436 12.5522156 
19.4059105 -0.365483075 -16.3664207 
19.842598 -0.174819693 13.6634808 
-23.4414673 0.086603418 -4.91722679 
-14.2597761 -0.262175292 -9.7598877 
-14.1532278 -0.0590142198 10.6959925 
-7.00730658 -0.0238127839 -5.00198126 
0.626210332 0.0774904117 3.22832847 
-20.5192947 -0.326206863 9.78415012 
-5.66320324 -0.275518388 -17.5169449 
2.68652391 0.383329332 -2.03550243 
10.5312605 -0.131116837 1.83913803 
-23.1949253 0.275800169 16.3147125 
-13.7520838 -0.12266764 12.8460016 
21.7559967 0.471555412 2.09341431 
3.2947216 0.218194544 -7.79975224 
-14.833642 0.318870217 -1.69757926 
-3.62048674 -0.517689705 -0.922532737 
-19.4049473 0.0904418901 12.5790749 
18.0600376 -0.677807093 -11.1054974 
-14.1402693 -0.256400585 20.1904736 
-8.58126068 -0.104481906 -2.69190836 
17.6743488 -0.406360477 -6.45240688 
4.31795645 0.308676243 -5.53071785 
-12.3790817 -0.152590215 1.64613271 
-10.3460026 -0.252560496 3.16979432 
15.9318428 -0.00247616507 5.21498823 
-15.291151 0.0629653409 -4.79823256 
8.74733067 -0.115061231 3.83338976 
-2.2098031 -0.431785643 14.2410412 
-7.38952065 -0.359088033 5.61500072 
-14.4281912 -0.115208246 -12.3305826 
10.6238003 -0.108927645 0.982264102 
-16.2593079 0.476425052 0.544575155 
15.0535612 -0.508127749 -0.215099767 
17.9503822 -0.0144612025 12.2729359 
-15.4997749 0.593809962 -0.216888726 
-8.6500473 0.0108286487 5.57064676 
-2.851614 -0.430869937 13.4059935 
5.09315825 0.390587479 -12.5371313 
-17.7491722 0.376776278 19.8957787 
-0.0531032681 -0.270745784 13.8063974 
-6.73107576 -0.599547803 -8.33841991 
8.32298565 0.191882402 -2.95329189 
6.88344049 -0.147471011 19.8834953 
-17.7291641 -0.18920292 15.4901428 
12.1507368 -0.15176031 -7.13332272 
6.365201 0.215102464 3.29753733 
16.0463085 -0.204486579 -12.4494228 
3.97745609 0.357540518 2.94529057 
-10.3834753 -0.108148798 0.53101784 
8.77718067 0.206979424 7.12463093 
-12.2383585 0.321092904 -3.18053174 
-21.8629131 -0.18012023 1.69098008 
-16.0280609 -0.19307521 -6.02280521 
-15.582345 0.519526422 -1.51476526 
2.18534112 0.459203511 -13.7467575 
20.6993465 0.185465336 -2.84416389 
-22.3401871 -0.115015209 21.3647366 
-0.209614724 0.0615977272 3.43842292 
19.9356728 0.638948202 6.21630955 
-17.0620136 -0.0903728232 18.1152401 
14.8580866 0.0332171656 -15.7086916 
-1.0848757 -0.32802242 -4.51235294 
-23.3582153 -0.312555373 -18.0192051 
17.5543594 -0.364286274 -4.4094739 
8.05816269 0.336468518 -12.3528748 
16.7710667 -0.923910737 -9.27362156 
13.5897923 -0.282836705 5.11796951 
-11.4537716 0.119825445 -4.38985395 
-5.2688818 -0.541615605 0.880342603 
-5.84628725 -0.728732526 -11.0269995 
10.2098227 0.0021499244 -0.661423862 
-7.37399054 -0.163914531 -6.60901165 
12.2898531 -0.23533991 -17.2564449 
-13.835887 -0.168540269 18.4622192 
5.15304708 0.212096065 -14.9972506 
-14.1646662 -0.0694522262 9.38710022 
6.27894068 0.18238923 -0.448708355 
-4.8748312 -0.521142364 1.13271701 
6.97249508 0.168071881 11.4229078 
24.5404701 -0.34265241 8.71750546 
23.4637508 -0.182364896 11.6712008 
17.6293182 0.267278492 10.0389147 
15.5750628 0.0641174316 6.09859657 
-22.795229 -0.310442746 24.9589825 
23.4111004 -0.210021406 18.5430527 
19.5178261 0.276198566 0.499018192 
-21.2188301 0.205376342 -17.741684 
-16.9462585 0.0886013582 7.01159191 
-17.4439487 0.0569392592 8.56993675 
15.9323511 -0.00769813266 10.6272411 
8.62861538 0.295745134 -11.3787184 
20.2282867 -0.195723951 -10.8693953 
-5.83187151 -0.360767365 -3.07882142 
-3.59602904 -0.168567687 -16.0291939 
5.41376781 0.379287571 0.522744179 
-19.5500641 -0.406708598 4.36889887 
24.8725796 0.472086102 -13.4875832 
20.1588001 -0.146897778 14.7764444 
9.14141655 0.348320991 -6.83045626 
-9.84424591 0.12146201 9.72570229 
11.2869987 -0.158022687 -4.16531229 
-15.4496107 -0.432901114 14.2875032 
-20.3528538 -0.390323788 1.71009052 
-9.47689438 -0.754035234 -13.4900227 
15.5349817 0.232565567 -16.5948257 
13.3818083 -0.113203786 14.7070694 
-21.5082493 0.569327354 -10.8881264 
5.26306772 -0.180381194 20.7551651 
17.250885 0.205522269 8.84838581 
22.1507149 0.256552577 -11.7973757 
-7.94341946 0.315091461 15.5056705 
1.22859991 0.114888951 -10.1518974 
-1.73625362 -0.206062928 0.209803134 
1.91339815 0.128283918 -8.35024834 
9.38178158 0.329708606 17.6031437 
-0.975808024 0.0873770639 -13.0679541 
-22.6045265 -0.0913593844 -17.5174789 
2.82383323 -0.148450673 8.87451363 
5.21146774 0.427156866 -11.9664469 
17.7406635 -0.33739531 -4.88952446 
-12.8832455 -0.0388976708 -4.74674749 
-8.07278347 -0.026519049 11.8977089 
-23.4424973 0.0120356698 13.2064714 
18.9477139 0.428025395 1.67871892 
-18.3033619 0.108869895 0.738563359 
-7.81296587 -0.0391609855 0.873250544 
-19.3026142 -0.483926952 5.38269711 
2.32273817 0.125633106 12.0535212 
11.0118551 -0.200384334 0.465760708 
4.3557663 0.0632464141 14.6552734 
-2.92890596 -0.0811893642 -7.97151613 
-17.7573433 0.00749250175 -5.74273491 
6.52287817 0.298911035 -7.3697052 
14.9288568 -0.47978586 -0.398396581 
-20.466732 -0.235785931 2.67821836 
10.950798 -0.0312411599 -6.45909214 
-20.5663815 0.228859723 20.3187504 
-18.1493359 0.4032709 23.9656601 
22.5372467 0.397460192 3.3548305 
-13.6680479 0.281247526 2.22828364 
3.38161659 0.305500954 -5.82027531 
-21.8841553 0.31238693 -5.32249403 
17.4650707 0.270703882 6.30946589 
21.2741737 0.477676362 11.7169285 
13.8678789 -0.134864286 16.9745541 
3.48151731 0.28410089 -3.22045732 
0.1388506 -0.00233399984 10.4457655 
0.965388119 -0.0578457564 -1.68122661 
-10.4239817 0.22132425 11.5485754 
18.066864 -0.324777544 -5.44719601 
5.56940746 0.507687926 1.60740519 
-17.1443863 0.345015138 -15.8639669 
-13.8307571 0.168750525 5.96753883 
-13.3233061 0.0496775359 0.14961797 
-17.5822773 0.123728976 -11.1124058 
-23.150629 -0.0678632557 12.6180038 
1.37258863 -0.00605668314 -7.07143545 
11.9841404 -0.555029988 1.21154058 
8.85581779 -0.0801661238 -16.8955269 
-1.90313733 -0.383762628 -0.906679988 
-0.745637059 -0.325867176 13.0634775 
-17.8919277 -0.0957419574 -4.07205868 
22.6470394 0.362110376 -7.97165585 
18.5438004 0.328529596 0.391841024 
2.13575292 0.163589001 -7.97530937 
10.6240072 -0.109548554 -15.2452631 
23.1661873 0.419089824 -12.7231894 
7.9685998 0.442420781 -3.94641733 
-15.3031473 0.521603763 0.346455067 
-20.2589264 0.394309163 22.0638351 
-23.0825977 -0.379070669 5.59124756 
9.51754761 0.389562249 -6.83164358 
-14.7040539 0.416699946 3.25429273 
-19.0439014 -0.230790749 0.786120474 
-1.6204412 -0.244937271 1.50472951 
-7.16436005 -0.291784346 4.56577063 
7.6479888 0.0254405718 1.60816407 
-15.2831764 -0.0849126428 10.0750542 
-0.860647261 -0.347078025 -7.24922609 
2.40177488 0.279698789 13.6999283 
-21.5879478 0.213012382 19.0142651 
-5.4895277 -0.379671812 8.13297367 
8.22044182 0.00619187858 10.5546398 
-1.1711334 -0.0697770938 10.0649786 
-10.6045742 -0.0118965786 6.25657988 
-17.3746719 0.0451288931 -12.4818754 
-22.4730873 0.511678934 -12.5071497 
22.6754208 0.210810557 -5.08480501 
12.938201 -0.217230693 -1.06306136 
-19.9568138 -0.0826036856 12.9842091 
9.774683 -0.196032017 2.56132793 
-23.2233353 -0.438860863 8.48187351 
12.4766693 -0.269782186 -0.868468881 
23.2734776 0.491908193 -12.1823874 
-14.4731245 0.435867101 3.27430534 
15.5669584 -0.531522453 -11.4108677 
-4.45000124 -0.550856173 0.425177455 
11.9883089 0.0984962434 9.49729347 
20.9072514 0.25053966 -9.06658173 
5.5834136 0.159791857 -2.21956778 
0.225437194 -0.269732445 0.834719777 
-9.37230587 -0.229778141 -7.92077541 
-15.1084108 -0.319581926 -6.85335302 
7.0887804 -0.0115355551 18.6138687 
-8.67664146 -0.0822135583 -2.82468462 
19.134552 0.348319292 5.5796752 
-9.03550625 -0.00760791078 0.19581227 
-12.8902149 -0.541728854 -17.7168236 
2.5562501 0.509750128 -12.8681431 
21.4478264 -0.167522386 -14.1029291 
-23.9845581 -0.305370241 4.81627226 
22.5781269 0.443040073 2.75428152 
8.38272285 0.117693253 12.8295803 
2.55323935 0.066852726 16.20331 
-9.64715004 0.164762318 -2.44075608 
24.0090389 0.0271611251 15.2655115 
22.3092709 0.533463538 2.32060456 
-6.01414824 -0.343535572 10.0402498 
-19.441328 -0.231022418 2.99363637 
-21.1023903 -0.33087936 2.12970281 
22.0164757 -0.101471663 -15.8878975 
-23.1090145 -0.0484646671 12.7737274 
-8.25610733 -0.298751235 -19.1074562 
11.0447693 -0.0563697107 -4.10679102 
-15.4588289 0.430965543 2.24427366 
7.16102219 0.507769644 -5.47896433 
9.75373459 0.399934769 -8.82122326 
15.0426149 -0.540400267 -4.58230877 
-4.00267744 -0.65172559 -3.50845575 
-16.5918331 -0.165343016 10.6942062 
-9.20950985 0.0483126901 9.89304352 
15.6538706 -0.422631264 -4.25026655 
2.47395492 0.32297051 3.71426868 
-13.7849503 -0.0834688246 12.5259981 
2.54821205 -0.0447928682 9.31183529 
-17.8693428 0.312509835 18.7869911 
-7.07767391 -0.0585712716 -4.23593998 
11.019227 -0.105188951 5.17922258 
7.17438221 0.190813437 2.48584843 
8.15934563 0.00942886434 -14.1965599 
-10.8289385 -0.210739493 2.67539406 
18.3430519 -0.697824299 -10.8318605 
-4.1289854 -0.372322351 12.3829851 
-9.34075069 -0.0366124623 6.90365124 
23.7760963 -0.029772466 3.44152117 
6.2747736 0.145178348 -13.0389338 
-9.63043976 -0.700035453 -12.0366402 
12.379756 0.0759782195 7.11832047 
9.25601292 -0.084307678 4.78971958 
7.02522755 0.235613957 2.02787948 
-4.75939226 -0.381622165 12.8088007 
-11.5403175 -0.210079074 4.20929861 
18.7766247 -0.372860998 -16.9505157 
-3.3687911 -0.584025085 -4.31751633 
1.90617383 0.190384388 13.6549854 
2.19701266 0.268907309 2.83042336 
19.0230503 -0.286772788 -5.50230312 
2.16659594 0.523766935 -12.1179943 
20.5668449 0.229712114 0.273992836 
13.7239695 -0.731334746 2.23008943 
19.4771404 0.477125317 3.87907314 
20.2100468 -0.177524313 -16.9706459 
3.66220236 0.510933161 1.85766435 
23.6426334 -0.708760321 -18.9005527 
-9.80377579 0.117715955 -1.59909892 
14.9782057 -0.359406799 -3.54016113 
12.3047647 -0.104502298 -20.4175854 
9.44721508 -0.241724685 2.6986165 
-14.8014612 0.54327184 -0.879709661 
11.239377 -0.219457731 3.42767358 
21.3360653 0.604393184 11.196557 
-22.1974869 -0.142626166 1.78288031 
0.552843094 0.381514162 -12.5311031 
3.14795446 0.173344418 -6.17559004 
-9.59403992 0.0975062102 -1.92188895 
-11.0844002 0.135294482 -4.9699707 
13.6348743 -0.593760729 -11.1438713 
12.7218704 0.140652522 8.72515774 
-2.41884136 -0.103628807 4.78570938 
-2.20088935 0.670182288 -19.2920494 
-21.1663342 -0.311459392 1.44821763 
11.4675875 -0.171151489 -17.1191788 
21.4186516 0.202492878 -9.16035175 
5.06614161 0.216590822 -13.1706753 
9.65922832 0.416844457 -7.8936038 
-3.52426219 -0.412637502 12.2384729 
5.1089921 -0.107546814 9.09593678 
5.45416164 -0.21958898 16.4795284 
3.16983056 0.511780679 0.857465625 
19.4185066 0.502561927 5.98938847 
24.9510078 0.498719096 -7.76970816 
-19.3559494 -0.234283671 0.497162789 
0.462339461 0.0293856747 3.13097501 
-13.3489647 0.133674398 -4.06116056 
5.03125763 0.289855063 4.60217953 
25.1754856 0.63824755 -12.8340883 
22.5459671 0.263150245 12.0660906 
13.5294018 0.070184201 12.0413942 
0.825761318 0.110063709 9.09666729 
-23.4742413 -0.218776971 0.999799371 
24.0488243 -0.000915937126 4.35605192 
-16.4654446 -0.206981182 14.8858519 
10.7229471 0.0138898576 13.2911377 
20.902977 0.208685726 1.16218758 
-24.7519588 -0.27424854 4.3090477 
-18.2934036 0.00509617524 2.34233069 
2.00315332 0.151084647 -4.41901207 
-7.31860447 -0.560665309 -14.9865503 
-11.0778151 0.348076969 13.7513218 
-14.1137819 -0.125155002 12.8709793 
-16.21982 0.239587367 2.21927309 
-0.194061801 -0.244659737 0.865169823 
22.9674664 0.426240087 -8.18685913 
18.6791401 0.178353831 -22.248848 
-8.39085674 0.384720713 13.6970444 
2.94360542 -0.173293799 9.04045963 
-18.8623943 -0.0974432006 0.421237469 
20.6961193 0.0511165448 -5.72943211 
-16.5584335 -0.065678969 -11.3966713 
18.287674 0.276810884 7.03607988 
12.5610285 -0.15990071 -2.97525477 
13.6207857 -0.654643714 1.27482998 
24.3055077 0.124341384 -4.88766146 
18.6268768 -0.35310635 -4.45590687 
9.99584579 0.098199524 -1.83836186 
11.9228811 -0.225726053 -19.2836609 
-5.4335804 -0.478042394 -7.7460742 
-22.9311104 -0.160955057 3.619802 
5.06927776 0.335912853 0.779642224 
15.6618385 -0.706228495 -10.635705 
21.6366272 -0.440316379 -23.7090302 
9.67229462 0.310919464 -11.2283754 
10.0428438 -0.0103187095 13.3410854 
-19.750349 -0.563474238 5.12354612 
-4.81318569 -0.636851132 -2.28024769 
23.7815285 0.0803984627 1.40922236 
-13.7591648 0.070503816 -5.18897963 
-23.923645 -0.392913878 9.65841961 
10.740941 -0.0470338836 -13.2483187 
-9.3368597 0.436990231 14.3042641 
-9.69581509 0.102536127 7.14708805 
-5.96056461 -0.44355768 7.98164034 
0.681521654 -0.0320534445 -10.3742857 
11.7672844 -0.231410578 -11.1956301 
-19.3802452 0.27439788 -7.5961628 
-20.9770107 0.34289521 -4.93645811 
9.35656548 0.0810555667 8.94937706 
16.5205956 0.176881582 8.22430325 
-15.731967 -0.138612568 10.8618498 
20.825201 0.187717214 -0.850372314 
-5.48498726 -0.439988345 -0.67447722 
5.70646811 0.149613217 -1.68017876 
24.1569672 -0.102552019 -0.869504571 
-11.2257614 -0.0743836388 22.2061405 
-24.1913738 -0.473194808 7.40681124 
13.5589695 -0.277856231 -4.2333169 
21.0070343 0.23924838 -9.15769577 
15.5954399 -0.0692412481 5.26191378 
15.8427877 0.131752372 6.66019058 
-23.5726929 0.74060756 -10.7361212 
14.4843998 0.095981732 11.2199326 
3.76021981 0.194008157 -3.36151004 
21.4942284 0.0562770143 -2.37241793 
-1.58766139 -0.175320879 -8.64339256 
-6.62783575 -0.142984539 12.3003511 
8.13511086 0.176494464 9.0115509 
-20.3144722 -0.21322678 -1.72391343 
9.57122993 -0.218727306 -15.1731434 
-0.0796250105 -0.0821579844 17.1651573 
-10.8537855 -0.271091223 3.35118818 
-10.1780834 -0.45419991 -15.374589 
-5.24290037 -0.559406936 -8.26535606 
-14.4596348 0.254350334 -3.1101706 
-13.6000957 0.311972111 -3.15370035 
-1.84006274 0.123397805 6.65567923 
-12.5974722 -0.117831632 -4.92922211 
-16.2964592 0.245468289 2.41010284 
-18.8521442 -0.126013815 -1.29945183 
-25.2301846 -0.299610347 7.70729303 
8.99243259 0.103231959 12.8095961 
-8.52851582 0.129565567 -4.10759497 
22.5171967 -0.488485575 -17.8935146 
11.7553883 -0.185492843 -5.20991802 
0.665689707 -0.0436840802 -9.48461151 
12.9988594 -0.128723815 -4.14532042 
4.43032026 0.295509189 13.1908607 
14.7555285 -0.705132961 -10.2562609 
-6.7170682 0.379585207 17.005064 
-11.8973589 -0.050999932 -1.74830461 
15.8213663 -0.322869539 -12.3465643 
6.71278715 0.380855471 0.545435071 
-6.62692928 -0.0987948477 -4.7213726 
-12.1603374 -0.553370357 -16.5924702 
-9.72155666 0.19393903 12.6657028 
4.86480427 0.316024929 11.087903 
7.37176037 0.416537493 -4.28653431 
2.91383219 0.378063411 -2.50261378 
-1.63563943 -0.0395865217 4.99115992 
2.56906772 0.363443315 -3.0219171 
-15.0252466 0.174329847 -4.51645947 
20.1578979 0.0577042773 -18.4646034 
-6.20316744 -0.196788132 -4.35271645 
5.41824055 0.10003376 5.09166527 
-16.0279655 0.190361619 6.19310713 
-2.64422321 0.492187649 -18.0230446 
13.0141811 -0.608204782 -13.537343 
17.4747219 -0.860533774 -9.61682701 
7.69114351 0.503043234 -10.364109 
-19.9843388 -0.360135823 9.56134319 
-0.7669155 -0.0968641341 3.78167892 
-22.7049942 -0.314296752 11.0084133 
9.96395874 -0.137126788 0.878583014 
-15.8983669 -0.180960506 16.547657 
-1.81720257 0.163555667 7.70745993 
-17.5734711 0.121037424 -11.2944202 
12.0087662 -0.417293817 -12.1919575 
-21.2123947 0.297094434 21.1850243 
-20.3785381 0.218742311 -7.50989389 
-9.92362213 -0.341001987 -9.47829247 
22.528532 0.220851764 -5.00562525 
-20.920929 0.269857943 -4.69553232 
-19.212532 -0.186858371 3.17263412 
-9.72721386 0.0461461805 6.56335258 
-23.0909081 0.0178350247 -4.26560879 
-16.5361233 0.638156891 -0.485888302 
5.7841053 0.103867717 -13.8606091 
-2.20288539 -0.148854673 -13.6573935 
19.6996231 -0.434022158 -10.7171993 
16.4909821 -0.947352111 -9.61143589 
20.8021793 -0.284796715 -16.3229923 
23.5850182 0.0304543506 -14.9120035 
-2.16413951 -0.354510307 11.1840677 
4.87424231 0.0866521299 13.9509048 
9.6865778 0.0812740624 -12.4993773 
-6.74676704 -0.0657710955 -5.15003443 
-5.76744223 0.0913266093 14.0754023 
18.0045891 -0.514884293 -6.65477419 
0.323934883 0.505261421 -15.9874907 
-0.874177217 -0.289472997 -5.04582167 
-8.67067719 0.203693867 19.3965816 
21.5422707 0.359211564 -8.42442608 
-3.93462181 -0.409183145 -9.53325939 
10.4269199 0.165497646 -2.06201649 
-3.20535111 -0.322475553 11.3787022 
-22.6491089 -0.287203014 4.19140959 
13.6952658 -0.425232172 -5.88305759 
-21.1663132 0.547539771 -12.2355375 
9.68517876 0.0836470425 9.59117794 
12.4767284 0.0493393503 13.8623075 
-12.6165962 0.0345863961 4.04170752 
2.39863014 0.255027294 -3.80225635 
-8.13207912 -0.792376518 -13.0122204 
-3.71581435 -0.345587313 1.73833251 
2.83105516 0.475176722 -9.9539957 
-6.70205116 -0.470847517 6.80130625 
-14.7234221 -0.034473449 -13.5839157 
20.2360058 0.122245483 -22.8380127 
23.2446251 -0.0197655298 10.3833609 
-22.0480213 -0.302192539 11.3922539 
23.5355606 0.562406421 -8.68812466 
17.4550591 -0.000994274858 1.15212297 
4.52881145 0.16859445 4.73488998 
11.2434473 -0.222412348 -13.099659 
-10.1650562 0.167047843 10.7876492 
18.5874481 -0.620134115 -11.9411612 
1.80159104 0.547126293 -15.5506601 
2.91176796 0.0982238203 11.7225351 
-5.03648806 -0.715423465 -11.0770407 
-13.2760334 0.0299964547 11.9305353 
-24.1903667 0.0202427525 -5.60375977 
-12.0947323 -0.418969452 -8.00391388 
-21.3143082 0.36181581 -15.577713 
-24.0650101 -0.201751351 2.89731431 
-19.9798279 -0.119442821 15.1414642 
-8.67758465 -0.366702586 -8.11555195 
1.87913358 0.201426327 11.0908995 
-20.9643421 -0.355012715 1.14481676 
12.5434427 0.0548616424 -24.6463413 
-8.22095013 -0.288607568 -18.0174694 
14.2620583 -0.479798704 -0.88038218 
-2.04077053 -0.0520209186 -11.0592003 
-24.2037506 -0.183716089 2.10673738 
2.43879461 0.486510336 -16.0890751 
3.32386708 0.468563378 -0.212471724 
-12.9845991 -0.101113573 -6.4953537 
20.6875992 0.670658946 5.87123251 
7.51150656 0.186078534 -2.17437291 
-0.131946668 -0.32945466 13.0773468 
-1.64136744 -0.301254362 10.652771 
-20.6990032 -0.227274314 -1.3491478 
13.1760664 -0.244340539 -15.2210693 
-16.3068581 0.370019734 22.2194443 
18.151741 0.335017204 6.90464497 
8.2970047 0.222355813 15.3597641 
-9.78660965 -0.698158085 -13.8102827 
-1.49299991 0.0802591741 7.66731358 
21.8776016 0.538703084 2.39504981 
0.522851706 0.273617744 7.83129263 
-21.2978401 0.366384268 -16.4796715 
14.6181612 -0.0242648665 -22.4565849 
3.10229564 0.419429898 -0.625203669 
-11.1054535 -0.16828467 -6.13495064 
-10.0562811 0.0300011858 -6.09558105 
19.6544609 -0.316595972 -8.97552395 
-14.0753136 0.278814137 2.34932709 
9.27106857 0.472980857 -10.5497122 
4.46013212 0.300193459 10.9209986 
-17.6406612 0.136454314 -7.34654617 
10.3584232 -0.0878400728 -18.8909435 
-0.070155479 0.192074195 6.6379571 
-24.9376812 0.823743999 -9.02012253 
4.6095686 -0.0163371135 14.9785709 
-19.8994637 0.566590011 -15.5895872 
4.36771059 0.036563471 5.51939201 
14.7360487 -0.276394606 -13.2625628 
-7.18378115 0.0972361937 14.0529108 
22.7296734 0.37778762 -13.2743454 
17.8296299 0.27930811 4.46344709 
-18.225769 0.221327111 -13.0548887 
-5.17293262 -0.531233788 -3.88886905 
11.2811956 0.0520923808 -6.96626949 
10.8410883 -0.280398548 2.86722159 
-5.48415089 -0.133210257 13.3813944 
2.07981777 0.0459061041 -6.85211611 
