ply
format ascii 1.0
comment created by gply, a Houdini tool.
comment converted from .[b]geo
comment for more information about Houdini, try:
comment www.sidefx.com
element vertex 1272
property float x
property float y
property float z
element face 0
property list uchar int vertex_indices
end_header
-20.5081654 -0.183633387 -13.8780212 
22.129509 -0.745592058 -10.0230837 
0.0580781996 0.0768296421 -6.49780464 
-23.7560387 -0.0725923106 -10.6568565 
-17.3913498 -0.310805291 3.00185585 
-14.7265301 -0.0995964184 9.29756927 
10.7004719 0.0556125827 12.6731043 
-10.5655708 0.217166722 -18.651516 
-13.8552694 0.524922609 -24.7868214 
-21.887352 -0.220052585 24.4322968 
3.41983294 0.10390304 -18.6570377 
-16.7334518 0.220244274 18.7158852 
-18.9343929 -0.181938395 -1.71961677 
9.27826595 0.316901445 -23.9897251 
-1.72328758 0.15958938 5.6395545 
4.25663424 0.0803312957 23.3149586 
2.16888213 0.479021072 8.10821247 
18.5055313 -0.306181818 -6.73248959 
4.42280817 -0.0637564212 -3.75064945 
9.07162571 -0.0893880874 10.841361 
-21.3338146 0.487942159 15.1104784 
2.67983055 0.182667583 23.7637367 
16.9394798 -0.124234088 -22.9947109 
4.45149088 0.0375561863 19.9576187 
-12.7620125 0.598894 -21.6442299 
-8.86945057 -0.330936432 -22.7897797 
13.2994328 -0.445450455 18.0038738 
7.95028973 -0.45747456 -5.93934679 
-21.2581577 0.630778551 7.67264843 
-14.9656525 -0.432481527 6.19368172 
23.90662 -0.5504722 -9.1821928 
-14.1076479 -0.474425972 4.30038452 
-17.4043999 0.0350462347 -16.87467 
-2.71578813 0.0664518327 -6.90896797 
6.40933943 -0.350823283 9.47107029 
21.709116 -0.163001075 -16.7118702 
13.4865742 -0.489460886 18.7601852 
-22.262495 -0.29210788 23.5405388 
-13.638299 0.568627536 -13.3327246 
-12.2247334 0.495423049 -14.1636448 
24.401329 0.60729295 1.37204874 
1.87793875 0.247245073 15.9730282 
15.6153555 0.234998986 -8.57901764 
10.4035997 0.399265558 14.5455608 
19.1819038 -0.0703406706 5.21518278 
18.0606041 -0.0797923803 -12.5017681 
-7.04402733 -0.478420436 -24.2017612 
-21.3764744 0.457396299 16.0938168 
-23.0956402 -0.256593287 -18.0248623 
-5.50163507 0.173356816 16.7171173 
18.2700672 0.0750145689 -1.44183111 
9.69745922 -0.149616659 -4.45535517 
-6.28434467 -0.252179325 -15.8295565 
2.34591889 0.253915429 -19.5602722 
16.2586842 -0.411645979 5.03079939 
-5.40503216 -0.254402548 -15.7190332 
-24.6881027 0.58589381 0.227395624 
-11.1434708 -0.73185885 20.81814 
-11.626874 -0.755518854 16.5615463 
-4.15277433 0.208435014 12.2714977 
-5.38186741 -0.279917359 -14.9656515 
-11.9000025 -0.392217159 -2.97482491 
3.44068193 0.412593156 17.8054218 
12.5522995 -0.079832159 -21.3239918 
10.8074207 -0.200466454 23.0816116 
2.69380784 0.489424974 7.70302629 
-6.26033545 -0.674409568 -20.8901978 
-15.7991152 0.18685168 17.9423866 
-22.2973595 0.19384332 -5.37682772 
-12.6429615 -0.264659375 2.44861269 
-6.09292984 -0.0449655578 -7.87278509 
-10.3569937 -0.117265217 -21.7986164 
-6.48661423 -0.023275882 22.0981998 
23.2778301 0.510445237 8.22307205 
-0.00269006193 0.470833778 8.07113647 
0.210010335 0.639780283 23.0593128 
11.3476105 -0.307414621 23.379324 
-12.0327673 0.450418174 -13.8466063 
-2.50234914 0.165501177 -5.97701883 
20.4551868 -0.782817841 14.9944048 
-5.2127533 0.331660032 13.8155775 
18.5355282 -0.400062025 15.3694849 
-2.20064497 -0.45948717 -22.9637623 
21.7089443 0.271873832 0.745452166 
-7.39043045 -0.215475485 15.2284193 
18.0676098 0.15835543 -3.07594991 
16.9053764 -0.222524226 15.7573299 
15.0608807 0.111646615 -13.8092384 
5.2780757 -0.070494242 13.2809601 
-19.6003819 0.281289726 11.0196104 
-22.3261108 -0.00930096209 -11.7321968 
-5.83012772 -0.0563953295 22.7175789 
-1.74719965 0.286720097 14.9793377 
6.19777632 -0.0874026194 21.00387 
21.6489449 0.0307688862 -3.1690228 
-1.24714863 -0.495748103 -15.260705 
23.7941456 0.726931334 -21.5013371 
-14.0915976 0.591841638 -15.1765242 
-15.6389837 0.441488206 -14.7156973 
-16.4086609 0.119638659 -7.24658775 
-1.69640923 0.342725068 -5.69667625 
3.89945984 0.0515062511 11.8214998 
23.4560795 -0.385574073 -7.00644541 
2.42734265 0.37022689 20.6638165 
-12.5431013 -0.642698884 19.3107529 
20.1560688 -0.332776636 -23.3727703 
4.79075813 0.0600145981 1.94304872 
22.4961357 -0.192432791 -5.39358711 
4.10121822 0.0687716752 23.5813675 
-1.41061759 -0.509146392 -15.1165075 
-9.39238167 -0.367002219 24.0356636 
-6.00760126 0.136171445 15.9318771 
3.73758936 -0.0410228968 14.5231352 
22.2769814 0.266411662 -1.97414267 
6.33988333 0.0151659735 18.1857796 
12.218523 0.271091104 -13.5352526 
10.582387 -0.166711971 7.93626785 
22.8409729 0.413181216 8.13077545 
-19.2678051 0.171541125 7.65195227 
-22.2530079 -0.400619566 -13.7144918 
2.38364673 -0.175087288 -6.39898396 
-24.4481506 0.672181487 5.71432161 
-24.3981209 -0.163903341 -17.1076069 
-4.73443079 0.357060075 17.0494556 
2.64938283 0.0759713054 12.3002234 
3.71206546 -0.0744554996 14.0598497 
-24.7888927 0.787750781 4.00714159 
24.7078571 -0.324709743 -13.8306437 
-5.60810614 -0.217501059 -15.2158136 
-9.4720459 -0.203281105 -9.3324976 
3.06242442 -0.401904166 -11.3870249 
18.2238369 -0.404483706 1.1026895 
-2.83288765 -0.159011066 22.899826 
6.41019201 0.0808033794 22.4784565 
-10.0350523 -0.465019494 -5.57238197 
-5.24095631 -0.0972353518 -10.8600121 
-22.2437363 0.612281859 10.9229498 
-19.3567085 -0.197412595 21.7380352 
-5.26660013 -0.642579257 -21.1516972 
15.7931156 0.115493201 11.4234047 
19.9895344 -0.525603116 8.36783314 
-19.5138359 -0.150693014 4.16239119 
-15.8530588 0.448594481 20.8784237 
-3.79644012 -0.597947538 -17.4205437 
23.6882133 -0.0968414098 16.3516655 
9.66285992 0.303924084 -22.4009228 
-5.0971837 -0.174708799 -13.7478552 
-9.76315689 -0.136067614 24.6849403 
-24.1319561 -0.0355420187 -10.971364 
-11.4168301 -0.714983284 6.8846488 
0.0210160092 -0.00843772292 -4.16274071 
13.1625967 0.878837645 -9.14457798 
-15.8818598 0.437888861 21.6938896 
13.399457 0.0717711523 3.53454709 
-11.8504705 -0.163075343 1.5459522 
-15.4631157 -0.561050534 -2.45613575 
9.61853123 -0.292121112 5.99240685 
-14.4243784 0.32629317 -8.97665977 
13.04636 0.827615023 -8.88499355 
15.7533035 -0.246716633 8.98451519 
-6.36324406 0.180099487 12.563633 
6.93133211 -0.0087094428 15.8888445 
9.92657375 0.032686878 4.49576473 
-7.26288986 0.258075774 10.5245619 
10.991128 0.274802178 14.6526279 
1.39899111 0.473823369 7.03617954 
-20.579855 0.33318156 4.21607208 
19.0473404 -0.135646269 7.49019337 
3.61318088 -0.373800635 -10.8031836 
0.403522253 -0.0889616683 -5.73829126 
17.294836 -0.245895505 21.4434738 
9.65037441 0.0803578869 -6.68482304 
20.8268089 -0.731561303 -8.45566654 
-8.4588604 -0.055059582 13.1098404 
16.2807274 0.221827403 -6.29473114 
11.0873699 0.00284961425 10.8156261 
16.8390083 -0.209804177 17.2681808 
-5.81960583 0.0501159579 19.852314 
-21.1941814 0.151757285 -7.13650084 
-20.4667282 -0.195547447 21.4130077 
-19.2909184 0.399264753 -7.06254435 
13.3001814 -0.058800824 5.9352231 
-14.7778463 -0.113757379 16.7458916 
5.50268555 0.449342638 -24.2446823 
3.71700573 0.135407537 2.01352692 
1.75243473 0.382917851 22.6149025 
-21.6376343 0.326616555 17.484024 
-0.662750125 -0.0483300947 -24.1675987 
9.19294643 -0.428244859 8.70700455 
16.9488144 0.101509489 -2.20052123 
-23.7871399 0.282663673 16.1101418 
-14.3138542 0.317594677 -9.34681892 
-1.23422432 0.209957778 -4.46641731 
-5.46955109 0.161752239 19.8683357 
-6.01896048 0.0230423789 -6.72930765 
-2.039361 -0.343349457 -23.7829266 
-1.90570045 -0.0458181128 8.01569939 
13.0177374 0.0118829068 14.2725372 
18.7075481 -0.280093104 -11.046032 
14.9594488 -0.376784623 4.2265954 
-4.58346224 -0.727964699 -22.2368202 
11.6898088 0.110199876 13.5360603 
-15.4115171 -0.396441638 5.87557077 
-5.06444931 0.236759201 18.7820301 
-10.9257355 0.616595149 -15.9792051 
-22.9830322 -0.0111265322 -8.76714993 
24.2565136 -0.00927406643 12.5793409 
23.3692856 -0.302930683 14.3236895 
-7.43506479 0.105115287 -13.6405478 
2.40092421 0.261956066 -18.0643597 
9.9530859 -0.0128647778 18.7404079 
-0.367294163 0.235963538 9.6964674 
12.7085371 0.605974138 -11.6335897 
0.923037231 0.335568041 6.0519433 
24.1961288 -0.55843401 -11.4868364 
-23.7695599 -0.0733695999 -10.8018332 
10.6749611 0.127301678 -3.89509678 
-10.5282497 0.55538708 -16.4020214 
8.81620789 -0.0708506778 16.1862564 
-24.2239208 0.787272871 3.72507858 
22.9560413 0.451007873 7.21282673 
14.3808737 -0.235664159 3.98119211 
-23.6978817 -0.00310774543 19.437706 
-6.81269741 -0.126268402 -14.3372593 
6.16719151 -0.10919477 -0.594352603 
-5.42707968 0.165033117 17.0231915 
-10.7746582 -0.579797566 9.18911839 
-4.44592524 -0.661729753 -20.7189732 
-13.1726208 0.931606352 -18.4260807 
13.8467798 -0.545742154 18.7127342 
-12.9198818 0.61580503 -14.2719564 
18.2163143 0.102092944 -15.7509012 
22.5545406 -0.480110437 15.9312725 
-21.5835972 -0.0394365974 -9.77772045 
22.7539291 -0.420301318 16.0609455 
11.8928547 0.150920734 0.323745579 
16.6153393 -0.153202638 -13.8936205 
-22.3778477 0.604012787 10.9424667 
25.3020878 -0.121740259 -8.98488045 
-15.1632519 0.141857103 19.2183056 
-4.07508659 -0.433042616 23.8816223 
-21.062151 0.476700932 17.5522289 
-1.28640521 -0.418317646 -14.0143204 
-6.63590908 0.0375767946 16.2937565 
-14.8802261 -0.00218560407 -5.79967213 
-3.05098653 -0.148798525 7.41072083 
-1.9376421 0.3735919 -5.52250242 
-14.7271461 -0.279074371 -1.60876322 
-24.0738869 0.182613567 13.4665003 
12.8746443 -0.35162285 17.7853775 
-0.905546725 -0.176039845 1.39436972 
6.70223284 -0.162508622 -0.373904496 
22.7173119 0.33895871 6.44791508 
9.20399475 0.054566022 23.6183662 
8.9441061 0.222355381 1.0705874 
-6.73473072 0.0285185259 4.50889397 
-10.9419708 0.0390021726 -9.64686775 
17.123909 -0.0945772529 -24.6645317 
-14.60851 0.365117699 24.8146801 
-14.8911867 0.488813341 23.7624397 
4.51551533 0.19113645 19.5229454 
-1.83868599 -0.00491946237 8.18685341 
-11.341136 -0.19740808 -1.78991926 
-14.782402 0.43672654 -19.9656277 
10.2000904 0.287525892 -12.6560822 
-18.3551712 0.413178265 15.6559772 
-16.1972771 0.425191253 -15.8726454 
-0.491229177 -0.0294887964 -0.838296771 
16.3215656 0.119059406 -3.93037105 
6.07360506 -0.223960221 -5.0576334 
-16.5403614 0.368576705 -15.6551294 
1.42258799 -0.327123106 -9.7726326 
23.6207485 0.50821507 7.61186647 
-19.372057 0.283973664 -12.0956116 
-15.5243521 0.424919784 -19.1952171 
-13.4052048 0.32794261 25.1310787 
1.69225657 0.0618406907 -4.11936903 
15.5717173 0.230610654 -8.13698292 
3.84747291 0.0368610956 21.0453396 
0.182072595 -0.0178551842 -7.91385555 
1.6701864 0.0597876497 -3.41558504 
3.81307983 0.374798477 8.97278118 
24.1646214 0.29741028 -1.67360878 
7.84944868 -0.0159186535 -14.1058245 
-22.1254444 -0.266530156 -17.0874252 
2.91117549 0.195019156 2.87956071 
-0.803974271 0.161067307 6.78727341 
16.4809914 0.31857425 -7.60795116 
-23.0807095 0.937906802 6.28787994 
-13.4708185 -0.495294213 17.589447 
14.385232 -0.562758684 19.0628414 
18.8862514 0.107574023 -17.7859001 
-14.4631424 -0.237288773 17.6040955 
22.0163174 0.120355688 -20.0870991 
-1.1989758 -0.031169638 -1.16988409 
-8.53712273 -0.0911039934 -8.35438347 
-22.1882153 0.622863233 5.86875582 
7.00347185 -0.555163264 -8.47040939 
9.71260166 0.206929252 -12.338357 
8.2668848 -0.522883832 7.8451252 
-12.5382175 -0.202652916 21.9042645 
23.2718582 -0.243930534 17.1426678 
0.493982673 -0.282675773 -17.6188374 
-5.92066526 -0.586585999 -21.0410328 
21.4690399 -0.490175158 -6.86561155 
-12.2766666 0.446018606 -13.3879347 
13.8709135 0.0226351209 -17.9986324 
0.587181151 0.190582678 18.2515087 
-14.565877 -0.214599863 6.82733727 
3.06504035 0.054417558 -15.3782167 
-6.39488888 -0.697827935 -20.987114 
-10.0480156 -0.621239007 18.9269714 
-16.4836254 -0.486002773 -2.96735239 
-9.60333729 -0.317918777 -7.54665661 
17.9320698 -0.321843117 3.61951327 
14.495307 -0.23569636 7.05424643 
-16.540472 0.0760446563 -23.5116367 
-7.3706584 0.238170221 8.37927151 
13.2640963 0.799690127 -9.16806316 
-19.2601509 -0.235331401 -3.49373674 
-16.0396786 -0.34221521 4.7925415 
-21.0837097 0.501256227 9.69948673 
-0.0482133329 -0.510986269 -14.2223721 
-24.726223 0.134279147 14.9317741 
-5.67664576 0.199388608 15.7898026 
18.400341 -0.0277569275 -19.3171883 
-14.0704384 -0.213684008 0.362943381 
22.6800652 -0.666393518 -9.63450909 
-13.7186823 -0.0985882506 19.5258427 
1.50439703 0.0245350543 -1.08182788 
23.695919 -0.261571556 -5.30368519 
-11.7963514 0.474339515 -21.7410793 
15.1714058 -0.323718041 18.2681446 
-15.6511078 -0.178373456 14.5742598 
17.0279922 -0.172033787 7.34617853 
-2.38747597 0.254118443 22.5563049 
1.74102163 0.207391828 -20.1962337 
3.52671432 0.176243633 2.95483613 
5.15132427 0.13537097 1.44733739 
-22.288126 -0.300393522 -13.1907749 
-9.8246851 -0.184887752 -22.6163445 
-0.976992488 -0.0495487489 5.6493454 
3.16609836 0.296999335 -23.3646431 
-22.4840164 0.317142189 -0.242987782 
-2.22860098 -0.2926943 -8.91358376 
20.9497547 -0.647494137 -12.6617517 
19.1551399 -0.0276940558 23.6554661 
-2.52958059 0.912749648 18.7525063 
7.12240505 0.00730495714 13.7532015 
24.6647224 0.486430198 7.63732243 
-19.7844963 -0.215924487 -15.1195192 
-2.51126504 -0.0787063837 1.53824103 
7.95705414 -0.244083211 -13.2474346 
13.5822353 -0.375924289 -16.1173573 
7.92394876 -0.228290319 10.7415972 
14.7038517 0.0162879564 -20.682972 
-20.9618187 0.626353025 11.1536856 
-7.61577368 0.0732506365 8.08085537 
-9.22063255 -0.584508121 21.8147621 
7.99617529 -0.333617032 17.9221935 
14.3181372 -0.0625395849 -15.4213505 
13.8610935 -0.418172061 23.1815987 
14.8779469 -0.315538734 17.7602634 
-24.9267616 0.202654243 -2.66197252 
-8.25101185 -0.304330498 6.139925 
5.21581221 -0.330547661 -5.89394617 
6.064013 -0.0657731444 3.1351707 
-9.3394537 -0.190972224 0.0242483504 
-6.31250048 -0.393167019 -16.439909 
4.20019913 -0.232634917 13.3097534 
17.8461685 -0.323490262 14.0515471 
-8.4554987 -0.398202121 5.44489145 
-7.65741062 -0.277601629 21.6436081 
13.1923141 0.484163404 -0.515136182 
-9.89326286 -0.723281622 17.8397102 
20.9406986 -0.271833569 -18.1043606 
-22.7981091 -0.14934051 22.992651 
12.9552107 0.628276646 -7.05081129 
-6.98567963 -0.341775507 -16.6279984 
-20.9313259 0.557799041 15.0339308 
-23.829668 0.710588455 10.0007467 
-23.7141705 0.160009414 -3.99761128 
-14.9158459 -0.182185322 11.4851112 
4.61296082 0.126324132 5.70866442 
-6.21920204 0.0716489628 -2.53914881 
-12.5022287 -0.118991129 23.3151627 
16.1572227 -0.143831208 -16.3136101 
5.40647697 0.361459315 24.3346348 
-16.7897606 -0.299440265 4.35875034 
-4.85368586 0.166385159 -7.4581461 
11.6474686 0.157472908 0.432952225 
12.7195063 -0.223856494 24.3468418 
-21.4151268 0.0216798708 -3.34433103 
-3.9925499 -0.149822906 9.38689137 
-6.79099369 -0.0613722652 -4.60793734 
-7.03166914 0.136904746 11.0486307 
-11.3984509 0.148664653 -10.9568586 
-18.0180168 -0.257275432 -3.07495022 
9.90321636 0.23002103 -14.6120291 
21.9184818 -0.64995563 16.9630642 
-1.00728202 -0.111865565 -22.5809536 
-12.9767437 0.557525635 -21.8020744 
-14.0478344 0.48817122 -12.3342657 
-23.2747078 -0.076481387 -10.7212334 
13.4369078 -0.133037552 6.75030661 
6.26845837 0.441831708 -22.7582436 
-13.1676025 -0.580565631 17.272438 
19.6327095 0.0100795124 -2.76312137 
12.6968374 0.0252483301 14.5298376 
10.4812603 0.103339069 -3.27577615 
14.5446711 0.0444827452 14.970726 
8.55478382 -0.219022304 18.2280102 
-18.4481544 0.116763704 13.5860815 
13.0501966 0.747784197 -8.33559132 
0.513779938 0.057402093 -9.61213207 
-23.7173519 0.247560382 14.9891462 
11.0701485 0.276626647 -9.75294495 
10.9697609 0.126650259 1.45590544 
-17.0755424 -0.025694469 14.2472525 
-5.08313465 0.308385938 12.6558237 
7.4141922 0.220792487 -24.2918015 
-4.05322838 -0.242520899 -11.1929121 
4.54394484 0.488033742 -20.8437176 
-4.9509511 0.22286512 14.5049429 
-10.8466215 -0.498724729 -3.22774029 
-4.76826715 -0.32151404 8.53209114 
-8.26819897 -0.372510195 -22.0066586 
-22.9031124 0.421851903 0.358185828 
18.5789623 -0.00899054203 22.7819252 
1.3559401 0.0262454003 12.7500601 
-6.18376255 -0.61558491 -21.1803379 
9.69343758 0.2258026 24.5549774 
-15.039423 0.49678877 23.3535156 
14.0608778 0.280542612 -13.3180943 
9.03105164 0.124341801 -12.7389297 
4.8256135 0.172944024 15.0910225 
-23.6167355 0.357021749 -0.255947441 
18.6282539 -0.0625211 -14.5064354 
-8.99560738 -0.315607756 -20.1359482 
3.26476121 -0.121932536 -3.55274439 
-4.4467907 0.261998326 19.3066769 
6.43452597 0.484252214 -20.8872433 
-18.1447372 0.395745695 -10.5692234 
24.9944229 0.0986355692 15.558403 
13.355773 -0.330423415 -24.0027542 
8.61074829 -0.27953738 -4.44321394 
-0.466474503 0.0842882991 -8.82363987 
-10.2103682 -0.359966993 -6.55033159 
12.7516031 -0.246243656 9.77379608 
-16.293499 0.146031931 -6.96016932 
-2.89279556 0.0132568004 10.0150681 
9.3185873 -0.323441207 9.80802917 
-3.41508532 0.348553151 20.3381386 
-6.9435215 0.0558260158 6.88226986 
-16.8387337 0.108486973 -6.75684977 
18.6539631 -0.567261398 11.4780512 
17.9994507 -0.12359634 -7.38672638 
-19.2074413 0.130008355 9.36260223 
2.61742163 -0.184795067 -6.07841492 
-23.7222939 0.148927867 -2.51958537 
-11.8407021 -0.618328393 12.4310684 
-2.6493156 0.128766 -6.39499187 
-20.9050713 0.591617644 6.55913734 
5.23038721 0.246067747 -15.2846737 
5.0084424 0.274201006 16.1830349 
-1.21675003 -0.145506293 1.46188807 
-13.3023272 0.626695096 -16.9984188 
-6.69533443 0.171384737 -2.52148843 
6.31057549 0.495203167 -20.9109192 
6.47949505 -0.564952433 -7.80824137 
18.5573864 -0.0596926995 20.0363903 
-8.9030571 -0.397179365 14.0056658 
10.1881313 -0.0162437875 10.8642731 
-6.40125275 -0.140768588 23.6078739 
14.1945467 -0.283015072 -22.977602 
-2.54122281 -0.0607281141 -1.61298418 
-12.798707 -0.495711386 13.2536564 
-6.65898609 0.00279045617 4.93723297 
1.80576122 0.37812382 21.7112122 
-13.2251596 -0.355402321 7.16057014 
16.9533424 0.143868104 -6.08277035 
1.72192478 0.145124406 4.05713892 
5.21373177 0.28063494 -15.7499514 
-12.4457512 0.429011643 -12.6161585 
-21.2607555 0.693836033 13.3413572 
-10.2849483 -0.263025641 2.91420531 
-1.87563992 -0.29964444 -23.3137703 
13.5165052 -0.0295848697 14.857769 
9.49037266 0.174351409 22.4971619 
23.5516186 0.358844638 -19.9068394 
-15.7345676 0.542875528 -17.8205833 
-17.8291492 -0.0509318747 10.8013725 
14.4778147 0.281289458 -3.68810534 
-22.8248253 -0.432774127 -18.7092361 
3.96181273 0.270932585 -16.2059917 
-0.205943227 -0.00965180155 4.71442986 
18.1520004 -0.368255377 2.33603334 
-3.78492808 0.376772016 15.1441612 
-21.5740356 0.539003134 12.0645189 
-14.3448181 -0.16583544 -5.41332006 
23.3507462 0.488404393 4.88883734 
-21.620636 0.138372034 -8.27248478 
-13.6877089 0.275960833 -10.834425 
-13.2167015 0.475266933 -23.4096756 
20.1449299 -0.377051651 17.8680859 
-17.4589615 0.198941201 -7.88263035 
1.20929563 0.254849702 17.7221909 
7.55913448 -0.346137136 -12.1880703 
24.199749 -0.0513984673 14.1148529 
15.6288757 -0.251335949 8.45235157 
1.47692978 0.292516977 23.6159668 
12.2615852 0.446097195 -12.4962626 
-18.4621754 -0.248291343 -1.8788892 
11.8012838 -0.20128715 7.03137207 
-22.5395489 0.343180716 0.455460787 
-5.45251846 -0.0117074177 21.9899502 
20.3599625 -0.748364985 -10.1568613 
-19.6190605 -0.457400113 -22.1811543 
-15.2667885 0.459606826 -19.0873623 
5.48520994 -0.107072391 6.4660058 
4.05246162 -0.355952919 -7.94187546 
6.64825058 0.349013448 -16.7477665 
16.7690048 -0.220217183 15.3120327 
13.5882921 -0.0691229701 5.94286728 
-14.0943089 0.505765021 -12.4686384 
9.56076241 -0.39101088 7.77793169 
-15.0289707 0.499877393 -10.9156084 
15.2529993 0.398341119 -10.1652346 
-21.4928665 0.542577207 12.4899235 
-22.7479057 0.41281268 12.3210316 
9.9060812 0.00777311623 -0.576118886 
9.5631752 -0.0104055293 15.3103371 
8.50731182 -0.297051281 -10.7118816 
12.9751997 0.185979411 2.26800919 
10.7321138 -0.0504334047 10.3483334 
14.6371555 0.0470758341 14.5694437 
-22.7771511 0.783438861 6.8563633 
0.972490311 0.416659087 7.47071362 
15.3941393 -0.0244308375 -21.3150005 
9.81626987 0.174330473 -14.2990742 
-20.1778965 -0.438850909 -19.33605 
-7.26529741 -0.128896385 16.4788723 
-1.57363665 -0.0928434432 1.74534214 
-8.09792614 -0.37191546 -19.5756664 
17.8151798 -0.0815328732 -14.2447643 
3.76839256 0.216684297 -24.6859379 
-1.9673413 0.0538044013 0.507469654 
9.77813625 0.220426425 -23.4903584 
12.1163702 0.684202552 -5.81055021 
-9.2103529 -0.344628125 -7.86262131 
3.07021332 0.343312204 17.227314 
-3.62356138 -0.209342375 -12.0815029 
3.32317948 -0.219050094 -6.21469355 
-24.8141212 0.589213192 0.843464434 
-14.8329039 -0.464523405 4.56884766 
3.82288599 0.141817451 1.79601228 
2.31071663 0.290239155 -19.264431 
10.6403503 0.124842696 4.06309319 
18.3441353 -0.0771752521 -12.3158426 
-7.24576187 -0.258893013 23.8639107 
-7.62205029 0.0331598967 -6.52042675 
-20.2314091 -0.381743461 -18.4764118 
-8.12528896 -0.23745814 16.8982811 
9.75376606 0.296705067 -12.9408531 
-21.547472 0.290366322 0.0876821205 
19.4709568 -0.320158005 0.0996709764 
-1.7472949 0.571875334 20.0814209 
-9.49471283 -0.487977147 8.49437523 
8.55076027 -0.477625251 -9.36233997 
0.462787986 -0.0213399716 4.5574522 
-21.0673923 0.627824306 8.04603863 
23.1615601 0.219524845 -0.00867983699 
-12.5164499 0.901680171 -18.9599419 
6.68508387 0.146805182 22.8355179 
9.44776249 -0.0942461267 -7.84397316 
-15.2660408 -0.375755876 8.34374142 
11.4382935 0.271476895 -13.390543 
8.36600876 0.318695754 -16.4272423 
-11.5830984 -0.629669547 15.842906 
4.08044052 0.0653448626 -0.856646061 
-22.6237793 -0.437466085 -21.352211 
-3.52423882 0.325184822 -3.36598921 
-15.6615362 0.572783947 -12.8218651 
-7.52826738 -0.295234978 15.0441971 
10.1144562 0.258245528 -13.0425596 
-5.45036745 0.158299208 17.3468113 
4.98026562 0.256900519 -0.0856627896 
2.76193833 -0.0286243353 14.2772141 
-24.6287346 0.157938942 13.4502802 
-7.2141695 -0.271451265 -15.6240816 
-1.76116872 0.324679554 15.2988138 
8.26435661 -0.0340351537 15.7275543 
-13.1805258 0.449772686 -22.2167377 
13.2941837 0.0950751379 3.28334522 
14.9117765 -0.0485972427 -21.5254173 
4.68804502 0.0824145749 7.29369402 
20.9947395 -0.131890669 -16.6926422 
10.3471851 -0.0530218557 -18.4405499 
20.7130756 -0.794344723 -8.77972412 
-15.2857265 0.539177954 -17.5988007 
11.1518068 0.389124066 -9.17514133 
-12.2137089 -0.530692339 4.53774929 
-11.3850164 0.37528044 -21.3565102 
-7.43616676 -0.212150902 20.7943268 
10.71035 0.210279047 -13.0825596 
-23.4946098 0.545611441 2.65886831 
-19.9507046 -0.39449802 22.6375008 
15.4234543 0.0357068665 -16.3486691 
11.0129585 -0.227539927 22.1538105 
-5.87368441 -0.0371974893 -9.95451641 
17.5686283 -0.23490122 19.037384 
16.6848507 -0.259972095 17.661314 
22.1614838 -0.525734663 17.651598 
3.81388116 0.230892986 3.94607973 
-2.18050313 0.288255632 -5.79927158 
4.21938276 0.320838451 -21.8645248 
-7.77021313 -0.309442431 22.5290241 
13.5774508 0.297548473 -13.3655138 
19.4870186 -0.02237124 -1.70666409 
15.9715204 0.229891405 -4.44074869 
18.2397099 -0.176915079 4.31234312 
-13.2160597 0.0499545634 22.0085011 
5.35112762 -0.0432647578 7.81464386 
-14.1921415 -0.119599193 8.83210754 
-8.58940792 0.300939113 -10.2943382 
3.39321637 0.0594681315 -1.48102069 
-7.8735261 -0.127311498 -15.6819868 
-13.8482246 0.341295838 21.9072094 
-10.7310257 -0.0721219629 24.7970562 
-23.8227978 -0.356802911 -13.3171978 
-9.02576637 0.628756046 -12.9183092 
7.14886522 0.216608331 23.5831337 
13.7491827 -0.064001359 15.343421 
-19.3524551 0.411503851 -7.62594223 
-13.944541 -0.350676775 18.2317715 
-8.63806152 -0.422778994 23.0816517 
23.3328133 0.572222888 -22.6920719 
-13.6798782 -0.325687975 12.6540108 
-7.4052906 0.326777756 -9.37222385 
6.65259695 0.00138190272 13.0188169 
-3.49621058 -0.56874162 -16.5804882 
21.0693321 -0.448929667 9.65645027 
6.49385977 -0.574864805 -11.2193193 
11.6465149 0.361142755 -6.56525946 
15.4637842 0.134553939 -12.7328882 
-22.439867 0.0190252755 -10.9827375 
6.14853477 0.0753521174 -15.0062218 
3.77397513 -0.0603040084 -2.62529945 
-2.69883609 -0.3212623 -10.0487299 
-19.1502113 0.430659235 -7.34954548 
2.67652392 -0.0157718211 -1.87541974 
15.5548925 -0.256017834 2.43817043 
13.069725 0.610969007 -11.2991152 
5.35273647 0.0251974035 -2.50310802 
-23.9095879 -0.0118826022 -6.35135269 
2.20874166 0.272292495 -22.2486439 
-8.6551981 -0.23170507 -0.7106933 
-4.66130495 0.244516745 14.9759302 
-18.5743904 -0.225489259 -15.6943083 
-19.0377331 0.245295718 13.0573111 
-18.0693054 -0.299075156 3.30257654 
-1.60001528 0.497665793 16.5713673 
9.92321587 -0.0017452708 -2.59487629 
-1.4738245 -0.199620903 -22.2431202 
-19.4457073 0.368558884 -7.89426613 
-12.3887272 -0.660098314 18.4293537 
13.781106 -0.270252973 -23.6738224 
-14.9251175 -0.114418335 9.59880543 
-1.41925728 0.149958864 11.1329679 
8.00684071 -0.20351024 11.0227537 
-22.2660732 0.564694285 11.6088171 
-1.47296417 -0.286279291 -10.2426634 
-17.301857 -0.111050002 -20.4253235 
0.46976769 0.0115882941 4.9288044 
17.8586731 -0.0904045925 -19.8805141 
6.82417202 0.247132003 23.5395317 
-17.6716881 0.344310075 -12.5500622 
17.9931736 0.00966485776 -5.08920527 
-1.26656103 0.326303661 23.6528282 
-17.8168888 0.259832382 -7.76219511 
-6.29758787 -0.074620463 20.7653141 
21.4093513 -0.251850784 19.3242702 
-5.37822342 0.215755701 14.5607004 
-1.99523687 -0.174478769 -8.27085972 
-14.9477644 -0.169280931 -3.44589543 
-19.8384266 -0.129231155 -14.6867275 
-1.94919991 0.161470369 5.99381495 
-1.10869861 -0.439058363 -17.7583122 
-12.8705378 -0.308565319 -6.83666277 
0.669263542 0.163413048 14.6471806 
13.3116856 -0.0534435213 14.893858 
10.4178762 0.231759578 -15.0134134 
-5.72785711 -0.432743311 -24.6022263 
-5.66374302 0.0707877874 0.316469312 
-13.2875805 0.0861185566 21.7223549 
5.02678776 0.0110351685 6.64212799 
-9.67045593 -0.388430148 -2.72462821 
7.58542252 -0.374194831 -11.4157972 
10.2034655 0.149196327 -20.9943676 
-23.6259155 0.808410108 7.62591696 
17.9347324 -0.23064591 6.05536127 
-10.1084175 -0.376045048 -6.40914297 
-24.4720573 0.600563347 10.7357645 
-5.19063044 -0.219490364 -16.2195301 
17.2088566 0.0369124971 -1.1757431 
-21.7228565 -0.427279741 -14.7505407 
19.3223362 -0.00113944896 -17.1638451 
-9.21884251 0.0224400014 -17.2182159 
13.8177595 0.197512463 1.50447702 
-9.92695999 -0.320192575 -0.652714789 
-20.6326828 0.605638921 13.8957796 
16.6985416 -0.125472546 -14.2713833 
4.31959295 0.250239909 9.98221016 
5.52663851 -0.0105733806 -2.20913029 
17.2245541 -0.26597333 1.40782487 
9.29650211 -0.00979922898 15.1010017 
-3.42435002 -0.565228164 -16.4253578 
9.55014133 0.172887176 -15.59583 
6.94747734 0.417805642 -22.4700508 
-14.371295 0.276343912 -8.8426609 
-4.86611891 0.18346411 -5.65961742 
-3.65320134 -0.141546115 -7.58346844 
-4.80412626 0.152202025 -2.22392082 
3.52632284 -0.340115011 -11.6149845 
15.5874538 0.0263525825 1.39453161 
23.2764339 -0.787020087 -13.107007 
-8.53882408 -0.289575964 -20.9328861 
-17.5426388 -0.0487765484 20.78619 
-2.34405994 -0.59147203 -20.2621384 
-22.5995464 0.772585928 6.3242712 
-22.8305302 -0.161809772 22.8953056 
1.93563628 -0.24120146 -13.7579803 
-2.60385203 -0.548142433 -20.9305973 
-17.6093235 -0.0319891796 -5.32998037 
17.0842648 -0.00773321744 -17.3477039 
-4.20006466 -0.0315086842 1.73905444 
-10.9042425 0.116478816 -22.4451141 
-4.01424408 0.31641978 -3.2799592 
1.37282372 -0.024494404 -17.825386 
13.9064054 -0.237637401 8.79273891 
8.64553165 -0.119110808 -12.0279036 
5.61729145 -0.163346365 -4.48941708 
8.90771866 -0.179395959 -3.48809052 
9.23239803 -0.0251551364 -1.69426227 
12.7390795 0.718388915 -8.82700729 
7.15870094 0.0372233465 15.1853743 
-4.70687246 -0.107808962 0.927787721 
-6.91929007 -0.0721700639 23.0914783 
-10.1197109 -0.267312855 -20.908989 
-0.660696745 -0.11900939 -10.6172724 
-5.41304445 -0.271749467 8.94684505 
6.23755884 -0.0748658404 1.25617623 
-12.2011833 -0.285175741 1.89837372 
12.8717766 0.481568009 -12.9057341 
-13.519392 0.400984824 -12.128046 
-5.07236814 -0.0586490482 -10.0807247 
-16.1176033 0.155020654 -8.3103981 
-0.448580861 0.194744676 9.94495773 
13.5381918 -0.328110695 23.1058502 
11.6282625 -0.0796814039 -19.0079288 
2.51179719 -0.166110665 -6.07769203 
2.84521961 0.506236434 19.910183 
-21.7937527 0.651664793 7.61540365 
-0.181441754 -0.0908154547 5.72438145 
-14.7902575 -0.0131442314 19.2539063 
-23.519495 -0.266267598 -17.2233982 
19.2527714 -0.15688926 -19.5535908 
8.55739784 -0.0212662276 16.3163013 
23.6214733 -0.265693128 17.4868793 
-12.3394661 0.71418035 -21.4650364 
15.5701694 -0.0699088946 13.9951 
22.0017605 0.0944030732 -3.73115635 
-19.6730156 -0.285675704 21.6314449 
-5.55864143 0.0797080249 20.477869 
16.6675434 -0.378940403 4.75814724 
18.0353374 0.154807955 -2.1322329 
-10.8464451 0.0560600907 -20.9641838 
-5.56705046 -0.0404449701 21.6535301 
12.89573 -0.162501603 16.5402908 
10.3200445 0.206350639 -9.22448635 
5.58961916 0.0390261635 13.4464588 
-2.13213086 0.186914846 23.1959381 
14.4956999 -0.288309723 -23.3627605 
-13.8482571 0.498586625 24.7053947 
23.024189 -0.635999382 -9.6552763 
5.79540253 0.101733297 15.7341766 
-14.959672 -0.460365742 5.80786991 
-15.7990742 0.468254656 -17.1929798 
-18.5385418 0.0303384922 -4.24785995 
-19.1217384 -0.0639038458 20.4986515 
10.6722441 0.0409357883 -2.80539417 
-0.299954057 0.0577918664 16.6558647 
-1.43062055 0.309739649 -5.57721281 
0.797067046 0.350573123 6.42404509 
7.60965586 -0.170979306 -0.913851261 
-7.66833925 -0.356474549 -24.2823429 
-16.3254471 0.276811719 -24.8969955 
23.4008961 0.750842929 -21.7465038 
4.50172043 0.184408575 4.64754152 
-12.3025637 0.357248783 -12.1728392 
-0.871409535 0.633743644 21.8958931 
0.317663819 0.105259597 17.2700958 
9.28832626 0.190916836 -13.5468969 
-1.72149074 -0.0984316766 24.4834747 
10.7974176 0.21045053 -13.0001059 
-7.02781582 -0.0429542996 -6.2323494 
13.6958513 -0.151156634 4.51696539 
21.4920921 -0.0395306796 6.5745101 
-2.56981015 -0.283956081 -12.0958672 
6.03121376 0.408393145 -22.5670643 
-9.35230732 -0.230373845 3.37395048 
-9.2088747 -0.269195616 -2.29164028 
-1.63703299 0.592149496 21.418869 
10.3568373 -0.00183363585 5.14005184 
12.2054319 0.214396626 -1.53533864 
3.66550326 0.277243435 -16.3815269 
20.1127071 -0.201716483 -17.156868 
0.585023761 0.119259268 14.1848698 
-8.24970436 -0.420796603 -21.4676628 
-14.757659 -0.219359398 7.30859375 
21.4248219 -0.287494361 19.0168381 
-11.0871344 0.650377333 -15.0448313 
-17.8533516 -0.277399898 -3.55503917 
-7.04660177 0.243551284 -11.4916124 
-14.239645 0.453982621 25.0500793 
-7.11197901 -0.0134825669 6.6164813 
-14.5219326 -0.0905872062 7.98853922 
21.2546406 -0.78536576 15.2856035 
2.06036258 0.0347263254 2.00134325 
2.07656932 0.518343985 6.22978401 
-2.28116775 0.290837854 -3.6940155 
-18.7768421 -0.418200254 -16.6818485 
-23.1114902 0.464151561 1.84802425 
-18.2344036 -0.157542616 -3.86721802 
7.46164894 0.0704076812 -14.1971521 
3.42046571 0.222633258 -21.0650158 
-7.80302334 -0.395345539 -16.7146912 
14.3305731 0.615978062 -9.74867725 
-13.7581196 0.562272489 -18.1316719 
-4.88351393 -0.232373223 -14.0464954 
-5.67981434 -0.0474339128 21.3633556 
15.3861437 0.295821011 -7.58210897 
10.3009281 0.184600234 0.198015988 
-21.8225479 0.413560212 16.3919544 
-20.260252 -0.334846973 22.2512817 
13.9290838 0.26466161 -3.62808824 
-15.3539162 0.55824101 -12.3930845 
-15.6545668 -0.442541897 4.36606646 
11.1899748 0.372440338 -7.83638811 
13.4477282 -0.441234827 20.4184494 
-13.1553154 -0.0450970232 -1.32855725 
2.42799973 0.0734648481 -2.67938066 
20.1476536 -0.024138134 5.55320358 
8.77081966 0.185215086 1.88288772 
11.2488012 0.0352387019 12.4505835 
5.61381292 0.542568922 -23.0952816 
-9.41526031 -0.292806566 11.7799387 
6.37185192 -0.135302499 3.83866024 
1.41395533 0.0448576882 11.9264727 
-10.3070211 -0.502924204 10.9486122 
15.7698565 -0.0453356206 1.40444016 
6.87620163 -0.455851138 -12.2669592 
2.70212293 0.235941112 -19.4070511 
20.4074001 0.286122561 21.2658958 
8.33421612 0.33478564 -16.2182865 
-9.83585644 0.525857508 -12.6720676 
13.3630295 -0.353824198 -16.4068661 
18.2342758 -0.553525269 11.5365 
-18.9392471 0.0741777569 6.13550568 
0.23202835 -0.00876302458 16.2895317 
-21.3913803 0.651163578 6.17923975 
4.22298384 0.0337303579 22.4640064 
19.2756824 -0.638082445 9.64984322 
16.267189 -0.0877498016 -13.236557 
2.2662828 0.286576658 16.4588299 
-6.78585291 -0.0836219117 -6.49104261 
8.71297646 -0.317455977 -6.37230444 
-7.67149925 -0.33827123 1.791785 
-2.62118864 -0.223184198 23.4355106 
22.9235287 -0.409549206 -6.74458504 
20.5139027 -0.823620439 14.0761051 
11.068306 0.249492303 -4.07672167 
24.6199017 -0.110557333 -5.10948467 
4.99874258 0.245044515 24.1639709 
-0.350231051 -0.0501962006 -23.734251 
8.84704399 0.0842228383 23.3383217 
-2.10210681 -0.591588616 -17.1507282 
-23.4829426 -0.231781736 -19.0723667 
16.6118717 -0.336841166 6.59551334 
11.9617548 0.332781613 -2.96643162 
13.7912626 0.303312927 -4.86887884 
-8.76897144 -0.238980323 -5.14272261 
17.0209885 -0.0974376351 9.15529823 
11.5677605 0.295025498 16.455307 
-3.53371787 0.431050599 15.5371017 
3.780972 0.412591338 8.63365173 
-24.015974 0.0031801057 -6.02077579 
5.68468523 -0.523842573 -10.8286695 
16.277338 -0.145752236 -18.3709545 
2.53655195 0.221540362 -18.0712528 
-9.34145546 0.665606022 -12.9505653 
17.8214073 -0.136815012 -20.150919 
5.22565556 0.132190973 0.333845347 
5.31803083 0.104935579 -1.02044857 
-13.0207233 0.870098889 -18.1457462 
-15.2164974 0.431375563 22.2579956 
24.0105915 -0.294513881 -16.6813717 
0.866412997 0.430425882 6.69167423 
-22.3802185 0.198780805 -1.18288243 
-9.42890835 -0.235511065 2.09173179 
18.3231468 -0.596737802 12.5025053 
18.2271233 -0.0548735857 -23.6754932 
1.81655693 0.0203241967 -1.4554143 
-6.60001087 0.339132577 9.95214748 
-8.37682819 -0.438403666 15.7142944 
19.7283592 -0.0876095891 -1.90017855 
-15.1236725 -0.00690715248 17.2977371 
17.2161217 -0.118414588 -19.4909248 
15.8862753 0.0211448167 0.970704198 
-23.4796963 0.861595929 9.32054424 
-16.7488861 0.277069241 19.0386486 
-23.5081291 0.351998597 -0.121108338 
-9.61878872 -0.0528901964 -10.0631943 
2.85498929 -0.0282137245 -1.85904264 
5.29531336 0.184824407 14.9556818 
1.53494799 0.104866207 -19.3778801 
3.41182446 -0.168526292 -4.31571531 
-5.21438313 -0.695885956 -20.5198269 
3.41788197 0.464750856 7.06641197 
-16.8523369 -0.44826287 -3.15385914 
10.2292747 -0.236785457 6.438591 
0.854211926 0.0395692438 11.8054724 
7.01649666 0.249390662 23.8062134 
12.3697252 -0.157555073 5.63079357 
5.11597013 0.212501973 -15.2065067 
-12.2813444 -0.519042313 14.0229607 
-22.6785221 0.350461334 15.5515203 
13.1393328 0.280596823 -2.26845121 
-1.25198507 0.48398602 16.768343 
-7.09168911 0.267058045 8.05749607 
20.6022568 0.0771590993 -1.59748149 
4.79906654 0.10307245 6.1324048 
11.3079433 0.275404751 -6.92931938 
12.522398 -0.427051306 18.3448372 
25.1362782 0.545363843 10.1384134 
-22.5883331 0.598085046 3.70332265 
12.2300873 -0.328450084 -17.8183365 
18.3860855 -0.297297776 18.757431 
-7.86284399 0.0479653962 10.7971153 
14.2319298 0.482297838 -11.4825773 
12.9603872 -0.238867998 22.7264214 
-16.4438496 -0.488063604 7.66684437 
3.36293864 0.0958008468 23.1978264 
1.27258098 0.181038961 -19.5993671 
2.73582125 -0.0243810117 -14.1488695 
14.2300787 0.527490735 -11.3246517 
3.82468343 0.15602684 -24.0828247 
4.24390078 0.35303846 16.5889225 
19.5307903 -0.0599874035 -4.74681282 
-24.4583855 0.416104496 -1.26129115 
19.7222862 -0.529359937 12.6873598 
14.539012 0.376309514 -4.89667606 
9.26503563 0.0569685511 13.2538843 
-13.2802935 0.649218142 -17.491436 
20.9864483 -0.150954857 -5.53794575 
2.32300615 0.206570625 15.7416897 
23.0669022 0.167141378 9.96909714 
-10.9617519 -0.395989627 4.79083967 
5.16055918 0.339923441 24.1800499 
8.3723917 0.138630092 24.180954 
-15.7193899 0.326623827 -20.1596642 
-8.06064987 -0.439689159 -21.2713394 
-14.0928869 -0.38071999 2.29973483 
0.602923572 -0.285906464 -11.1955032 
3.23708987 0.191090167 -20.2779732 
18.7759151 -0.0739123151 21.929554 
-2.84822345 0.226472318 21.343153 
18.9325523 -0.267876983 18.5673313 
9.35307884 -0.0630743951 16.1444778 
24.3083248 0.0551679879 -18.6335354 
22.3507366 0.147930309 5.21455383 
15.5116854 0.227570564 -7.92480278 
18.9688816 -0.320863068 8.6704464 
14.2834682 -0.00243042642 12.3525982 
-22.8241329 0.306074113 17.3024445 
-19.6095924 0.592048287 13.3701773 
14.7940683 0.249442205 -2.82663679 
-23.8657207 0.189101711 13.7460928 
-18.4496117 0.0280190445 -14.3231602 
-20.3280182 -0.247362852 -2.81360173 
12.5503855 -0.0718324184 7.15214682 
-4.8402071 0.0336470269 -9.44137573 
19.2862434 -0.0543140359 -3.25867176 
-17.2008228 0.0419389643 -6.32437611 
9.52884674 0.285415173 -23.7947636 
15.7967224 -0.0537029617 -15.4116735 
-1.95304966 0.098416701 12.3648853 
8.76554394 0.221692219 2.95076013 
13.960844 -0.268074721 -23.2922421 
6.25740767 0.042145595 -13.8448009 
-11.1466923 0.369952083 -13.0354919 
-20.3298378 -0.273060799 -3.2148819 
14.7279501 -0.151077271 16.1625099 
-11.5429201 0.0432374328 -24.2428303 
8.97500324 0.117647812 -0.613540232 
-8.84812355 -0.188183412 -3.94864202 
-23.3502026 0.446179122 1.09670472 
3.46707726 0.0154301785 -2.02067757 
-20.9907036 -0.403356791 -16.3442383 
-24.4660816 0.552334845 -0.345663309 
11.4270191 0.24205929 17.341814 
23.6464806 0.433259815 3.23485613 
-11.8600855 0.295763254 -11.6962976 
-21.381443 -0.216789797 23.0979195 
5.02896881 0.102223866 3.93296385 
15.3382921 0.00792263169 -21.581625 
-2.66313004 -0.267190546 -8.51938343 
4.48528671 -0.320256382 -6.54480791 
10.7477589 -0.0703871101 -19.6012459 
17.126524 -0.120792277 25.1026592 
16.1654911 -0.173521176 -13.8429785 
-2.99688077 0.622502923 16.0248528 
16.0069771 0.0417087488 0.741313219 
17.3793259 -0.115518197 7.78889418 
11.5945187 -0.0574936755 -19.8983345 
10.7048788 0.106110737 0.937856674 
-7.18334436 0.344674885 9.53912067 
4.9381671 -0.0364944749 20.5497169 
-9.43542385 0.151422068 -16.8725853 
-2.72880173 0.715536892 18.3987465 
-9.30366611 -0.299389511 2.64724946 
18.4425259 -0.0956304744 -13.5472889 
17.8211765 -0.0112195984 -23.1409855 
-12.8663368 0.0898979232 23.1397762 
-11.4628601 -0.626206279 15.9378862 
-10.1237364 0.439840853 -15.1994047 
-20.611824 0.0819243714 -11.9937382 
-2.82900882 -0.67166096 -16.7776184 
-1.18419945 0.637840986 20.5610428 
25.0249939 0.0930686593 17.2492027 
-16.1394825 -0.339020878 4.95357418 
-17.015007 -0.142864987 -4.57948208 
11.5681219 0.0850874782 14.1848125 
-24.3679028 -0.0908461437 -5.67796183 
14.0265608 -0.113767654 6.89262152 
16.4155903 0.00471400516 12.8083105 
-20.9624386 -0.261517614 -22.840332 
1.55646574 0.0251812469 3.32258558 
-7.21872902 -0.141492426 14.4462795 
-3.26833534 0.276750505 -2.93380356 
21.7400837 0.156689256 -21.7765064 
5.59032536 0.0470651425 18.3187847 
6.40796041 0.433641553 -23.0429897 
-17.5618114 -0.525736511 2.0855937 
-23.0934162 0.333418965 14.7304125 
-21.2727051 0.586686969 8.2676878 
22.0901394 -0.532314956 11.6019592 
9.12204075 0.43197608 -23.428875 
15.961524 0.255359352 -5.49037743 
-3.72534847 -0.221648768 6.61518383 
-12.0851278 -0.520394027 4.19454384 
19.737833 -0.459647089 -22.4898052 
9.7837038 -0.0374048427 -18.7962513 
-18.9679585 0.123308308 11.9460888 
0.301241189 -0.00348937162 -8.33798981 
16.2560196 0.293813914 -7.88066864 
-2.13525701 -0.403260261 -13.8102226 
-22.2576027 0.205378667 -1.35825884 
-4.72196054 0.193283275 19.3286972 
15.838748 -0.256348938 8.53356075 
-17.4946289 -0.341885686 6.7939744 
21.4474239 -0.754034996 -9.65695763 
3.42468667 -0.39699468 -10.5179768 
-10.1062031 -0.535285771 6.82529497 
23.85812 0.471628934 3.66189361 
-17.2573795 -0.302426577 2.89279795 
22.0291634 0.468635678 -24.1860485 
-6.54164076 -0.0528884493 21.9529381 
-1.72235215 0.63757503 17.8249931 
-15.0859213 0.120809421 19.5294971 
2.13788962 -0.214090392 -7.38411379 
-15.8283672 -0.119974017 16.2309113 
18.6773701 -0.200748146 -20.6917992 
19.0801086 -0.321203649 18.3487816 
-18.943018 0.217595667 18.0274429 
10.0092878 0.158935055 19.6373768 
-19.055748 -0.0602154732 19.8963394 
-14.1529751 0.416898578 22.4937725 
1.41883492 -0.104600787 -17.3476772 
-16.3315544 0.397842616 19.577713 
-1.12330449 0.159060478 13.5435238 
-18.1573639 0.2345061 16.3707409 
22.7353706 0.453090847 -23.8625469 
17.3047104 -0.423633277 12.4900465 
-12.8406248 -0.150067374 2.21655369 
6.07321787 -0.0636271536 -1.0873127 
6.23894072 -0.0786832422 1.09374428 
-18.7862282 -0.349843025 -16.1343327 
-15.6654119 0.428576708 23.3208599 
20.4853649 0.0493224189 -0.221740976 
-8.11754227 0.379766613 -10.9802046 
-21.230175 0.650194526 14.4778595 
0.0839040279 -0.0592963509 4.42637491 
14.9939585 -0.209416896 6.066401 
7.19035625 -0.520219386 -6.65471315 
-9.34759235 -0.238660455 -23.2928581 
-13.9054651 0.44396323 -22.6888847 
-21.710743 0.49853906 14.3930721 
22.9518871 0.0302748457 -4.29390812 
-13.8998346 0.515241623 -12.3826866 
-9.71637917 -0.528417706 19.6912384 
23.2590103 -0.30780223 -16.8439541 
-7.61487293 -0.300818503 19.0179081 
13.5272827 0.114713669 2.1315546 
11.8835135 0.0115131289 -14.7076206 
13.502614 0.268431872 -13.5504265 
-15.3099155 0.408354074 -20.1551495 
-13.5871325 -0.0981850177 -2.53847861 
-20.8764915 0.250001967 -8.20998955 
-24.1394444 -0.0702222958 -9.28247643 
-12.2523232 0.699405909 -15.2860203 
10.7103815 0.296428442 -6.50123119 
-24.0463657 -0.0267120451 21.7995853 
2.30208015 0.336205065 18.426403 
13.8414593 -0.00350394286 -17.8843288 
15.3494873 0.216163352 -11.4275627 
20.8021088 -0.360199839 18.2062702 
15.3069439 0.0123867765 11.8980684 
-14.5508986 -0.164903685 10.2020016 
-22.6426315 -0.323900491 -13.1138248 
-23.971199 0.469628692 0.308244318 
-17.7134285 0.0202494971 15.9063883 
14.7896032 0.446488142 -9.7826643 
-8.45287132 -0.227650791 -0.311109781 
-2.68181396 0.61879319 19.7833309 
-9.62034321 -0.397734135 23.6341228 
0.39425081 -0.478242666 -14.5361233 
-1.18976641 -0.215414435 -21.2879486 
16.8466721 -0.033151783 10.1022444 
15.3623734 -0.337008774 6.10176134 
-10.6925306 0.712438643 -14.2786503 
10.3608799 0.36074689 -11.4268665 
19.8595142 -0.574974597 -11.8820162 
-8.51051331 -0.489891112 21.5182838 
-2.01404476 -0.32791245 -12.9767609 
-15.3403111 -0.26405704 1.20253456 
10.8932343 0.108247794 -13.5206633 
9.6444788 0.20739454 22.8768139 
-20.3524113 0.539758086 14.525938 
-5.60882807 -0.487512141 -24.1423969 
-3.71234846 -0.398989648 -13.5305185 
8.33387375 0.326514602 -16.5970287 
19.5779762 -0.421913534 1.30160952 
16.4684486 -0.00747721083 13.3517933 
-18.3943596 0.433540314 15.1538839 
-4.68511772 0.341862142 -4.72039557 
-13.0425234 -0.594522119 11.059948 
20.5231323 -0.279699862 -14.3040657 
-16.3014565 0.284166008 -17.2481823 
-21.048069 0.533794224 10.0388975 
-10.2096615 -0.425303072 4.99364185 
8.70218754 -0.0377377793 11.7824621 
-15.7183552 -0.506953776 8.00560379 
13.8457165 -0.0950516835 6.85292149 
-12.4155159 -0.117917322 -7.90988874 
-18.4356251 -0.321151167 -17.7490253 
-23.7324333 -0.115941837 -11.1399298 
24.6436348 0.518760085 7.46464729 
-15.650775 -0.442997247 8.51735878 
7.67206812 -0.00972467661 5.29669428 
-11.8655481 0.0573653094 0.270234317 
-17.7495785 -0.354921281 -23.6796684 
-3.83597851 -0.19027622 4.25436449 
-1.21459043 -0.0475041457 -8.52594376 
-22.6721172 0.638935685 8.51215267 
18.7365398 -0.087970525 -5.24895287 
-1.54327452 0.0272936542 8.89896297 
-23.2637615 0.884068191 6.99575567 
-8.39651871 -0.1870673 -3.13638043 
8.83131218 -0.120087095 -11.8105373 
-19.7891083 0.418215692 7.56713009 
9.41011906 0.039408002 20.2937431 
-1.65611064 -0.22595568 -22.4344196 
-1.1135453 0.55689317 22.1611862 
2.0265038 0.190510899 -19.1611729 
-0.45693475 0.0464444868 -3.15899467 
-15.4731331 0.527524412 -16.4746265 
9.41906548 -0.1150942 -9.13928127 
-14.8167257 -0.223575771 -2.89368606 
5.17406702 -0.147994682 -12.8897591 
1.10349607 -0.213919967 -6.97147989 
12.9821262 0.610887587 -11.6736193 
18.4487896 -0.246924758 -7.09074831 
-24.2670937 0.607762694 1.59008849 
-5.54521751 -0.0388985239 22.6510677 
3.30537987 0.125209183 1.16383433 
-11.9752464 0.56614989 -14.8272066 
3.47946668 -0.412914783 -9.51658726 
16.7745838 -0.280348986 1.88628983 
0.431365818 -0.387246937 -12.3972855 
4.20643759 0.0447104722 2.57059479 
24.8300972 0.616140723 0.272977829 
1.15015149 0.262145281 18.1854038 
21.78088 0.147572935 -21.5838547 
1.49174213 0.460822344 19.5853233 
-6.47521782 -0.144197404 20.1862469 
16.528204 -0.394634485 5.28182077 
17.3373318 -0.199186504 11.0162239 
-19.4614315 0.531391442 13.7472305 
23.5658627 0.371322781 9.18553352 
16.3641109 0.165683031 -3.5677352 
-0.149411201 -0.0337278917 4.58195353 
-1.35388517 0.0593889393 -2.41800404 
1.06521249 0.107925691 12.7447596 
15.9995785 0.234697774 -8.80113506 
1.68297958 0.462540835 19.8061504 
-23.464922 -0.2580854 -11.8815546 
-12.7066288 -0.146303684 0.131437898 
-20.382803 0.508164942 14.658062 
-15.8584843 0.330560088 24.4745121 
-11.3723221 -0.776995599 16.9671459 
-4.76747274 -0.680316329 -21.2832355 
-4.02144051 -0.111687429 -7.89697075 
-14.3970814 -0.346714228 3.59359956 
17.6006947 -0.171001792 -20.0292778 
16.8059826 -0.376134753 6.54771423 
-2.78117418 -0.194002956 -8.05517578 
6.30723906 -0.525593281 -6.39976311 
-9.35708809 -0.0696816668 -18.7284431 
-18.2018375 0.179969266 -6.68537378 
3.56009388 0.0900547877 15.6986809 
-1.13461423 0.166833892 11.1929665 
7.56205368 0.338004738 -19.2382507 
16.9862919 -0.0668362975 -18.6006165 
-16.1067982 0.411958545 21.1150055 
-2.89604712 0.719529986 18.9839745 
18.9530945 -0.270100057 -10.8301067 
-11.9331913 -0.449470967 -3.29281449 
8.02329063 -0.093742311 0.574289203 
2.40981555 0.492201507 7.47342157 
-23.5114937 0.607268453 2.91983342 
11.8873796 -0.0949440375 17.3259525 
0.55885613 -0.0664204285 -21.1724148 
-14.9395895 0.485685766 -20.3807487 
15.0719137 0.487239689 -6.32241154 
17.9172668 0.136954606 -16.7817879 
1.71726036 0.311796993 23.8340054 
-1.3566401 -0.165900752 -22.2155628 
-2.76299 0.605227172 15.6864576 
-18.3263721 -0.121334799 -3.26586795 
-15.20434 -0.58907038 -1.85732591 
14.9557123 -0.02709057 -21.0587158 
20.9148312 -0.11802312 -22.132513 
20.362236 -0.106597707 2.20549607 
-22.8574791 -0.248696387 22.3961029 
-8.83468914 -0.252273083 1.59931827 
18.4576263 -0.459616244 2.21431565 
-15.0268879 -0.0963143557 15.0892639 
24.1258335 0.377682567 -0.125004083 
-1.84051991 0.267268658 14.6662273 
12.4088573 0.305091113 -1.80743015 
-21.0219746 0.621727288 11.0211277 
-17.8514118 -0.0884709954 -16.5389652 
-23.5610313 0.207392484 16.2846947 
9.33572769 -0.0569262467 -7.41835642 
12.7331381 -0.191978872 8.67649078 
20.0535927 -0.25884068 -17.681694 
-9.92871666 -0.0274397787 24.973135 
9.276474 0.0306702666 17.1008129 
-21.440073 0.0864957795 -3.63360047 
0.787864089 -0.31188044 -10.9743071 
-12.1060886 -0.730205476 16.5602207 
