ply
format ascii 1.0
comment created by gply, a Houdini tool.
comment converted from .[b]geo
comment for more information about Houdini, try:
comment www.sidefx.com
element vertex 1272
property float x
property float y
property float z
element face 0
property list uchar int vertex_indices
end_header
8.31030178 0.396303654 -7.15103292 
-11.3353691 0.552317202 19.3293171 
-23.8202686 0.23756431 -18.0193405 
-24.141819 0.289881617 -9.77925587 
16.2836227 0.129649788 10.2614136 
23.5427036 0.576628506 -13.3928337 
-15.3531017 0.114200704 14.553874 
13.9963179 -0.323390841 -21.5145245 
-10.8852949 -0.132443994 0.565700293 
19.5206108 -0.415481031 20.688982 
-18.7163658 -0.203325257 15.788415 
-24.5111122 -0.653870642 10.1839361 
-17.2933331 -0.0322473831 -6.40350628 
16.8307571 -0.0981957763 -0.669147015 
6.66363382 0.391669124 -11.6183214 
-7.09825659 -0.605132282 -4.76182795 
16.7166348 -0.255636156 -6.51970243 
-6.45909214 -0.725368798 -4.93030739 
-21.9905701 -0.562588811 6.46557713 
19.191824 0.0404827744 -2.32595325 
19.1221828 0.0516627096 -2.47019744 
-16.0814419 -0.387475371 -16.3764935 
1.67513299 0.0885026231 1.1673435 
13.8978615 0.0270553175 1.65674067 
8.36659813 0.0724612698 14.4404469 
-12.8771429 0.120327882 20.3179855 
11.8364744 -0.338115722 -2.2229054 
-21.2250233 0.0155712394 19.6994991 
-4.68677044 -0.40797469 -1.52872217 
-11.3720121 -0.113188334 -0.267093152 
-11.9115953 -0.118504062 1.42417216 
-4.16136217 -0.63996172 17.8592491 
4.0254097 -0.341628194 -17.6275578 
-14.9225073 -0.47560063 -13.0604286 
19.3796234 0.0795434639 -5.3333559 
-8.44250965 -0.534556746 -13.4197187 
7.54999828 0.524034262 9.31075573 
-7.87765646 0.194262028 -18.882391 
-14.3631716 0.469251961 8.08795643 
19.4359112 -0.140187338 19.185854 
21.5396614 -0.289308667 6.16444302 
2.99508095 0.120355912 15.9390802 
-4.97571945 -0.0513820611 -10.1889429 
13.7943106 -0.207608208 12.0135489 
-9.31180286 0.0670853257 -4.34334135 
-10.9517288 -0.58710742 -16.3185081 
-11.0884161 0.218091562 5.77325249 
-2.78744864 0.0100964382 5.14132023 
-23.3339233 0.0548728593 -8.71724987 
7.41302109 0.306233853 17.1973896 
19.9829807 0.0268659964 17.2183151 
24.702549 -0.447534651 10.5748806 
-21.7447319 0.272270083 -3.09940743 
-9.85388565 -0.00029203482 10.5544357 
2.73210144 -0.078795284 -22.9277782 
7.85443735 0.454387397 -7.08626699 
10.6608324 -0.14486061 -20.3408375 
-0.820068538 -0.0757945776 11.8371382 
-1.36815691 -0.168570384 6.96075773 
12.5966434 0.184253037 -25.1299057 
-18.7237225 -0.184216887 9.99876881 
4.30895853 -0.0287869945 -13.9748516 
-16.255621 0.58151406 1.81438828 
-13.8154573 -0.0753833652 -1.20740664 
5.3436532 0.0666676462 -0.663806438 
9.67625237 -0.244949535 -9.35000896 
-19.1275139 0.248650178 2.32156181 
-19.7130623 0.234855458 -15.9974413 
-12.5403433 -0.0423108563 0.5837363 
-11.9849367 -0.585882008 -18.9283314 
-2.31088185 -0.470083266 -2.21191525 
24.5838528 -0.130363882 -0.581383646 
7.06085825 0.118839398 17.3780613 
-4.17700768 -0.541760743 -1.75443149 
-1.62433887 -0.265255153 12.5917521 
14.5722513 -0.140583992 -24.2119846 
13.6234541 -0.117851838 16.8529282 
-8.46579075 0.0526394881 -22.0269623 
-1.67731798 -0.219126567 13.0928278 
24.8987732 -0.0441790745 -17.4233112 
-15.9648018 0.339447975 -0.91710341 
22.9590111 -0.303974926 9.22309589 
23.4062767 0.20538649 14.930748 
9.33910847 0.310414881 10.1151266 
23.6433582 -0.0740895197 -16.4505138 
-7.0743885 -0.485382855 -7.47255182 
8.94895554 0.145526409 3.57756829 
-19.3788853 0.353385031 22.8173828 
0.993356168 -0.472577184 6.47623014 
-17.7825317 0.332469434 3.23722172 
0.621873915 0.489642143 -15.0865431 
-2.96993208 0.353260696 -16.8902225 
-17.1444092 -0.148580372 17.4659672 
9.50234222 -0.167815298 -6.04200268 
10.2550926 0.367055953 8.95807171 
18.8188267 0.0215958785 0.3118155 
14.8175182 -0.394076616 -21.5121784 
15.1314678 0.251406342 3.20007372 
-11.3042459 -0.670072496 -14.731267 
-23.9003105 -0.616427064 8.93039799 
17.1922493 -0.230670005 -3.17860723 
-10.236145 -0.492241859 -9.86123753 
-1.7613616 0.0798349008 -24.3791695 
22.5099354 0.00668141153 -3.47983527 
-18.4413757 0.00127737643 -7.59917974 
-11.3486404 0.265338123 -6.13004398 
-12.3119001 -0.0817439258 1.19694698 
-17.9316807 -0.41177091 12.9061995 
-9.29813576 -0.674776614 -10.6519928 
-17.6710129 0.387317657 -18.8396912 
-11.9984045 -0.83086282 -15.0034266 
0.300800741 0.449085087 -17.2111454 
15.4715185 -0.161951169 10.7458477 
23.723278 0.147900447 -4.74730635 
-9.66644001 0.19203639 -4.36358929 
22.2572861 0.376227081 -6.70314884 
5.57175922 0.0770100728 19.9052048 
7.9719615 0.428573996 -2.25779057 
23.6476345 0.550118029 -11.3619537 
18.0281715 0.136993513 15.588376 
-17.3818455 0.429666728 4.12540007 
-21.4438515 -0.131026953 -9.53527069 
-4.71777391 -0.100541547 -12.1270418 
-5.92482996 -0.65526861 -2.53404522 
3.3750999 0.518137038 -9.23244381 
19.2525158 0.42552501 14.0508509 
5.04052544 0.0757535398 -1.09665 
20.6260395 -0.354909718 -19.3563194 
-2.39501429 -0.249643117 2.6679244 
19.9881096 0.168778256 8.09409809 
12.6574011 -0.0784476399 12.4185038 
6.58542633 0.432784319 -7.00690889 
-5.19849253 -0.532898784 -2.259938 
-13.6907892 0.374805391 13.3309984 
3.54961038 0.293266296 -5.97064352 
14.9582357 -0.423827946 -19.6513271 
-19.0851822 0.0827722624 -7.83762169 
-8.89568329 0.357205242 17.5994282 
-6.00883865 -0.186800465 1.53366268 
13.5736866 -0.00770310033 -18.0130787 
-19.2992096 -0.326228887 14.398737 
22.0614891 0.189851776 13.1385918 
-13.5491972 0.0186118782 -3.56772041 
13.4003105 -0.164750502 -23.4912682 
5.15901279 0.508382797 -11.2399883 
-0.130064607 -0.0850836039 -7.55554628 
-19.9626732 -0.216821507 10.1679497 
-10.786972 -0.605304778 -15.7147245 
-14.3750181 -0.591301262 -14.7653351 
-6.78437376 -0.317141294 6.47157812 
21.1801853 0.13524583 1.98213875 
17.6468086 0.249952123 7.2904253 
-14.4051113 -0.714291573 -21.0725231 
-11.4534159 0.37218985 14.5017347 
-6.63636017 -0.00132795889 -16.9318733 
2.41675711 -0.486267447 8.57011986 
-2.19046617 -0.366146505 14.4071541 
-1.78387213 -0.342408031 -1.04287875 
12.1974201 0.213196993 7.37745237 
6.26744986 0.721915722 -10.0523624 
18.1888332 0.242519587 5.9381032 
-2.95327568 -0.562321961 -3.30934501 
-2.43726325 0.0307604484 4.81203651 
-1.15452588 0.00421022903 -9.72825241 
11.0664473 -0.55329293 -13.2982864 
-18.91506 0.0649759322 21.207655 
18.3708744 -0.117600664 -23.4365349 
-4.51791811 0.94515425 -20.3038311 
2.73037696 0.201678738 -6.12533331 
0.517241538 -0.213853031 -2.75764728 
14.9393759 0.161898538 2.71883202 
-0.53204453 -0.126949564 11.1667156 
-17.7600574 -0.225838095 -12.9325895 
15.5053549 0.167557091 1.79068601 
-9.43667603 0.1103466 -5.97183561 
17.0273952 -0.140185773 -2.94859886 
4.14963293 -0.197578937 -21.9492531 
-11.1175385 0.192710638 13.4235744 
12.3287716 -0.0608832724 -23.261673 
-13.4220686 0.466426551 13.8525753 
10.3441372 0.1101432 17.3483868 
-22.521862 -0.136142954 -8.53506279 
-15.583045 -0.437901229 20.9382381 
-8.25637054 -0.247434616 8.00596333 
-11.3740988 0.334553689 21.5726585 
2.03630614 0.0121616963 -24.6536388 
-11.5720463 0.312164068 21.7669773 
-0.511584938 0.326699644 -11.9922094 
3.31773162 -0.122509383 0.224138722 
-24.399889 0.381913453 -5.70763683 
3.74480438 -0.145773828 -23.008852 
19.3752537 -0.189161539 -18.2965717 
-17.4932365 0.279415101 -17.9853001 
-16.5670319 -0.113559991 17.4697342 
12.3139896 0.134094253 -18.2908783 
-11.9440908 0.500359714 18.9860935 
13.4018421 -0.150229022 -14.9262066 
11.0679522 -0.631756902 -12.131279 
-10.852828 0.0901648477 -7.3096652 
-7.16448879 -0.398718596 -1.22528529 
-5.15589762 -0.710965633 -3.46837926 
-17.9991493 0.871424615 -0.728072703 
-7.18674278 -0.388747007 8.44425488 
8.60884762 0.468009919 5.67611742 
-1.81359303 -0.456831932 -3.05921149 
-5.87300873 -0.108885713 -14.9838448 
-0.383065164 0.433029175 -16.935112 
-23.36409 -0.535553873 13.9055843 
19.2875366 -0.190049082 19.2185917 
-19.2067719 0.372149229 1.71599746 
-17.2465839 0.597156048 5.48331451 
22.386507 -0.0912774652 8.14166832 
6.82583284 0.37089172 -6.64178753 
8.08100128 0.0429836437 -15.6258316 
18.8626251 0.0367424376 -2.70363641 
-3.5527277 -0.488228291 -3.46081114 
-20.1446381 0.319894433 -15.2522449 
-22.7905273 0.0480674505 -2.16458058 
13.6259451 -0.109036274 16.0832844 
24.0503139 -0.277282745 12.4775333 
-16.4757843 0.169698909 9.29064751 
-11.3875322 0.113623694 10.1105318 
-17.2100925 -0.09733814 20.2986889 
-12.8589745 -0.390187979 -25.0722561 
-5.42244768 -0.581137896 18.8884983 
19.8291664 0.131234035 -6.4780612 
-9.33342075 -0.476155698 -13.0957909 
5.09567595 0.615718663 -7.70425701 
21.8865681 0.0295649935 17.4940281 
-8.43645954 -0.0712489784 4.22551012 
21.0530071 0.48290664 -13.134387 
1.82831705 0.334693074 -10.142499 
2.90324163 0.145299807 14.720602 
16.9926987 0.140111074 9.11956406 
-0.37425071 -0.0414705947 -24.2599735 
7.17624664 0.303849667 14.6995811 
-15.4465923 -0.648506463 -18.2742996 
10.2131453 0.0781173557 17.3176403 
20.9202709 0.542372227 -12.9131231 
8.76674652 0.0508113578 18.6605148 
-20.8298206 -0.00660586124 12.5121212 
14.3754597 0.122682251 -17.0804672 
-6.28125858 -0.504211783 14.6679573 
15.1331606 -0.308268964 -1.89385426 
19.1751022 0.395708501 -9.97390652 
4.73431444 0.575299263 -11.1287928 
6.44198322 0.532654107 -6.60216188 
-20.8165627 0.00251417421 1.3738718 
-19.6200142 0.249301344 -16.1947231 
18.4107018 -0.122574314 -3.35601425 
-24.8485584 0.23030743 -5.86073112 
-11.2846508 -0.69474256 -17.5002842 
-1.75881815 -0.467848867 -2.308079 
7.62383175 -0.0141029637 -16.9094124 
-6.89980936 -0.19384867 20.4764595 
-10.6558542 0.672423244 20.2436142 
-22.9112492 0.478328586 -13.0827131 
9.8173542 -0.0488876477 -0.160744503 
22.8640461 -0.560745001 -22.7178726 
-9.56599617 0.0775699615 15.4792128 
9.77183151 0.299284101 9.59522057 
-0.369329095 0.289268553 -11.6042137 
-2.10295177 -0.341814786 14.9011002 
5.22630548 0.348944336 8.71444035 
-16.6557693 -0.445823193 -9.65203667 
-7.35395241 -0.257997185 4.10161543 
-11.9299173 -0.0385864303 -2.62493324 
-21.6351509 0.236502096 -13.1356525 
22.0500584 -0.171830252 -0.0591131262 
-6.97542095 -0.374225587 0.068931222 
23.9924526 -0.23422341 13.7342091 
-22.1973705 -0.164598063 19.0083637 
12.416769 -0.0241899956 11.972064 
5.53327703 0.421652555 11.4847174 
20.3944683 -0.0270793363 3.89579225 
-20.1480827 0.181500807 -2.34782553 
-19.3688049 -0.0567537732 18.9078751 
0.282233506 -0.238828897 9.39308548 
-19.5618782 0.471896797 0.0956885517 
7.51094246 -0.0787278712 -19.1905632 
-23.1565609 -0.562040269 13.1890621 
-14.756402 -0.51639545 -13.8229971 
9.99040604 -0.134148359 -3.97587824 
-21.3378773 0.367510974 24.5805588 
-12.7340755 -0.00430027256 2.43812919 
-23.6255035 -0.339969963 4.00584316 
-22.6572571 -0.277641982 1.56506312 
-22.0332165 0.134123594 -0.297045529 
20.4233112 0.738958359 12.3472462 
16.4591274 -0.211161107 -3.16364908 
5.71928596 0.320183545 14.3803749 
24.3304386 -0.49186784 4.02945232 
4.31432867 0.650599658 -10.1478024 
11.2566977 -0.18901816 -0.524501979 
-23.9705658 -0.467644662 12.5126162 
-13.9904728 -0.400393724 -11.4200706 
-24.1903591 -0.424762309 6.80248451 
-15.3555069 -0.635185719 -17.5961761 
8.44955158 0.303215086 11.2111664 
-5.84164047 0.468377113 -19.8239231 
-22.9517517 -0.0968698263 18.9453545 
22.1352882 -0.251819134 3.54875398 
1.93119037 0.092076987 -3.17839622 
14.2741947 -0.295083672 -12.7552395 
9.62730503 -0.0541444533 -21.4470329 
-4.36757851 -0.655605376 18.0476723 
1.21432829 0.249824971 13.0722122 
-18.0082912 0.975767672 -1.26357055 
-6.03380919 -0.423795044 -12.3677874 
16.6828766 -0.544077933 -9.61712265 
19.1192131 0.185533464 -4.05171251 
-23.9567471 0.303139716 -7.45913506 
-18.8461819 0.105834931 4.26421452 
1.31470132 0.480532706 -10.7963886 
-22.8859978 0.215688035 22.1177368 
-24.2828712 0.388505578 -6.03846216 
-20.581604 -0.045394823 -6.14811039 
-17.9739246 0.839070141 -2.31237435 
14.1151695 0.217574313 19.2836971 
-7.56098938 -0.259716302 13.526926 
-15.9305029 0.346800596 -2.39196992 
1.13595366 0.529687583 -11.2237692 
1.08668411 0.490530849 -14.1240635 
4.108181 0.0322995372 17.2730255 
-15.4700232 -0.236085922 -8.08979321 
-17.6895714 -0.211583927 -12.4353065 
-4.78676748 -0.263056815 5.66882753 
16.9825058 0.283147484 2.74324965 
-11.7285385 0.296034187 -6.1836648 
15.9540682 0.181091979 3.41834044 
-12.8476944 -0.0291010924 -3.02934051 
12.1287756 -0.0937397182 17.6477833 
8.65276241 0.129519671 16.8739147 
10.9146423 -0.0194920655 16.02001 
5.16922331 0.573342025 -6.94741583 
-3.01643801 -0.00747250486 23.5668736 
-17.3047714 -0.548262358 -11.1273432 
23.2970695 0.730894446 -9.10247707 
-8.80224705 -0.226656467 -7.27872276 
-21.0218334 0.076686658 -4.14044952 
-11.1188745 0.333709955 4.55884314 
1.17859542 -0.233428508 5.35471344 
9.0480938 0.163443059 2.4880507 
5.47625303 0.251619548 12.5613489 
-10.6831961 -0.61806494 -10.6327372 
21.6709766 0.466021985 13.8988867 
3.07202244 0.11170914 15.8097248 
4.29613209 0.136824146 18.4768047 
-15.6915607 -0.310765654 -11.270752 
-17.4532833 0.570426762 0.344333529 
-4.8630147 -0.105241992 -12.0982866 
4.62503624 0.0112738525 1.76030254 
0.607841492 0.483797878 -15.2272167 
-3.53787827 -0.0755618885 -9.47155666 
-17.3416443 -0.477675349 -9.78664303 
20.4288044 -0.248493925 -17.9186001 
-1.03385723 -0.133050233 0.372885764 
5.81987286 -0.0438080542 3.01518893 
-20.7674007 0.732330799 -19.419817 
12.9137297 -0.132464454 2.45409155 
9.030653 0.0999501646 -6.75836182 
-16.7166176 -0.103651859 17.8503571 
-5.11089277 0.687219977 -18.110878 
10.3059034 0.459212184 7.91249084 
9.49945927 0.0344106331 -23.0161915 
-8.10810661 -0.284150839 3.20272541 
-22.61693 0.462483943 -4.07538605 
18.337822 -0.215692401 -20.7153225 
20.796587 -0.0506348573 8.28597927 
-18.5644455 -0.138176605 -14.11901 
-17.7339096 -0.111684002 -14.4214754 
20.4912834 0.337057382 -13.6766281 
-5.51219893 -0.277012855 -10.115098 
11.1795444 -0.370119423 0.793044269 
18.6939449 0.24698244 10.6757851 
-2.14829826 -0.280574679 15.8374805 
-9.40861034 -0.462483257 -14.0162525 
15.9181051 -0.233113751 -5.45393229 
-4.65043354 0.605037808 -23.8549557 
-23.2250404 -0.133060977 18.8496494 
2.34464884 0.0626413599 18.8654327 
19.1904049 0.0763739422 6.52663565 
16.7562313 -0.107410498 13.1794844 
-4.65943909 -0.51987642 14.8077745 
18.8081932 0.0336449519 -3.55155516 
5.00920725 -0.0819577649 3.60012937 
21.2825432 -0.0200947039 -2.38742042 
2.4729991 0.0143778222 -17.0546055 
-16.0112324 0.30260697 -2.15439796 
15.4888725 -0.276826024 -13.6276541 
-23.8547173 -0.452407897 12.9468699 
4.33712482 0.235768303 19.488163 
10.8343697 -0.0999344066 13.288393 
2.53062487 0.00753810955 16.8019619 
15.3992481 0.239877313 5.85189295 
9.18384457 0.238244295 0.424426883 
-16.2112751 0.60127914 1.03000462 
-17.7883053 0.657019317 0.913427889 
-22.3721199 0.0963832512 -6.38799858 
12.3077383 -0.384337157 -4.17490005 
14.3116436 -0.206594974 -13.4764605 
-17.085371 0.314602643 -4.4202528 
-22.6062107 0.22642009 -12.1821089 
-23.2190685 -0.334872931 1.87236905 
-15.4718018 -0.340207189 -10.939064 
-5.65490913 0.513161361 -20.4373283 
-18.055294 0.407040954 -3.98024297 
-1.27192044 -0.243032604 5.63630342 
15.785924 -0.298083484 -4.6498909 
15.6114912 0.232662812 5.73243237 
21.5639992 -0.548679411 -23.5370922 
-13.7167759 0.0144928899 -2.11001968 
14.4593439 -0.843944192 -7.99007273 
-10.04988 -0.670700371 -11.9710703 
-15.1733932 0.202014908 4.48295164 
5.22179794 0.115687899 16.1184902 
12.7167635 0.210443407 24.0187397 
-16.1076183 0.062953338 11.5906124 
-23.6071358 -0.0630698353 -1.75916719 
2.57106638 -0.173494935 -19.3890171 
3.46199775 -0.0492066517 17.9646587 
15.0258179 -0.338065535 -5.41448307 
8.54768753 0.140977621 -10.3313284 
-13.3069525 0.17084752 10.0900679 
16.3948441 0.14815025 0.865845323 
24.4059925 -0.146189153 23.8325901 
21.4128895 0.308666795 16.6085815 
-23.0985775 -0.519271374 9.52199459 
-19.0105095 -0.253549516 15.4439421 
-23.3113365 -0.479569286 11.4919176 
-17.6703339 0.613239944 -0.214442194 
-4.21659231 0.0998998284 -13.4819508 
-8.59850216 -0.145254195 14.7807875 
1.88550603 0.187039375 -15.94524 
7.90584612 0.0171734672 -14.8863401 
-3.90972042 0.320176542 25.0320415 
-12.3211279 0.213596076 20.4354496 
-10.869194 0.14735128 8.0404253 
21.9091721 -0.061974518 -0.345752597 
-21.9445648 -0.13187106 -7.69894361 
-0.703766465 -0.21087724 -2.92872214 
-10.9017172 -0.580262721 -16.5929565 
23.3862877 0.476567477 -11.0004997 
-14.4470396 0.397197694 15.9679079 
9.78612518 0.0544943027 5.27085495 
-0.168749154 -0.389946014 7.2093029 
-24.1131134 -0.486477643 12.286993 
-15.0444441 0.2168639 9.46308517 
20.6049633 -0.0119778924 -16.0819035 
-12.8675814 0.143208519 10.2517395 
16.6268101 -0.616871834 -17.802433 
3.74745011 -0.0895955488 9.12522984 
21.2424622 0.179610386 0.392467618 
2.44284773 -0.157997668 5.14322472 
-11.9254274 0.313184828 20.9300785 
12.6336956 0.0520735532 -19.3481884 
-5.43860579 0.452589095 24.1593189 
16.9221725 0.10081619 18.0750484 
-6.92188215 -0.308026165 15.9666805 
17.5501404 -0.0105905775 0.776984572 
9.43990803 -0.00535393879 -21.8248901 
1.74071848 -0.0031718784 -6.40353727 
-15.1700029 -0.0227506608 -7.25296497 
-15.5018826 -0.490602911 -15.0574074 
-6.26363134 -0.522499621 10.2686062 
-16.8224716 -0.0592395701 -18.8158836 
-5.31589794 -0.542856038 16.7577133 
10.6885891 0.0514047928 -22.9659462 
23.6350384 -0.446715176 5.05274248 
11.7330456 -0.0704343542 17.3169956 
1.39529967 -0.0305840895 -0.639754832 
17.5855198 -0.24179323 -9.32622528 
16.7162037 -0.298463166 -3.70096636 
14.7416553 0.188907534 5.30169773 
15.6036444 0.362185448 18.8864613 
14.1779423 0.0997012705 -16.217144 
-8.94237614 -0.0928670987 -2.6688261 
12.6150055 -0.121527836 -20.9428291 
15.9089155 -0.16755268 12.0536137 
-16.947546 0.0481647365 -18.7021618 
-4.01891851 -0.291869849 10.0364552 
7.38985395 0.383493811 -7.97168493 
0.325643808 -0.214853212 10.0341835 
8.24965286 0.448906362 9.41372967 
15.5113802 -0.385249674 -12.3005953 
-17.0382385 0.664555788 1.50568843 
17.1187897 -0.485893965 -13.8044863 
-8.4046011 -0.387223959 -17.0649185 
5.83617115 0.264058083 -1.96016192 
16.9542046 0.206064776 1.36840105 
-6.7610302 -0.253745884 -15.2556601 
-15.7826099 0.470312208 1.8634876 
5.41345739 0.513827443 -5.35653925 
18.6340733 -0.0555523597 -6.95191479 
24.7273178 -0.168666303 -17.6141052 
20.2656231 -0.19665122 -19.6949005 
5.22237587 0.0349304192 -0.5672732 
-17.1941891 -0.145531446 22.7851143 
18.3210163 0.164065853 12.3322487 
-7.35750389 -0.246800363 7.67026377 
22.0775146 0.675155282 -8.99129009 
12.6234808 0.00618787343 5.09520626 
3.67601037 -0.0984191298 -15.5805025 
23.642065 -0.492495149 9.35737419 
-1.26522803 -0.296925485 -3.64349604 
-22.2577057 -0.520897686 8.45419312 
-18.0383682 0.761781931 0.144870758 
23.7225056 0.0491673313 14.9338989 
6.29831934 0.456016868 11.1928787 
-23.1863842 0.00341630401 -8.49819469 
-5.85197735 -0.116567984 21.2571354 
3.95738459 0.151198149 13.5221539 
-24.6911125 0.0814364627 -1.8970871 
-14.6174116 0.359316796 13.7876225 
17.9186039 -0.102455288 -24.3066864 
-23.9062939 -0.637082696 9.49074364 
10.7499809 -0.143190503 -16.1938839 
2.49629211 0.0400376208 16.6288528 
22.2897396 0.270964891 16.445219 
-5.02568913 -0.547637045 -2.18229055 
12.5120974 0.14375709 22.5557175 
-17.150589 0.168168038 -18.8842735 
2.15625954 0.245510906 14.253294 
-6.21516085 -0.709968865 -3.54860306 
15.7152967 -0.64710772 -7.76101685 
-7.83592224 0.232336015 22.9332829 
-15.9072933 -0.236806154 19.8927269 
-8.51877499 -0.0563326851 4.01379728 
14.2075882 0.113788217 -16.3257389 
2.24599648 -0.193452477 5.16363049 
3.32036614 0.287978083 12.5348434 
19.924324 0.198173627 -0.266337931 
-9.75541973 -0.502173424 -16.309124 
24.2612991 0.0270863157 18.9274616 
-20.6030807 0.0922530517 -2.94929838 
4.70944118 0.00509872753 1.90390038 
22.616251 -0.233269781 7.23648119 
24.5220203 -0.186505973 0.0709326565 
-9.87940025 -0.319312602 -0.401585281 
-11.1104021 0.319535583 5.13058376 
-8.96864891 -0.238870427 -1.34992743 
20.4635773 0.250311255 10.6143436 
21.5895004 0.231107086 9.93912792 
-10.312048 -0.686353207 -14.4773855 
9.06155682 0.148738116 2.65938187 
-11.4682369 0.274848372 22.1550465 
-16.9066544 0.103203066 -17.5089931 
17.8061352 -0.215058655 -10.0239563 
6.79225826 0.467603207 9.58785152 
24.7691174 -0.290884018 12.6468391 
17.3823051 -0.173128515 -21.5780563 
-21.6193123 -0.118124433 19.3469391 
3.96761894 0.104102448 14.1255322 
-6.67366266 -0.503870964 -12.6515827 
-7.24911737 -0.541188002 -6.38435507 
9.39475346 0.153252676 0.876314938 
4.53280258 0.174879849 -2.54336619 
-4.56032801 -0.308937758 1.95006967 
15.3793907 -0.160574064 12.2674904 
-2.63607812 -0.327972412 18.0433292 
22.948225 -0.18573986 -18.5123329 
23.3954544 0.673134923 -9.50069809 
-10.7420626 0.190362871 13.7128572 
0.0401034132 0.423558235 -15.5105791 
17.0610409 0.221161827 2.05567718 
15.8297701 -0.45970574 -16.9061794 
0.740166962 -0.22881791 23.5692749 
8.04332542 0.205221742 -12.3070641 
23.1305408 -0.387930423 6.46073484 
-21.8017445 0.299472243 23.795105 
7.4839859 0.513593435 6.27839375 
-23.7108612 -0.121676728 17.4662876 
-10.6787052 0.279674113 9.50078773 
15.264924 -0.134751946 11.6164017 
-10.8647242 -0.00435492396 1.81106257 
-23.7368259 -0.242561951 16.6327648 
19.7792625 0.312914908 -10.7085915 
-22.6061535 0.62600702 -15.6174765 
-10.7859869 -0.587630749 -11.7707138 
-12.4819088 -0.532968879 -23.4163799 
-14.3750172 -0.0715748668 -8.22927666 
-19.5669575 0.222210467 -2.67480302 
-6.51504135 -0.530153871 8.61996174 
-0.359269798 -0.104588844 11.1913586 
21.8389397 -0.134622589 2.14819741 
13.2564859 -0.16809465 16.3615742 
11.9873457 -0.000350496732 -18.1117477 
21.9899521 0.445099473 15.106122 
2.11809731 0.0341842435 2.96143055 
-2.04587865 0.466589659 -23.0797977 
6.67112017 0.127370492 17.9780293 
7.53730297 -0.418194443 -24.3102436 
17.2218323 -0.318445027 -10.0658207 
23.5683136 -0.51593709 1.80158401 
-5.83357668 -0.405013978 16.4383583 
-13.4631386 -1.0218389 -18.6611691 
21.4179649 0.206362575 12.0859528 
1.15382171 -0.131033242 11.3665028 
-15.5653353 0.47340405 0.623825014 
-12.7333965 0.0628141165 3.67347455 
-12.9457502 0.0424609557 -6.5209136 
14.5079041 0.11222586 -17.428524 
10.7688942 -0.518104255 -13.3541231 
-3.86043334 -0.197884247 9.81180096 
24.577301 0.397659421 -14.5885763 
22.954649 -0.398836195 -0.0465344042 
-16.6201782 -0.180424839 16.8167725 
20.6716194 -0.130028203 18.8902378 
18.70191 -0.155197203 -20.5449905 
22.4340343 0.653940558 -8.77411461 
20.5174465 0.119867772 9.79920578 
13.6833744 0.331386238 5.67786169 
5.09034538 0.298013628 -12.1935549 
-24.7670746 0.630042374 -13.97824 
20.5112171 0.709220707 12.6018858 
-8.83631134 -0.144714132 -6.75352526 
14.0019827 0.325017631 5.62265205 
-4.91839552 -0.429317027 -1.30971634 
20.0411034 -0.0609255545 -15.2009687 
13.4862432 -0.295941353 -1.75193453 
-23.056139 0.401669443 -3.69251513 
-21.0548382 0.00542864343 -8.95015335 
4.60101509 0.0359968543 2.79466009 
2.3763957 0.181404069 -9.09016895 
-4.23557949 -0.281050473 -7.37438679 
-11.2636251 -0.546381116 -11.7086964 
-24.0872498 0.0831744373 -3.76528835 
1.1855669 -0.0367105193 -7.31775284 
-18.5030422 0.0284863766 -7.39428282 
6.69493103 0.330880702 11.0077925 
-1.84294605 -0.298673928 11.8368301 
12.7267065 -0.223606706 -14.3485174 
5.29042912 0.153907284 16.5530338 
1.40242732 0.333536714 14.5095253 
-19.9395695 -0.440687358 15.5775108 
19.2364254 0.141922742 0.332309723 
18.2915993 0.439711601 3.31979322 
-21.5593834 0.333040953 -13.6678143 
18.5012054 0.273899227 12.6292171 
19.1666241 -0.0129943052 -19.1632957 
1.07392907 -0.110187016 -7.02962446 
18.234066 0.279422939 6.97922182 
17.3546391 0.266551137 4.52501726 
-5.76951027 -0.458273083 -6.444736 
24.8590527 -0.457100868 3.99720907 
6.62177086 0.428171456 -5.78473568 
15.6377096 -0.168977395 12.8788719 
-5.46079922 -0.597087264 14.769124 
-19.0626793 -0.176952094 12.1718321 
-12.0916214 0.507135928 14.9870405 
-21.6766357 -0.0903973654 1.141626 
17.2598534 0.123762235 10.1125231 
-12.8576202 0.079702653 3.95369792 
-21.8341465 0.673030853 -18.2716484 
11.246417 -0.177137911 -20.4694557 
0.00828814507 -0.173195705 16.1067772 
6.4422574 0.267990857 -1.89793408 
5.17322493 0.66192627 -9.89601326 
15.9040241 -0.241026923 -2.47231531 
-23.6338215 -0.648237348 8.91353798 
-7.54646969 0.158187971 -18.4455166 
21.2142487 -0.201767057 4.60811663 
21.9196835 -0.0969355255 -16.5947323 
15.3610744 -0.17234318 -4.32479382 
-10.4476242 0.613274276 20.5818119 
19.1118431 0.139370218 -8.32892418 
-11.9935665 0.214709744 -7.03612709 
-8.95748138 -0.208577529 9.62923908 
24.1537704 -0.521158218 4.55635357 
7.3944478 0.0278998688 -14.9995747 
17.7001305 -0.112197608 17.8858528 
-19.5654144 -0.0171584319 5.76458883 
18.924984 0.114190623 -11.0722189 
4.57552814 0.0668767765 -24.9261227 
23.1340237 0.471692264 -10.7426319 
2.29074502 0.155919433 -5.55875587 
-13.3137321 0.450658828 9.05782223 
-2.56134582 -0.393859416 -5.69516802 
-17.3684273 -0.223756358 11.733819 
19.9035721 0.168504685 8.73072243 
-22.0184746 -0.259755641 -10.2490311 
-22.3098087 0.109345846 21.5099487 
-1.34787929 -0.102371283 9.65274048 
2.56923604 -0.355637819 7.4374876 
-21.1298428 -0.505655825 16.6966648 
-13.3405323 -0.066378966 21.2414284 
16.3295612 -0.219043657 -3.77009964 
20.7650108 -0.0615168512 -3.38624763 
-2.2558682 -0.391642958 19.186882 
-6.76514769 -0.390903562 7.1134181 
8.54426193 0.511688113 8.83602905 
-8.36269665 0.0803252012 19.7594948 
21.8015385 0.102940224 11.7546854 
-13.8480034 0.505909085 8.99232674 
22.0381432 -0.145447403 -17.2550907 
0.779158235 -0.128733352 -5.466959 
-21.4038391 -0.203542143 2.49069309 
21.0180092 0.371655881 12.0241919 
7.45680332 0.282449156 17.8232307 
-21.4725513 -0.50119853 7.12173128 
17.6043568 -0.0132241752 0.943609357 
-8.69520855 -0.367810667 6.38570833 
1.70127726 0.23668392 -16.149313 
5.14519024 -0.0458234251 5.02972698 
23.8916397 0.243082285 16.7008324 
1.9231807 0.344512701 -13.7427645 
-11.9484119 0.173352495 11.7984562 
15.7985659 -0.115626127 15.7296286 
13.4566317 -0.0909323618 12.7512722 
-20.6571255 -0.00788235571 -11.9263353 
11.3076267 -0.0941873118 -4.33057165 
-3.49504685 -0.12300583 -8.95333767 
-18.5891266 0.103174977 4.60473824 
-3.79886746 0.165315092 -11.7952394 
-5.69152975 0.289788753 -17.4941311 
4.88720989 -0.145747125 -23.6864147 
18.9881401 0.0622313991 -2.7183063 
-2.21221256 -0.208611444 1.51015317 
-10.1644382 0.0428320058 6.71498299 
2.94162846 0.329863995 -8.49482632 
-12.8260651 0.0127793467 1.32173777 
-5.83398914 -0.510829628 -6.73990107 
19.2612591 -0.0222187508 -13.6832323 
-17.4982147 -0.278303504 -7.92946196 
0.220185995 0.107126631 12.2969418 
1.72088182 -0.125885591 4.52097082 
-20.4528275 0.284911811 22.1925468 
15.6454458 -0.0768890008 10.6787729 
-4.96893263 -0.303722769 4.89578199 
-14.1149216 -0.151755393 -8.77257252 
2.89693546 0.359954417 -9.55465412 
-0.732582629 0.382647514 -18.1799469 
4.52019072 0.279783577 12.131382 
12.3907146 -0.276556492 13.1218214 
13.3549271 -0.197171077 17.0118523 
-19.3934422 0.310228705 23.8406315 
14.571682 -0.216863036 -13.3900099 
8.00988674 0.455242366 -1.35834897 
-12.9419117 0.200993046 -5.30937338 
7.72915173 0.208900213 18.5996094 
18.7289715 -0.212791413 -13.5631256 
8.63230038 0.377177775 -1.30030334 
16.0580158 -0.47846806 -9.44139957 
6.44117069 0.300303698 -12.7412844 
-8.05235577 -0.379496634 -5.07549286 
-7.51060057 -0.274281085 4.19528818 
7.40582514 0.508109391 10.4374132 
-11.7469301 0.316026032 -6.46353626 
0.269492447 -0.443296611 4.31060886 
5.62867689 0.402555108 11.5951853 
9.55532455 -0.0376811475 -24.4347305 
7.61014175 -0.257881045 -20.6016121 
19.8871384 -0.174670801 -17.3993721 
-12.1410036 0.0492271632 -0.734755456 
-3.17206645 -0.170852929 1.5255537 
4.79125023 0.595666289 -8.96888161 
20.5974522 0.127120703 9.42169571 
4.91158867 0.145439789 7.73554897 
-14.5748777 -0.333718747 -11.9003935 
19.2713718 0.090155296 -5.1358037 
21.2752266 0.497280151 14.7550535 
5.85422611 0.713292181 -8.97158241 
-13.6044455 -1.04905343 -17.2856541 
9.41051579 0.033287406 2.44250178 
-7.48298359 -0.305262148 -16.1547832 
0.266921103 -0.447826743 19.2872009 
17.6251755 -0.321151584 24.22258 
24.6670933 -0.705081403 6.48315859 
-7.32408905 -0.563788176 12.2060108 
-5.82043982 -0.307772875 -10.4321394 
10.5710716 -0.284021944 0.751435816 
5.39908028 0.654843986 -7.28508615 
7.82497549 0.502686024 9.368783 
-13.4580975 0.179482713 4.12647438 
-14.5125895 0.335610151 14.1168804 
-24.433527 0.248645619 -8.25402641 
13.6585512 0.330220908 6.99883938 
4.8471899 0.230222389 11.9402428 
-9.80294323 -0.290706128 -7.70464373 
22.097435 -0.285550445 5.53566694 
10.5547018 0.085689947 17.6136303 
-10.6524115 -0.085607253 1.30090261 
21.3080063 -0.0712993592 7.97334909 
21.6694279 0.261205137 -4.91936922 
-7.20947838 -0.128465697 20.5087471 
-18.8922882 0.0710211992 3.90980721 
-7.31058168 -0.385621727 -1.45206928 
-14.9183369 -0.419921428 20.2102127 
-9.02962971 -0.184103414 9.970294 
-20.5415134 0.0376838706 19.4371471 
23.1300869 0.66944927 -9.78468418 
16.4823151 -0.463690877 -21.4726582 
5.23321533 0.308420062 22.62784 
-18.3009357 0.898957074 -0.531861782 
17.1732082 -0.0663546324 24.6086311 
13.8853559 -0.108965375 12.9235468 
-1.95819581 -0.23204796 13.5958405 
7.06132889 0.354538888 -3.35946441 
-24.6344624 -0.0795947164 19.5431232 
22.7399368 -0.252272785 7.30642128 
21.4126816 -0.163278997 4.01601839 
-8.91888046 -0.0727500021 3.6427803 
-23.8586426 0.495962769 -15.2964802 
22.7045918 -0.113518804 -17.6582451 
1.81488073 0.228530273 12.697566 
20.5225639 0.486478448 11.6828842 
14.3528347 0.242113024 3.7248044 
-15.4549332 0.266647041 -3.93124175 
-7.67855501 -0.387091905 -10.4122839 
10.3719187 -0.0275074951 -21.9217777 
-23.8497753 0.496481299 -15.5476055 
-3.42710996 0.32770139 -13.6454716 
-15.2747002 0.165642619 9.29540539 
-20.7250919 -0.093681179 12.044035 
16.1776791 -0.503995061 -9.60714722 
22.7000065 0.719072461 -8.98627758 
23.8673801 -0.0374038965 -3.61735034 
1.85048807 -0.109012045 4.02859068 
12.0110168 -0.680661678 -12.2144566 
18.0298176 -0.276271224 -12.0232763 
14.3892288 0.352417171 4.31405354 
20.8000469 -0.5457564 -21.6834927 
3.16388845 -0.168898433 -17.0001583 
1.53156185 0.0119440164 -7.35166407 
-19.5361214 0.481826454 -0.890349865 
-18.9625988 0.520044506 -1.56765151 
20.6876087 -0.254460245 6.86170721 
-5.61732101 0.272845715 -17.1029778 
0.0657339245 0.192461759 -21.2176704 
-14.1624308 0.358377695 13.6302452 
10.2505159 -0.103548281 -18.3253784 
-5.89585829 -0.148190886 2.47006679 
7.62582159 0.405050874 -6.57361507 
9.54172897 -0.154173687 -4.63866663 
-8.1471653 -0.38055414 -6.22135878 
-15.075161 0.311806381 11.9116383 
5.10863781 0.605813384 -9.11933804 
14.4666252 0.367534578 4.11811495 
-21.8958836 0.030586971 -6.57880402 
-19.620945 0.017149128 -6.89017105 
-13.2135887 0.315090895 6.12659311 
11.1225348 -0.154007331 13.4053326 
18.3264198 0.167874575 15.7805147 
-17.3321991 0.238884747 6.7268796 
13.8150234 -0.639438629 -9.8012867 
-18.9633446 0.259317398 -5.24534988 
3.55846214 0.494250387 -10.7448788 
-7.20941639 -0.13577491 18.3658066 
20.5978813 0.157050386 -15.2974148 
16.2999172 -0.128859863 -0.538550854 
-12.3910627 0.29509744 5.93573761 
-5.17083454 0.587992907 -24.5974922 
-22.9701939 -0.310866714 1.47776878 
16.8759346 -0.276397139 -8.06918812 
-9.40316677 -0.15527533 2.13482285 
-11.3511925 -0.12695758 -0.0837407112 
18.6821003 0.158487976 8.89981365 
6.05909443 0.342481285 8.23867702 
-2.4624505 -0.376529396 14.3644218 
-5.92157078 -0.479653627 -0.908547521 
-4.23585606 -0.451363325 14.3254004 
1.79476583 -0.223595932 10.9444294 
-21.0626907 -0.237519398 11.5563583 
-19.7055988 0.00795084238 -11.2875919 
3.08402491 -0.106044434 -2.19493699 
-0.509660482 -0.125227854 -7.0122695 
16.4356995 -0.501281083 -12.3909454 
17.2526226 -0.296774209 -9.9323616 
-14.1136904 0.046044644 1.7703495 
-22.0793934 -0.17630206 -8.00155735 
18.2301064 -0.0537211411 -7.48401976 
-21.2678127 0.254086941 -1.03078258 
-15.0343637 0.371932089 6.48099566 
20.8868389 -0.282693237 6.90738106 
-19.0657978 0.035614714 8.07150173 
-18.3274117 0.0446182154 8.56334019 
-15.9218636 -0.349966586 -11.5736275 
24.5792122 -0.495492727 4.34667587 
-8.44777107 -0.547861338 -13.6893291 
3.1970818 -0.31594941 8.28721714 
-22.265707 0.413620502 24.4572105 
19.9804058 0.154931322 3.2646637 
-1.6195358 -0.411787122 -2.00391388 
-16.1368427 0.0851588324 10.169178 
11.7417383 -0.324244708 2.51416278 
-10.4740915 -0.657072365 -13.8656578 
-5.20160055 -0.503127635 -1.85622275 
1.90039468 -0.415908486 10.2205791 
0.0155295972 0.378140956 -14.6254492 
-24.6317806 -0.50757134 6.21176434 
-18.988205 0.0792946368 6.05456114 
12.1853323 -0.276338071 15.8566408 
11.1631451 -0.0676924437 -22.7875881 
17.1526241 -0.0196169615 18.1586647 
15.8269539 -0.125871688 23.1790009 
-5.1012187 -0.469852537 12.8268709 
-15.2465029 -0.122315153 18.3797226 
13.8896093 0.239262819 7.416996 
-12.0549097 -0.00223427871 -2.64576173 
-11.2942028 -0.471539259 -11.159029 
-12.3193521 -0.843625546 -15.6532116 
-3.25524497 -0.240635082 2.42323136 
20.9377575 -0.000818915898 -1.61087871 
-2.04360914 -0.132767871 6.35465145 
-16.8829441 -0.0984341279 -20.3224812 
-20.8003426 0.118347533 0.729033232 
12.7085457 -0.311495304 -0.920968354 
11.0518999 -0.102217503 -17.1523285 
4.68319941 0.180457234 17.6493664 
6.77469969 0.487985998 9.00243568 
23.5141029 0.217071965 15.1842546 
17.291687 -0.535823882 -16.3660488 
24.5954952 -0.174210906 1.07687867 
-3.16983008 0.362595588 -13.6360826 
18.8545475 0.00968953408 0.99254179 
-21.6254597 0.190175444 -0.252012104 
6.62203884 0.493801475 9.04616833 
13.4326572 -0.139142796 12.0990019 
24.6330299 -0.658961296 7.38127184 
9.10871124 0.261558473 -3.72364759 
-9.91666794 -0.61890018 -10.5528669 
-15.703207 0.175609827 -4.43601274 
18.5339127 0.0946630239 16.4891777 
-5.42160034 0.0167443696 -15.0859747 
-19.7843361 0.146184683 -14.0024128 
5.87215281 0.357283771 -2.58863568 
-19.7179947 -0.214122221 12.5570612 
21.5830441 0.494596392 -7.95325089 
-23.0321465 -0.0762896836 -8.7454834 
-6.00378418 -0.422548771 10.8491774 
-8.11492538 0.20468542 -20.2313919 
-12.686677 0.299464136 12.3482065 
-21.2854862 -0.375752777 13.7425365 
20.7075081 -0.151375636 -17.2685909 
7.85894871 0.503111243 9.00462532 
-21.8466072 0.597190678 -15.6498165 
20.0801373 0.276189953 -13.1185818 
14.84657 0.120837413 1.35173261 
-17.9189358 0.650384247 0.511155188 
-2.99867749 -0.48508206 -4.91868019 
15.8207893 0.174736306 5.58424139 
0.275189042 0.391574353 -14.3302393 
19.2704258 -0.0614841059 -16.243803 
2.30513883 -0.0415900424 4.05065489 
13.0439806 -0.101714745 13.6032543 
18.8573341 0.0401982218 -0.692306876 
14.7048311 -0.40488416 -11.7122526 
8.49238777 0.0683910102 -9.89031792 
-11.4103222 -0.182157189 -22.8735199 
18.5752277 -0.137688234 -18.4514217 
4.87696362 0.281843752 -2.56619167 
20.7349739 -0.186602682 19.0545521 
18.3513355 0.323769212 3.97037029 
-20.0937462 0.301595807 -15.0974636 
-8.18812561 0.189814851 17.7192364 
-19.6441593 -0.01823451 5.44834948 
-17.439064 -0.196937338 17.2292461 
-6.64520693 -0.546444297 9.90931892 
-13.9507132 0.38263467 13.3676052 
-18.8610573 -0.0560707077 -14.2467985 
6.31109619 0.0373529419 2.24256778 
4.23070955 0.05169544 4.55369186 
-7.12610912 -0.226150572 13.6023455 
-9.16531944 -0.241018489 5.32854033 
-22.6547222 -0.104361258 -10.44874 
18.4658623 -0.0702575594 -6.05494642 
16.6137562 -0.474305689 -12.6772547 
20.918499 0.0948376507 -4.5396533 
24.2240105 -0.285465449 0.267951667 
-9.56339836 0.12329597 12.5386477 
-9.33560658 0.600528061 20.9019337 
-3.86609888 -0.263841897 5.10949087 
-1.15432525 0.281578481 -11.9555035 
4.66012907 0.220258281 -2.56992865 
2.79657316 -0.0314635076 17.4799709 
-17.664526 0.320055515 4.90701056 
15.1856308 -0.30020991 -1.15884995 
-4.68738413 -0.00577709638 -10.94104 
5.29907274 0.150808558 15.8198748 
-9.72970963 -0.582030118 -9.73173332 
-2.22501349 -0.328994006 -9.73070526 
-15.8400488 0.0663738027 -5.68667269 
-16.3149414 -0.201039433 14.2781019 
23.1787434 0.422207117 15.6110744 
-13.9255457 0.446492076 9.29038048 
-15.2172089 -0.408763379 -12.5768509 
-4.31650448 -0.413956702 -6.06675673 
-8.33886909 -0.154991344 3.65556788 
-23.0057297 -0.225131288 18.1482773 
8.15995979 0.364938855 -11.2943316 
-2.44865561 -0.411757708 -1.34290111 
19.51124 0.296123356 -11.4427347 
-21.5681705 -0.461853325 6.49653244 
-22.1252861 0.305082411 -13.7118311 
-19.0523567 0.0271186251 -11.169836 
-1.02364576 -0.067077294 -9.28426743 
11.7481289 0.151414514 6.08884811 
-2.53379035 0.00679869531 5.96402884 
15.5561094 0.211810693 3.33125806 
-2.87824011 -0.48364222 -5.06538343 
-10.3822975 0.260159224 -25.0110397 
12.8099518 -0.0446193367 -23.48843 
21.5462456 0.049697578 -0.35854724 
-21.520504 -0.1355194 -10.8929195 
21.9091702 0.601688981 -8.08629608 
-5.41423512 -0.578190207 9.59802055 
-18.88414 -0.158700839 18.4668617 
-14.6534271 0.278177023 12.6035004 
22.0625744 -0.569807351 -24.1422081 
16.9895096 -0.0365008786 -1.92908466 
-9.52127075 -0.284293413 -19.9121304 
21.315073 0.115407109 0.502764106 
-22.1060638 -0.462158293 4.55790758 
-20.5169449 -0.303931206 7.35038853 
11.0457392 -0.202526644 -3.90159464 
22.1520405 0.280729085 16.513155 
-4.53694773 0.319103718 -14.5687199 
-15.7562628 -0.294862032 22.2325058 
-3.93925667 -0.147628665 7.48601007 
-18.3110352 0.0913192555 -4.90223551 
-5.51844692 -0.0981474072 21.303463 
-18.2481136 -0.0963115692 20.9702015 
1.38516164 0.00463236636 16.9628143 
-3.74658823 -0.550424695 18.0055561 
-17.0155048 0.612447083 4.53669262 
24.0540257 -0.364395797 -0.125873089 
2.86891603 -0.35708639 8.85212326 
3.69964743 0.349085987 12.6582766 
21.9337711 0.700663745 -10.6027794 
7.9540596 0.0811277851 3.08195758 
17.1408463 -0.0477521904 -1.17356873 
2.25115013 0.117295116 -23.318388 
17.6313419 0.027337255 1.64139426 
14.8689613 0.233447164 4.47528601 
9.9066267 -0.0122358566 -1.54108632 
7.43253136 0.294154882 -3.423805 
-19.1763859 0.115176365 -14.4702415 
-24.9101067 -0.391133189 2.360641 
1.71944404 -0.0343970843 -1.61671019 
17.4790783 0.322772324 4.47277212 
-4.40895796 -0.35259226 12.7193394 
20.6848736 0.62886411 12.8191328 
1.14484072 0.0488636717 -2.63116121 
10.9294786 -0.787622452 -10.974659 
-10.7413969 -0.697713494 -14.2922058 
-23.7156811 0.230545372 -10.890007 
-15.1048813 -0.157940611 -9.53960419 
-22.660923 -0.211129561 18.0811367 
13.934866 0.0194086619 -17.4799652 
12.1631231 0.0630752444 5.34531689 
12.7614241 -0.209492192 19.2590847 
-19.9393826 0.475183994 -0.624225855 
0.537347794 0.386529833 -13.2713966 
-16.5457573 0.423208982 -0.272219658 
12.2993174 -0.311258048 13.4249516 
11.8563519 -0.164516374 -1.07622421 
-18.8862801 0.0107038487 19.1905041 
-17.583992 0.36711213 -17.6200428 
-13.2801294 0.0725008398 11.1196356 
5.15139437 -0.137461826 -16.9446163 
22.3365097 0.0037328531 11.7429905 
2.34640169 0.0613783821 3.5615921 
20.1541901 0.609034836 14.0922213 
9.14800835 0.0217368826 13.4831018 
-12.6476431 0.181319401 10.1668072 
8.30517864 0.404340267 -7.38284779 
-15.0935173 0.00497712009 17.6867104 
-11.2796249 -0.132088557 -0.358661443 
-18.8110085 0.45988676 -2.49669433 
18.3027668 0.272789419 5.88988543 
18.0366497 -0.081588991 -9.015131 
16.9150066 -0.371774822 -5.32242441 
-6.08482409 -0.437216669 18.7072754 
3.66237736 -0.0842706934 1.76523471 
10.5688353 -0.688047826 -9.34174347 
-3.37875652 0.139789805 -12.0043926 
13.0180855 0.369506806 6.76048899 
15.0110035 -0.299055219 -1.69980192 
18.7633877 0.00961923692 -2.92092252 
-17.1158066 -0.262052715 -14.7925224 
-21.107029 0.0814302713 -3.98417211 
-14.6098833 -0.831150949 -19.1880703 
-4.71714926 -0.504029036 -5.8462553 
20.3769741 -0.0445188433 4.05701256 
5.234478 -0.144469634 -18.5221863 
23.553236 0.551127434 -7.78405142 
20.4821815 -0.199802428 6.8732233 
-0.223169744 0.270350456 -10.2254896 
17.9073105 0.312889636 8.87717438 
0.270525575 -0.245619774 -4.33691072 
18.4074707 0.155758947 11.5751066 
4.60344791 -0.0175207164 6.97724438 
1.0636704 0.530976415 -13.4896708 
-5.85580111 -0.6153422 13.9334888 
23.7066097 -0.348048121 3.34126401 
4.9815793 0.387278438 11.2256165 
20.954668 0.26088348 10.545558 
5.50657606 0.00678733177 -0.392592043 
-7.09911156 -0.544322789 10.638485 
-14.111434 0.344550133 16.7195587 
-6.70339394 -0.396037489 13.6985226 
-18.1882153 0.159428015 5.63137197 
0.931574941 0.304490715 13.3304882 
-0.936264396 -0.318522215 18.1726303 
-10.3510361 -0.450087965 -18.6098785 
-8.97182941 -0.263222635 1.75100875 
-11.4228029 0.218215302 5.01394129 
-12.1767931 -0.75458014 -18.0195923 
-16.7343979 0.445288807 -3.31950283 
-2.75961924 -0.434713334 15.4311361 
9.73622608 0.0664650276 -1.0355531 
-15.7809963 0.370203942 -3.6086688 
3.88566828 -0.0275180824 4.47536325 
-18.6321774 0.256678969 -3.82271314 
-15.808013 0.28241384 6.75407696 
-21.3322735 -0.331837088 18.3674126 
-15.901701 -0.0711814985 -6.63544703 
17.9154644 -0.374278992 -16.5913734 
-17.3846321 0.313459516 -18.6568279 
24.8901711 0.0480824523 -4.14842558 
15.7697382 0.0253569093 9.45984364 
9.67025471 -0.346624404 -12.4233074 
-14.6717768 0.0367652848 -5.26704931 
16.5692272 0.111985192 0.653817832 
-9.07117271 -0.0921222046 -18.7586555 
-9.45055008 -0.0815356076 13.4715385 
-13.5130835 -0.161617175 -6.87556744 
-20.8937626 0.513392985 -17.0089321 
-12.7630959 0.353142887 7.42303801 
5.21385098 0.254101396 13.4624109 
-21.5075455 -0.329000294 13.6567688 
-13.5955334 0.434933156 14.5877295 
7.3675909 0.239559844 -0.417036146 
12.2036629 -0.074399963 -17.1093731 
5.15205002 -0.254207253 -16.2959785 
9.93285084 0.000439067837 -1.39473355 
23.6512051 0.640683174 -8.03445339 
-14.7334051 0.350319296 7.48882198 
-1.23566222 -0.177796498 3.61693239 
4.17297363 0.258151352 -5.6367135 
14.7304678 -0.278369129 -1.16345334 
-20.756588 0.203336611 23.057188 
-12.190731 0.32416302 6.3217535 
-18.4541225 0.800961554 0.00496985018 
-18.4392395 0.838425875 -1.31603253 
15.8031549 -0.196042091 13.2639742 
23.0120316 -0.301875114 3.32320595 
1.23684418 0.160653234 -23.6848278 
-20.8410568 -0.429545105 16.8989849 
10.3535385 -0.570195913 -9.01690578 
12.8402987 -0.0727488473 11.9481306 
-7.67404079 -0.169251412 15.4764481 
18.5001907 -0.0110176979 1.49983621 
10.2718067 -0.0895203874 -18.1990643 
-17.2847595 0.231324285 -17.0544224 
8.55795956 0.405546904 6.74925852 
-10.3024788 -0.0355578028 -2.88701272 
-10.2914181 -0.0214103088 8.67576504 
-15.2045383 0.324490696 0.395486295 
20.0733528 0.292001635 -9.35663319 
-14.9649811 -0.795854568 -19.2237549 
4.06753778 0.114627123 13.6622534 
-0.510241151 -0.260399044 -6.18910122 
0.619764924 -0.517632902 6.17987442 
-20.8387756 0.0721340179 20.207674 
-6.65994406 -0.484973788 -8.11122036 
14.5089655 -0.0109046632 16.3497715 
25.1284275 -0.0234167557 -2.50241089 
5.34377003 0.265997052 13.0599318 
2.07356381 -0.38850069 7.33728266 
-15.5696154 -0.349539757 -12.6387644 
21.2935505 -0.524071276 -23.4364223 
-11.1077642 0.326658159 -6.94742203 
9.18582153 0.0653697476 12.3724613 
22.9732628 -0.158415422 -18.2295799 
-20.0411472 0.29679805 -14.797204 
-4.2940135 -0.300830781 9.01595211 
16.7991447 0.200185999 6.7954669 
4.83348703 0.179920152 8.14168453 
15.7862558 0.104839303 1.34408534 
-21.4432316 0.360136032 -13.728013 
24.7535381 -0.151297912 1.18988943 
-17.6954098 0.0511819534 -5.79267836 
21.9662514 0.24237372 -5.12016487 
-9.38749313 0.415665597 16.8914299 
-14.8110733 0.324623466 12.1463003 
0.605454028 -0.229046062 10.4551201 
-14.6743841 0.20884423 11.2822514 
-2.32663608 -0.113968343 4.1096034 
22.4368305 0.0990371853 9.16661835 
7.56698751 0.558359921 5.733109 
-2.91130471 0.234401122 -18.2001038 
17.5823765 0.0599586479 15.2625885 
-4.76201677 0.0320115052 22.8410683 
-2.30476713 -0.183750048 2.0946269 
21.7769852 0.604016542 -11.3529167 
-17.8789997 -0.198170409 14.5789242 
-0.297382653 -0.229229927 -3.43400669 
-21.3600616 0.591217458 -16.9956207 
-4.05251694 -0.454143852 -2.89521837 
-15.8861465 -0.330258816 21.5382404 
19.6334324 0.109727971 7.5359726 
-17.7794704 0.803034425 -2.51500869 
20.8971233 0.0458444357 18.1029091 
-10.1643105 0.226163372 15.1634092 
-21.8239193 -0.313474357 2.91680574 
5.69795704 0.757268667 -9.42484188 
-2.4673903 -0.00780699123 4.58889675 
-23.6177063 -0.475631535 15.1581984 
3.93974829 0.402713239 -11.7723341 
18.7388878 0.305034846 3.31915545 
-24.9917488 -0.236609012 0.794991016 
-6.57974052 -0.272985011 19.3040257 
-9.79366875 -0.380734891 -8.49345493 
6.4019804 0.319075465 5.93832302 
19.1785603 0.317273915 11.4911861 
-23.4703484 0.183583364 -7.3380785 
-14.056407 0.291463256 9.97608948 
15.7481747 -0.0293377303 10.7985725 
21.8429127 -0.0421751924 -16.4646206 
13.6268015 0.0673622862 8.26483727 
-15.1349258 -0.261493623 -10.6211748 
11.6517763 0.156929418 24.8872738 
-14.5854492 -0.492088974 22.0926952 
-17.8401718 0.44932586 2.74605155 
0.305661887 0.0842850581 -8.12397194 
-24.1662693 -0.366177231 6.27164364 
-18.4040108 0.0535809137 -7.01842356 
5.68033266 -0.208907247 -15.2065763 
24.0213337 -0.366863281 -19.2981377 
16.2952099 0.11066936 4.24517488 
1.19578254 -0.0495159663 -5.75933456 
4.69909191 0.203434408 -12.4933758 
-7.09544039 0.343196541 -22.8462772 
23.72192 0.573190987 -10.6436691 
-21.8743896 -0.375670254 14.061182 
16.1266422 -0.173549801 13.3229294 
-8.670825 -0.171332896 9.774436 
21.9131813 0.611784577 -8.25638676 
18.7202702 0.0258253831 -2.73460007 
0.797273874 -0.417491585 8.97116661 
4.8311553 0.0486209393 -0.897582173 
13.9944735 0.137205347 -16.6643181 
6.94777393 0.558455586 -9.94419575 
-5.74128294 -0.525946736 -6.09837198 
-20.4805126 0.304348588 -14.4835787 
10.6710653 -0.714780867 -9.06110191 
-4.26895094 -0.365452409 12.6512661 
15.0088654 -0.425842524 -6.10957766 
-17.6637917 -0.0536395088 22.888483 
21.4583321 -0.319551706 6.02179766 
9.1990633 0.284637362 -2.05100393 
1.32392955 0.254469633 -19.3019581 
9.43394184 0.506886423 7.09459686 
6.70264101 0.423327476 -5.5434947 
10.6102123 -0.308304459 -0.817163587 
18.0131226 -0.117838733 0.797504067 
5.81368923 0.0885106176 6.49697161 
10.5096703 0.0552854873 19.2466469 
12.9433012 -0.802990198 -11.2036695 
3.38270998 0.104439437 16.020956 
-11.0596504 0.256538838 5.58155537 
-3.17683721 0.326922834 -18.9728603 
13.2603359 -0.126445487 -15.8056812 
4.84852409 0.343185484 10.5758734 
15.8806438 -0.240291148 -6.3578043 
14.6952105 -0.120455369 -14.4887514 
1.33986318 -0.00119879772 -5.32943964 
0.160606623 0.407876641 -16.52248 
8.67597294 0.371653855 6.66365147 
-0.730479062 -0.116090789 11.4797382 
2.77431226 0.203104541 -7.09631491 
