ply
format ascii 1.0
comment created by gply, a Houdini tool.
comment converted from .[b]geo
comment for more information about Houdini, try:
comment www.sidefx.com
element vertex 1266
property float x
property float y
property float z
element face 0
property list uchar int vertex_indices
end_header
7.0440197 -0.0323283859 -12.0562344 
12.3358955 -0.193260685 3.84409833 
9.55354691 -0.0292129312 -17.7801247 
-21.5097961 0.0516082868 -4.23262596 
9.47869587 -0.0952151716 12.153616 
16.435894 0.0349319689 -1.92878163 
-23.000658 0.395739287 15.5861139 
7.66697168 -0.512190998 6.40689278 
-15.2280569 0.448855907 -18.4902706 
19.0639496 -0.484167308 13.6071577 
-16.9299774 -0.194832236 8.65585709 
4.71928167 -0.00980414171 -4.86674976 
-14.0461903 -0.194743589 -3.27172446 
-7.43127728 0.309445888 13.5094032 
22.7795868 0.0263151862 -19.7105236 
15.4923391 0.15496093 -24.3074341 
20.0771503 0.328617096 4.45931387 
22.1675949 0.328642696 -0.680583119 
23.8105354 -0.125019044 -16.5208549 
-1.67431772 0.181316704 18.9312191 
-3.04308939 -0.287464827 0.886525035 
15.4349155 -0.0366903283 -0.234351784 
24.6006031 0.0333128497 -7.87325191 
-24.8341885 0.510169804 3.04528666 
1.16468358 0.535131276 7.04415035 
1.53260994 0.519098997 5.24525976 
24.7447395 -0.258605838 -14.0246897 
24.5114346 -0.456364185 -24.1458759 
24.053381 -0.179837048 -19.2106495 
-8.51624393 0.0409475155 8.73601818 
-9.46888924 -0.0213015098 -3.19556046 
-13.6576757 0.396482468 -13.1648359 
14.3368893 -0.155369118 -7.86105061 
16.0398083 -0.2062736 -11.3637466 
14.1550045 -0.015048678 -12.8500805 
14.4277086 -0.226222739 -16.163084 
-23.5496063 0.125697613 9.23036861 
-13.973546 0.167708382 -1.35363758 
-9.59282875 -0.00288052461 -2.5950408 
-2.77589869 -0.251070559 2.43176246 
3.17294383 0.251171976 -22.265192 
1.77673066 0.459701836 6.87702465 
23.8318882 -0.205295995 -14.1145115 
-15.3166475 0.0118813561 8.60994625 
-3.3452878 -0.508737206 -18.7796803 
-9.4913578 0.0562551282 12.5967035 
4.84149265 -0.17119576 9.56247234 
0.231355205 -0.0586755686 -15.571722 
25.0378227 0.521075666 7.82807875 
-14.7032318 -0.379795462 4.87365437 
-1.29435146 -0.185500041 -0.528005838 
-11.0893621 -0.364866495 -9.0310545 
16.6893654 0.090958491 -2.11231041 
-20.9273682 0.178122208 -12.7779961 
12.6782255 -0.258269727 3.49532914 
3.49571347 0.487177134 3.48382735 
-1.36993277 -0.398279458 -14.0805969 
-18.653698 -0.70981127 -0.628129601 
-18.8908081 -0.0373453833 10.8057041 
5.19309759 -0.286339402 9.44242382 
-5.53420353 -0.109198697 0.133442745 
-14.0957527 -0.143449366 -7.96443558 
-24.1654682 0.234319493 -9.5140543 
-14.0440578 0.315705389 -12.5164995 
7.84761858 0.186480209 -21.3964005 
23.5698242 0.45678398 6.59156179 
-23.192812 0.382947922 4.95450211 
-1.72466266 -0.0668069273 -9.48583889 
-7.82307577 -0.184261471 4.87021112 
-6.36489677 -0.0141496956 11.7198915 
13.1463728 -0.111652277 -0.152307838 
-1.17953265 -0.0638990179 2.34062123 
-4.11572075 -0.156889081 -0.424403816 
-13.9715815 -0.00261878315 2.04449201 
-12.5726156 -0.346311986 -5.39084625 
13.3863592 -0.0690880269 10.7560692 
22.1781006 -0.666827619 -14.2410917 
16.2472324 0.162675694 11.4962702 
-20.5257702 -0.18053098 3.88173985 
-11.0501537 -0.352256536 -5.40834808 
25.1294556 0.0370232835 -6.46761942 
-14.0607901 -0.171720743 18.2544918 
-19.1456165 -0.507781088 1.39648545 
-8.09129333 0.162322968 10.6911888 
20.0379257 -0.354743451 11.3841238 
20.136898 0.32427749 3.15693927 
3.11551762 0.374145806 8.42697525 
20.3375015 0.22150062 -0.786422074 
-10.4838705 -0.166838929 0.451976895 
16.4120693 -0.175695732 6.67236471 
13.7218857 -0.0796522126 0.00246426463 
-3.90930581 -0.54808116 -10.8886232 
24.4747486 -0.161379054 17.756197 
-20.9193439 0.823450983 -9.53565216 
23.3552971 -0.305081606 17.5520077 
0.155112445 0.0206547193 2.8037107 
3.02390289 0.432719022 -15.6456289 
4.57206202 -0.105309814 8.35872936 
-18.0314884 -0.247085676 8.52592564 
-16.2495937 0.446645588 22.7500057 
-22.3648949 0.273329705 10.8801413 
-14.7537336 -0.21385175 -6.95939589 
-8.52563477 -0.0147656295 -3.28370929 
-14.226738 -0.203239292 8.12752056 
-13.77528 0.00524925487 -10.6512299 
-14.6093111 0.396906316 -12.8382101 
1.67451751 0.530567348 8.34536171 
9.8914547 0.49993813 -7.79679489 
-18.9668674 0.269769371 -14.1175852 
-3.14434433 -0.159471765 3.95035481 
-16.4991684 -0.147117108 16.5062943 
-7.18814373 -0.0293922108 -2.26579738 
-2.28000951 -0.20473887 2.98987794 
22.3937435 0.386102617 2.02044177 
12.0131664 -0.152387187 7.86185598 
-24.8078747 -0.00535012688 -4.78235435 
8.05629253 -0.242372274 -8.49361515 
6.32109833 0.282971591 -15.5205832 
-24.3140392 0.558092654 4.26385212 
1.99401176 0.562519252 8.15584373 
18.4039974 -0.243290484 10.6385269 
2.39325213 0.293219715 0.407613993 
8.30720997 0.0334167443 2.96107054 
-7.99164534 0.0304870624 8.33070183 
-14.0925903 0.0888025165 -10.9894533 
-0.852882504 -0.0953828618 16.5921402 
19.5389385 0.226171449 4.26535654 
-0.0195200741 0.145397484 -17.8908176 
-9.52177715 -0.284247696 7.22164488 
-0.541345656 0.026170969 -1.43370855 
8.35572243 -0.125815645 -10.0855265 
5.63429689 0.047024928 12.687047 
-9.14982796 -0.284335583 15.2311211 
-22.3182411 -0.528310597 -18.1942234 
-3.5165472 -0.540050507 -9.28974342 
16.1812859 -0.132732511 -9.27517891 
-7.33041286 -0.0548192039 -5.82668018 
-2.79048085 -0.0639486462 12.8243322 
24.8843021 0.451784015 1.61790109 
19.7141895 -0.449914783 -14.04743 
24.0490704 -0.00790697336 -4.22927904 
20.9326401 0.272376955 -24.2467957 
-3.86624002 0.161386967 22.969244 
6.66343451 0.0500231795 -0.21746546 
-21.6513062 0.180174366 6.40304899 
-24.5995522 0.0311676059 -2.06336951 
-8.02084923 -0.237278178 0.817995965 
3.56345892 0.15567033 12.4100914 
18.0254631 -0.0524897762 5.90529394 
17.1239681 0.334548205 -18.8795204 
1.81997752 -0.0326139554 -7.49969673 
13.290451 0.28052476 13.293786 
-3.44425726 -0.315024942 1.44269383 
-21.3498936 -0.000924044929 -4.20533037 
11.6118708 -0.00316432025 -14.2749767 
-6.62201691 -0.150421813 6.33846617 
-23.9758701 0.269372553 -10.2711821 
8.76464939 0.194837451 -12.9571133 
-6.49385977 -0.124336101 22.7281971 
1.73712742 -0.0112857148 24.0234909 
16.631567 -0.0464259386 7.12706947 
14.7279797 -0.0609421134 18.5194683 
7.74226713 0.106570482 2.43090868 
23.4871235 -0.211935177 -17.9227428 
-8.60426807 -0.145045191 -4.58867216 
-0.0491793454 0.10758362 -0.690835953 
18.8056488 0.136641487 4.31655788 
-7.29380322 -0.11632894 -1.23103547 
-19.680357 0.604552388 15.5282555 
23.5012722 0.507902086 6.4412694 
10.2450342 0.154875115 12.1483955 
7.52306604 -0.273884982 -4.76075554 
20.0205002 -0.667034268 -12.1277809 
-7.41720724 -0.131095052 6.30639601 
-21.3349915 0.648991644 -8.45525169 
-4.38434076 0.423447788 21.2401733 
-3.88252163 -0.560016632 -9.96259689 
10.3938255 0.535471976 -9.90894699 
-13.7212229 -0.0209498145 -1.75769472 
-21.0406628 0.474225968 11.6980381 
-1.18551826 -0.0479224995 -6.46830082 
-23.0697803 0.2716102 -8.81096554 
-19.6595001 -0.0688816011 11.3924007 
17.0396633 -0.425924867 4.16862822 
9.57579517 0.472910047 -7.56020498 
7.2344346 -0.544121504 6.36313391 
-14.9950209 -0.0767773241 9.01484394 
-12.7277479 -0.270878494 2.92582655 
-18.750473 -0.0741543323 11.6809711 
12.5196514 0.42749846 -8.6234417 
15.3154707 -0.158917785 -17.7055988 
-20.7519646 0.212314591 -13.7580013 
15.090992 -0.0726590902 19.0049572 
-19.5490875 0.0235462282 10.7715206 
12.3994131 -0.0411773026 -0.609986961 
17.1006622 0.385095745 -16.2262344 
18.774929 -0.026156012 8.12825489 
-15.2634964 -0.0981263071 -3.81120205 
-1.74966538 -0.0749149248 -5.44488811 
3.93260717 0.470252424 -20.2135353 
13.0600767 0.266210943 12.9612989 
-0.890007973 -0.191993907 11.9887276 
-16.9511833 0.530073047 20.5903683 
24.7636032 0.324763864 11.281765 
16.9114685 -0.0946318656 17.7304192 
6.1630373 -0.0964549258 5.26796055 
-8.71523476 -0.128637135 6.72185421 
7.09882355 -0.38359651 -9.60146523 
8.95958042 -0.329696834 6.906497 
2.67262173 0.121143058 -1.70973098 
-7.59415483 -0.151847571 -4.95471382 
15.1524239 -0.289966226 1.66413164 
-14.8197069 -0.409771472 14.4387827 
-23.9264488 -0.499433815 -17.8053093 
-15.4538822 -0.154456437 17.0891266 
-3.15860939 -0.270078063 10.4780264 
12.3390818 0.27984941 12.3563128 
-13.0812578 -0.258201152 -7.62436914 
-13.3698502 -0.418454647 11.5279455 
19.5972023 -0.278252035 -6.57214689 
-21.6346951 0.475622922 -7.14787674 
-18.5508804 0.196106926 -16.8370209 
-3.01434278 -0.279846698 -0.772601128 
-10.0387812 -0.607683897 17.753767 
24.7375317 -0.247184604 -15.0780382 
12.750349 -0.257693321 5.68021107 
-22.0785542 -0.0410185568 -0.429662079 
12.0840044 0.07798969 15.2543249 
-2.66489911 -0.318854272 -8.76821995 
-0.554689586 -0.100787401 -7.26095104 
-22.9775143 0.223153517 11.5512314 
-15.5863008 -0.261111856 13.6241159 
-16.3228188 -0.0751803368 16.9774017 
-18.8788242 -0.208255038 -3.83957148 
-14.9127083 0.149189249 -10.5062494 
16.6979752 0.0338805206 -24.5752354 
-24.6194096 -0.121064164 -13.0640211 
-7.36991167 0.375013709 14.0032244 
14.2112246 -0.201725423 -16.7479172 
21.5451488 -0.694562495 13.5077524 
24.8390656 0.122947104 -11.5921087 
-0.225426331 0.0844998285 -0.295086741 
-24.29245 0.547597706 7.16843605 
-24.4071789 -0.0144704897 -3.51039171 
7.04724169 0.149941415 1.00441158 
2.38448358 0.331048191 2.62750602 
-21.8219032 -0.27865383 23.0442238 
14.2622137 0.0175310709 -11.2279224 
-13.9944239 0.665174067 -17.2552834 
1.85433388 0.11739327 -1.80806136 
10.3841 -0.144639343 7.55515337 
3.03536582 0.534121633 3.67649865 
16.4049854 -0.0711130127 14.4504461 
-9.17112923 -0.481010795 2.85799694 
21.5488319 -0.163139746 -17.6675797 
-6.26245546 -0.0692621022 11.4079876 
-11.6845694 -0.210643202 24.0600967 
5.83229542 0.109705135 -0.754413724 
-9.55135822 -0.244631335 -6.51827002 
-6.76794815 0.341112912 13.7339735 
-24.2589512 0.712761283 5.25279474 
-4.14669991 -0.214081928 3.73715806 
-15.7285891 0.139607117 0.774722278 
20.8029537 -0.574492991 16.0580292 
-11.1163044 0.0233461037 -1.27002537 
-23.8715324 0.164323807 0.266520262 
24.7664394 0.412046492 12.1613598 
-16.0435429 -0.202941433 6.24755049 
10.1013422 0.418325126 -7.64053154 
8.75171089 0.205754846 -13.0673428 
-15.0853882 -0.0249802638 2.89276266 
18.0028763 -0.578993559 -11.1613464 
21.2320614 -0.458296448 -9.2206316 
0.705534935 0.389325857 7.50054026 
2.93176889 -0.226883307 -10.5752077 
-2.43626189 -0.409630388 -9.557127 
-11.1796446 -0.433037132 -5.84026194 
17.3989906 -0.228102788 5.43523645 
-23.2019291 0.211220235 9.94781303 
2.97173977 0.396055609 2.41154051 
21.5909081 -0.717221379 -13.1015692 
-13.1648426 -0.352532327 7.29226732 
-22.6942749 0.155538335 -5.04881477 
-6.15573692 0.328429878 15.9315481 
5.41817379 -0.376758993 -8.02623177 
-18.1884499 -0.361213118 2.50221944 
-25.0586281 0.47135216 0.300749183 
-12.7704592 0.755295634 -16.6432037 
14.9741192 -0.0590382181 -14.1668339 
22.3392277 0.0496467613 -8.08909225 
-4.73702812 -0.29947862 -9.02202892 
-14.5624695 -0.262163162 6.07278967 
-2.85010576 -0.221980035 -3.1525116 
16.539278 0.0487897545 -2.94633317 
11.3374805 -0.129954189 7.08607101 
6.14911032 0.0489439517 0.624280214 
6.68583775 -0.290117383 -7.84616661 
1.25129306 0.130595505 -2.89962649 
15.7651463 -0.0365564711 -8.40951538 
23.8985806 -0.226493761 -20.2830391 
23.710165 -0.178248733 -20.0966377 
-0.551631629 -0.242687553 -12.1003447 
20.1299763 -0.635696709 -8.07353592 
-14.7749891 -0.319765091 17.4537678 
16.7979736 -0.142108515 16.4655743 
-16.7300529 -0.25534004 8.04396152 
7.71702576 0.020518925 -0.443499714 
17.7158375 -0.089393951 -2.210361 
20.0847893 -0.887713492 -9.72243404 
-8.96260166 -0.266235858 -18.1760082 
17.8471661 -0.0956466347 8.98765945 
14.5165625 0.0803870335 11.5415382 
12.7928696 0.181793258 -4.74617815 
-12.9498453 -0.543604434 14.4708109 
22.6837044 0.231320992 10.224474 
-8.08124638 0.00692002382 -3.1919229 
19.9907475 0.140878394 -1.64163983 
-22.3367271 0.209737539 19.0278473 
7.97049713 -0.229158312 12.4412594 
-18.8210316 -0.407977819 5.31622744 
20.9214725 0.497309595 3.29897094 
-6.15256262 -0.217649296 6.78260803 
24.2112656 0.704000056 3.95453334 
24.1623802 0.021055771 -4.289505 
2.1473465 0.609614372 7.55467176 
-1.04817545 0.0152814332 9.881217 
18.0490913 -0.0936524123 8.57212067 
6.67647028 -0.0100492183 4.37323618 
16.0573769 -0.0157036521 8.14278889 
3.26108575 0.155123726 -13.6231565 
-2.02259064 0.0636448413 4.85857439 
-13.728117 -0.304696083 -5.25090122 
10.0891485 0.442920148 -7.20301723 
19.0623055 -0.294042259 -6.65425348 
-8.16823006 -0.219652593 4.10809374 
16.7812023 0.098910287 -2.66772485 
23.0864525 0.140969753 -7.07081604 
9.23493576 0.202765599 -8.83257294 
-11.3968296 0.45928055 -13.7886009 
-17.3744659 -0.548475981 -0.272470832 
12.915803 0.21788013 -5.81253099 
4.66514111 -0.0250323433 -5.04443836 
10.6433506 -0.0528694578 10.946084 
-16.6241932 0.570513308 -12.9320278 
-17.5027885 0.411780208 -16.3645058 
17.6789494 -0.0885629728 6.09427118 
3.00359893 0.0935448706 -6.18410158 
-8.81839085 -0.0578361414 -4.80402231 
-0.0746655837 0.011038743 14.9934273 
-19.3216057 -0.400898039 1.88856936 
13.6104527 0.0480814129 -18.2307529 
1.6702795 -0.263173223 -10.582303 
-24.7126331 0.321897775 0.147493824 
-18.043787 0.473871469 -12.6216154 
2.89367032 0.028274769 -4.77624273 
9.54373932 0.105448425 1.70371795 
-2.21067691 -0.140467778 10.9536877 
13.7591391 0.295864224 13.8195648 
-21.4475994 0.479899168 17.0600529 
-15.652072 -0.149339229 15.0100498 
-21.6677303 0.716268837 -9.93642712 
21.2839642 -0.460507065 17.7057762 
-6.573596 -0.0866406634 -2.74531436 
6.29129601 0.234065235 -15.1279602 
21.9489307 -0.388404399 -9.95912457 
-17.892416 -0.347714365 7.40357208 
10.0101099 -0.0605848245 3.46487284 
-23.2554455 -0.0219556987 -1.04693651 
16.1530113 -0.111562476 -9.1446352 
12.1194258 0.673971415 -8.81514835 
13.6808214 -0.325329363 4.81113911 
7.33333969 -0.242864221 -10.4065313 
-15.4904346 -0.088418588 18.1365242 
4.98786497 0.0518057756 13.2418613 
-10.8662348 -0.155326188 10.8987236 
-8.60661507 -0.213912278 1.00798082 
-21.0779705 0.529570341 -6.18279219 
14.5911465 -0.0542166606 8.65503216 
-2.16767263 -0.0513731204 -7.80509806 
18.9580975 -0.783097565 -9.69964886 
-9.47305298 0.22023645 -11.6537018 
-20.4840965 0.106790289 7.26290941 
-19.7851162 0.632812083 15.3052683 
-22.9019852 0.378680348 4.88094521 
-20.0569477 -0.289656371 -19.1404114 
-4.06806612 0.061914105 -5.31609964 
-6.3408618 -0.384234935 -16.1033974 
-20.2353401 -0.272647053 -3.18281794 
22.4751968 -0.381169766 16.740818 
-23.1452122 -0.0728371665 -13.1845131 
16.5572052 0.117816851 -15.304759 
-21.7768841 0.408642888 17.7571621 
11.090764 -0.0155226495 8.32323456 
-15.6243238 -0.0631226823 7.10573196 
8.75351715 -0.0581942946 19.2174854 
-2.83641815 0.0418293253 5.92414999 
20.4614315 -0.296718717 -17.7179794 
-7.8657608 0.236578405 18.1045113 
6.42210197 0.110574901 -14.8091888 
9.1260891 0.00587777607 -2.96016717 
-13.6860085 -0.346474975 7.70751095 
24.6970329 -0.0854336843 -13.4131489 
-3.96412635 -0.28501156 -23.4391937 
5.13011312 0.0385938585 -2.12200737 
5.812994 -0.0486733206 11.1660233 
-20.738245 -0.267085642 -2.00614309 
1.68856502 0.0766164437 11.0928183 
23.0650921 0.476926923 3.9525795 
12.5407906 0.598620653 -10.7238283 
-8.32711029 -0.0270236768 -6.39394331 
21.050354 0.413115591 4.07932234 
21.2800846 -0.111420281 -19.2578793 
6.83744669 -0.283024609 -4.20420647 
-17.0492859 0.0610905401 12.3964748 
15.0916281 -0.136760578 -11.0613661 
-20.2996006 -0.0317079537 6.55965567 
9.04006195 0.290725499 -7.699615 
-4.46741247 -0.179568917 -7.82459307 
-12.548583 0.111224577 0.0728792399 
1.8752017 -0.0647867545 -5.58958483 
-22.5460854 -0.422113299 -17.3246517 
-12.7464705 0.0637443885 1.31802392 
3.23532987 0.132457376 13.7340336 
-22.9858723 -0.306213945 22.15839 
-3.01005316 -0.143116057 4.13539457 
6.14739704 0.150866181 -17.6522484 
-20.2631454 -0.200337484 1.51931572 
0.967813373 0.551185012 5.64045 
20.2592716 -0.593873978 12.9886475 
-8.15971184 0.161963686 17.7725811 
7.53027201 -0.121213943 -1.34203291 
-5.02810574 -0.0438210778 10.6410961 
-11.8307676 -0.375026613 14.4637794 
-10.5040941 -0.0305439848 -2.05854034 
1.6385746 0.426004618 4.90278244 
8.18939018 0.106171183 2.4518888 
23.5681877 0.180752128 -2.60414028 
-22.2780132 0.081158191 -2.79311848 
-17.2253151 0.355690867 -10.8093414 
-23.9997368 0.288259447 12.0475674 
-20.2466526 0.703802645 -9.79075432 
23.1932659 0.43737942 7.00026894 
-6.55558205 -0.658866584 -12.1472731 
5.69809151 -0.00999367237 5.10779858 
-4.81429768 0.0593729727 -4.52806377 
-18.3741341 -0.16897963 10.2760353 
-10.1640329 -0.385820687 -8.07783127 
-3.12438154 -0.395113975 -8.69800854 
15.1006155 -0.04733935 -9.75759411 
-11.0729189 0.282657474 -16.0475121 
-14.1369295 -0.0535654277 0.354719698 
-17.0060444 -0.104414225 5.28140116 
-2.44219613 -0.126854032 -3.78119755 
-19.8053932 -0.326041996 1.5510366 
-0.0107114315 -0.19725731 -5.36569023 
-5.12862301 0.0859148875 -5.42352772 
19.8857727 -0.642296612 14.762886 
13.550108 -0.127883345 -14.4860725 
-3.49298239 -0.184313282 9.27686596 
18.7967186 -0.488474488 15.8355179 
-13.5115881 -0.460199237 13.0946045 
-14.2736359 -0.455934078 11.4689045 
-1.72583473 0.0513931774 6.03764153 
-9.61114025 0.193723962 -12.7699089 
3.1212163 0.168218434 -13.7726345 
-11.5513906 0.218486443 -12.8216896 
12.5776272 -0.132435158 1.27390087 
-11.9194202 -0.363349319 14.8335285 
2.2213521 -0.00855397247 15.047576 
-24.0134258 0.10530261 -11.1213198 
12.7347136 -0.326196253 4.60471153 
23.3514919 -0.33678019 -13.4173088 
-13.756464 -0.330384463 7.13843536 
22.7951946 -0.433501244 17.1131954 
-14.5234871 0.225279093 -1.93365002 
-7.43496323 -0.324369669 -11.2605562 
3.8526597 0.261682242 -14.8520555 
13.9270134 -0.0201126784 -6.50999689 
-2.54649806 -0.295007527 -2.2832408 
0.852772832 -0.0788215697 0.336508214 
-2.35330915 -0.328746021 -18.4635754 
-5.97713518 -0.035687115 11.1631327 
-22.5271282 0.15182893 9.30894089 
14.7084332 -0.442057937 2.37658072 
-5.1266799 -0.339607835 4.07397032 
-2.95285439 -0.256774098 -3.02727699 
-13.2787333 -0.447255224 -5.66303492 
19.2857208 -0.0690949336 -1.98489702 
-11.6815586 -0.184459522 1.52121603 
-4.39550781 -0.157248497 -0.803873003 
-20.8671284 -0.30037275 -0.117282107 
23.2442207 0.478828251 4.04157448 
5.35411835 0.192091256 -0.891685307 
2.99707222 0.383648843 10.9931555 
-14.0624514 -0.562268257 15.7635355 
14.4056349 -0.03858383 -11.6107159 
-0.890822291 -0.185334444 -15.8823223 
2.2576251 0.525389612 7.09915352 
-5.47894716 -0.10704235 0.917663872 
2.59429622 0.550859272 7.92333603 
20.8494835 0.292697251 -0.167804316 
7.45880556 -0.252036363 -3.525249 
13.5386906 0.0196222551 11.0598068 
-7.35032177 -0.344471008 -8.91655159 
-23.4905891 0.285974592 -9.47791862 
-10.4091644 -0.0140117127 -1.13289702 
-4.16745758 0.456035793 15.0738859 
15.1884003 -0.282594264 -17.0048275 
-0.372065365 0.0245386064 3.4960103 
19.2523956 0.157304004 6.07742214 
22.3209286 0.0211081319 -19.8701591 
4.80824089 -0.229782492 11.5903959 
-19.3611526 0.392084628 16.1893444 
-22.0369434 0.372406185 17.9175682 
-20.8725567 0.201444864 19.1777458 
19.9709282 -0.296032906 -16.6358681 
-23.2164555 0.175852686 8.69452 
-0.877231836 0.0360584296 -18.4746418 
20.2655411 -0.0313498452 9.93711662 
-3.67029715 0.38731131 15.009285 
-13.8986855 -0.185277909 -4.14203691 
-15.6331739 0.0798854381 -2.67643833 
12.9805355 0.108360715 -18.9166718 
-24.2092075 0.191005364 -8.53214264 
-10.2088423 -0.274808049 4.15285254 
-1.54269588 -0.0245554764 -9.64537048 
-17.8991985 -0.285500228 3.76174426 
-20.7561646 0.457361668 18.0345173 
6.09824848 -0.0916545391 15.8926477 
-1.52845526 0.0602742806 -7.47274446 
-1.02841485 -0.0666307136 13.1177025 
-6.93203688 -0.0726796836 2.44148684 
-9.31881046 0.0683544055 -13.6840067 
5.35685158 -0.16799593 -11.9930973 
13.0839033 -0.388413846 4.99536133 
1.37329996 -0.112926222 0.696558833 
-6.47228193 -0.0527296364 2.65229249 
20.9949722 -0.45693925 18.4305363 
22.9103832 0.211915001 -2.45311451 
-15.1833563 0.167925566 -0.906345963 
1.23921061 -0.0708513185 -12.0960617 
23.5474777 0.271009684 -1.85172033 
-9.40543556 -0.267896444 -6.79435635 
9.25871372 0.079537116 -15.64151 
-5.40009451 0.12317986 12.751194 
5.51663494 0.219817713 -14.8548527 
22.1510296 0.593779147 7.5438261 
-10.9714165 -0.356989145 6.59565163 
-1.63104248 -0.0302770045 -10.159523 
-2.73304486 -0.265751332 -0.97075808 
-18.6988621 0.350234956 20.8121223 
10.7505341 0.579690993 -8.43465424 
-20.7777271 0.0964671373 -4.98596287 
14.9018145 -0.110802159 -12.6365128 
22.9013157 0.0964401737 -8.29077721 
13.2125406 0.0270898603 -7.97969675 
7.41070652 -0.209851593 -6.24311066 
17.9583969 -0.32314536 16.5208454 
-22.4401035 0.0446885303 0.496576637 
16.6287022 0.226663664 -18.0417633 
-23.2972126 0.442010015 13.5431175 
16.1440868 0.0395192765 -17.3995495 
1.66315508 -0.0427640043 -12.0674515 
11.7058125 -0.295224041 3.55118108 
-1.47139835 -0.222209916 12.3183737 
-3.3443141 0.683403611 20.2367306 
14.5094633 -0.00189734402 -13.8663311 
4.62513733 -0.230818331 10.822134 
-16.6459312 -0.465034872 -0.827831268 
-15.7242346 0.117818743 19.7043018 
4.14910173 -0.0978289768 11.5534821 
2.71233439 0.0916844532 -2.56263471 
2.84824109 0.359510392 11.3068285 
10.0133142 -0.11287275 9.79664803 
-17.0048866 0.503683925 -12.3537588 
-7.24284887 -0.0753207952 -6.30955601 
0.114838913 0.281686753 5.08930874 
-17.1651554 0.516123533 20.6863098 
-22.9127026 0.471015185 14.5947323 
-16.3734665 0.0472661071 1.18167663 
-13.0201149 -0.0965943187 1.82271171 
9.78545475 -0.00224100286 -1.09762669 
12.7969475 -0.373917341 19.1498756 
11.4728613 0.0712766796 -1.39361262 
17.1149178 -0.139950961 6.02456474 
20.0144005 0.153636232 -2.00723743 
10.5149603 -0.107076503 6.42238712 
12.7664127 -0.286260933 5.55740309 
-3.09043169 0.502820909 17.1162682 
22.212635 0.0270325318 -19.0926991 
-6.54763651 -0.281918794 8.60946655 
-9.33361244 -0.44693324 21.54739 
12.0865116 0.36341241 -12.9719763 
-20.0401115 0.354532123 18.571497 
-5.60046196 0.107312627 13.4992447 
1.24449325 -0.153757706 0.354700744 
9.2964735 0.22922574 -14.1107168 
24.8815613 -0.158530638 -13.4996166 
-13.6905746 0.555211723 -14.8479166 
13.2512445 -0.228423476 2.79265141 
-5.93593407 -0.0612586103 -2.6187191 
-19.0597534 0.0235322472 -5.28303576 
17.9919338 0.127891853 -17.5225506 
9.1193676 0.0217090137 -4.57815218 
-8.0509243 -0.314555973 -15.0918589 
-12.0571623 -0.201291889 -2.73437619 
-23.1890774 0.139050424 -4.42424154 
14.6261082 0.14952226 -2.17525649 
-17.3591118 -0.285218745 1.88668239 
9.99622345 -0.0937448293 -21.4243584 
6.02323103 -0.263926268 10.4278135 
7.329494 -0.0413009077 -13.1978512 
1.88498652 -0.228771091 -10.1852789 
-13.9028893 -0.0356227346 0.775779188 
-2.59164262 -0.261823058 1.50184834 
1.43881655 0.0971579924 -1.91488004 
-17.1338425 0.46741119 -15.1897306 
-22.2739162 -0.0544626601 -0.138679445 
-25.0012074 0.629161894 5.36047602 
-12.9429312 -0.380659461 5.85694265 
15.7485647 -0.0883767605 -15.4295893 
2.56465435 0.117763087 -13.5249491 
15.8504105 -0.0726898089 14.8386354 
24.1693497 -0.00592862209 -4.86514902 
-13.4588795 -0.417691141 6.64206123 
-23.5451584 0.335881293 16.6027412 
-5.57190037 -0.235719889 5.18276405 
-16.7788677 -0.436899096 -1.58444536 
-1.58583283 -0.079950735 -1.41003144 
-2.30046797 0.307611316 17.1644039 
15.9582682 -0.198290408 18.8787994 
8.87901688 -0.074010089 -16.371666 
-2.81686449 0.523327172 22.7670841 
-9.84208679 0.0128640644 10.9326038 
-10.1335583 -0.293780655 13.7461147 
-24.3743877 0.518577576 3.86986995 
-20.6606922 0.824181318 -8.81775093 
-8.230896 -0.223020747 0.727971375 
21.6504478 0.375392497 7.98630619 
3.84355497 0.119536921 9.48737049 
-17.1611652 0.214095458 -8.5708828 
-24.9397125 0.482714862 8.33620167 
18.7695732 -0.461075574 -7.40934658 
-23.23283 0.128653511 -4.62103176 
-0.877062559 0.227368027 6.83992672 
19.3474941 -0.183068782 10.3600206 
-24.240942 0.689055145 5.8560009 
5.57796288 0.0718627647 12.241559 
-10.3079758 -0.0270442571 0.0334332138 
-4.20759773 -0.129000023 -2.15149093 
10.4062147 -0.0649781749 -17.9610291 
-23.3156586 -0.18163681 20.7629681 
13.6159239 0.0823661685 -8.7373476 
9.12860203 0.141608343 -10.0896215 
24.1361904 0.0344949439 -4.13525295 
9.03055954 0.220882863 -11.5544262 
19.3412876 -0.186232984 -5.67589045 
12.7046375 -0.31200701 4.8861208 
24.5713272 0.355376273 6.4911623 
-13.5042791 -0.34830156 9.22186947 
-8.16591358 -0.0416884758 19.2869663 
24.3403378 0.00804389548 -8.20706654 
-18.4829998 0.233028799 -7.99050045 
-15.1558361 -0.177095175 -5.42502546 
-4.16267157 0.384685576 21.5001011 
-8.76106644 -0.403377652 2.96747494 
-12.3093834 -0.0751099661 1.44007778 
-14.7708025 -0.281836867 10.193758 
-17.5320187 0.256201863 23.8550453 
1.56800723 0.067952171 -14.6886053 
5.1339736 -0.32513091 -8.51723862 
-0.184864148 -0.0592583045 12.7979527 
1.98905218 -0.00227748882 -0.0566315949 
20.0413551 -0.541317821 -13.7537146 
2.61119819 0.107957996 -3.33039355 
-6.38951063 -0.0284789242 2.51786423 
18.8433895 -0.0734451264 -2.48880005 
-23.3076916 0.344349205 17.9330883 
-5.03498125 -0.569254577 -22.7005672 
1.18699551 -0.111203223 1.37535119 
22.9417572 -0.243154779 12.8680573 
-23.1196842 0.394133598 5.20785141 
14.8490515 -0.30876857 4.35917711 
1.62402058 0.00656621903 -12.233181 
17.7873135 -0.0598868281 6.53611231 
-8.31860542 -0.152088895 -9.06779861 
-17.6700516 0.31432721 -10.9311361 
13.3618069 0.0645740703 -2.502491 
8.29084778 -0.0237776265 13.6850233 
8.97911453 -0.0698691234 12.1680489 
14.7899895 -0.134641185 7.34450674 
-11.3725529 0.0728787631 -18.8346577 
-19.6112518 -0.231422514 -18.7579288 
-20.928648 0.131653532 -14.1561155 
-4.41269779 -0.0554734766 -2.60942554 
-20.0756416 0.192250103 -6.41843176 
-1.57750225 -0.257775187 -11.4767323 
-21.3962307 -0.123087853 -2.46449661 
21.918047 0.537234962 7.39193773 
-17.2644863 0.142092019 -23.2901535 
24.5601082 0.26636681 -10.8452187 
5.18889666 0.0342524871 13.4251671 
-21.8290405 0.0950400457 3.1574564 
10.173624 0.0214944817 -0.91126883 
5.6743474 0.0811225399 4.26344252 
-4.63263655 -0.605635405 -13.8806782 
-16.8243198 0.551637173 -12.8198872 
-13.6070147 -0.113525428 2.84605765 
-10.4760399 -0.131658703 10.4972115 
-12.278017 -0.39550072 14.5337744 
-4.61627197 0.0711511225 -6.98148489 
-23.0565395 0.0541652963 -2.64022803 
-19.2195606 -0.409761429 3.59556866 
16.8923454 0.227824822 -20.380167 
12.0668497 0.569490135 -10.7242842 
-17.6808128 0.126989841 -6.57823992 
-2.35372567 -0.101253122 -3.92033434 
19.3039303 0.0385284051 9.08736324 
3.07314777 0.113487758 -2.66810465 
-3.77172375 -0.273670852 1.97978604 
-19.8293705 0.0691870376 10.6896706 
-7.53990841 -0.280650347 -11.1632366 
-22.5706692 0.36340946 -7.57762384 
-7.64715338 -0.367580891 -14.2169962 
-11.750699 -0.133842543 2.50040007 
-14.8263941 -0.151192307 -4.06704569 
-19.3298683 0.420875698 -11.5791788 
-6.43301678 -0.43812415 -19.832819 
9.64360714 0.0174621306 -2.35029268 
-4.20898438 -0.206531793 2.9656384 
-12.8333015 0.658591092 -15.9756145 
-6.16314888 -0.107066445 11.0358343 
16.3159847 -0.0514019206 7.48942947 
23.0343018 -0.270389229 13.656106 
13.9543858 -0.0142732849 11.4068766 
3.14294147 -0.0195625406 -7.05779409 
17.0304489 -0.230929062 -12.253171 
-22.3146687 0.42432934 -11.3620195 
21.4867744 0.426704168 2.94664693 
22.635294 -0.498809099 -13.8900146 
5.83602142 0.059525419 13.7741823 
-11.6387882 -0.210761979 -3.12647724 
-16.5423698 0.158759132 -7.64429951 
12.3454113 0.124632664 -18.9538574 
21.4446049 -0.00606099935 -4.39377069 
-17.7303486 0.191355035 -8.30616951 
11.5517082 0.142344475 -2.21464419 
21.901741 -0.500431299 14.8865757 
-24.833046 -0.247033328 -15.392065 
-22.8977318 0.438708693 13.5387869 
-14.9833584 0.186489344 -1.07757747 
22.758707 -0.187285393 11.8024626 
-24.4951248 0.0335728042 -4.62806559 
-12.6714029 -0.546414077 18.2915401 
-15.6120319 0.461010069 -24.311882 
8.47328186 -0.435920805 7.11120462 
-23.8149109 0.502303958 6.91623974 
1.95409119 0.167876542 10.8600216 
2.10088325 0.34409982 5.41851711 
-21.9189472 0.197013512 -13.2421741 
2.1649003 0.320930183 3.3976438 
-12.4829159 -0.384440422 6.17114973 
12.8174019 0.113731034 -3.85285807 
-5.94822311 0.00582735892 -7.13793182 
18.7409782 -0.122067153 2.19304228 
0.181124389 -0.0940700322 12.7239408 
-1.75821388 -0.330489278 -12.0063457 
-20.9425106 0.421185613 11.6749954 
-12.3363037 -0.425936162 8.93628883 
18.9230766 -0.296873808 -14.4723082 
-23.1330051 0.214284748 10.111021 
-18.3569317 -0.0610954314 12.5365152 
-17.2470493 -0.0594051555 -4.22382021 
-0.732336044 -0.078218475 11.0015726 
10.7532902 -0.0943183601 8.04905128 
9.61172199 0.0396289267 22.6217823 
-15.993084 0.430208504 -21.9923096 
8.9269352 -0.104856923 -1.73043919 
7.71967411 -0.393094391 5.91786718 
8.58132076 0.11100544 0.722112954 
-24.9075165 0.284559786 -1.28635108 
1.04937458 0.365720004 -17.2180538 
-24.4706039 0.330630422 1.73902631 
1.92171311 -0.0184004381 14.2533255 
20.352375 0.23753038 -0.25155583 
17.7799911 -0.28908661 16.5171661 
15.1304779 -0.227302536 6.62270451 
10.1751337 0.156360582 14.9708242 
-0.463294804 0.0932099447 -2.5095942 
-15.3017435 -0.316859543 14.8322134 
9.42807961 0.232945979 -9.46338177 
-1.51642942 -0.0426541194 -2.61654258 
9.18710136 0.258704782 15.5184231 
8.74873924 0.0131799635 -9.5810833 
-12.9988441 0.328191698 -12.3534765 
1.71878636 0.148885041 -2.00984907 
-14.5433674 0.467163593 -13.8833942 
4.98953295 -0.212593257 7.67945576 
12.8991261 0.284199029 -12.64748 
9.80116272 0.00590377254 12.2245455 
6.4253087 0.13002941 -21.332613 
13.9005871 -0.376601785 2.62868476 
20.0539455 -0.576054156 13.3532991 
0.112455919 0.180057228 8.97902679 
-22.9977665 0.377666056 15.8749046 
22.6048107 0.365615606 1.05847454 
14.3398829 -0.0257009938 -0.292702824 
-0.773246825 0.139850885 4.30389071 
-23.4456692 0.263000846 -11.0965881 
16.8432579 0.0895355567 -1.75663793 
-7.28137684 0.0108864382 10.5250101 
7.20611 -0.00461043557 -18.6692581 
13.5331593 -0.255239338 17.2693005 
24.8817215 0.0838644728 -9.2141695 
-24.2567368 0.387271732 1.9986105 
-18.3338928 0.332531631 -12.1919937 
-13.2318773 -0.217761964 -2.58286834 
-6.60458899 0.0376388542 -0.546711385 
-20.5774021 0.0550521649 -4.77397156 
18.0628738 -0.112692684 9.01927662 
23.4934654 0.604726493 5.41779709 
-9.30814171 -0.190989092 -18.4255371 
-14.258255 -0.616696954 13.8638964 
-17.6952038 -0.258702368 2.79958463 
-5.64191866 -0.0891596675 -1.05651951 
-20.2959003 -0.294476539 -1.18203902 
-0.247814849 0.129259288 9.0048666 
-10.8332844 -0.338055879 5.42060232 
-22.213316 0.174960852 -5.13555479 
4.45716572 -0.0911988914 9.52515221 
20.3238983 0.20435892 6.66523123 
0.266206831 -0.0732815787 12.6067991 
-23.9955959 0.427366227 2.0358274 
16.7427502 -0.0594837479 10.8304672 
-16.5278625 -0.155406684 11.550354 
-1.93220687 -0.0899566785 3.1817975 
-7.70620012 -0.168581262 -10.9167194 
-6.78441572 -0.463346303 -14.0805349 
-23.7405033 -0.11698278 -1.42374921 
2.19530249 0.0669473037 -0.344031453 
-19.07967 -0.128418803 12.6135759 
25.224472 0.0886036903 -9.48369217 
-3.55489469 -0.106521994 7.06006622 
-18.3568726 0.107605606 -17.8256283 
-17.076416 0.280456573 -10.2233772 
-10.8130112 0.303953141 -14.6888552 
-9.10696602 -0.0369114056 -4.79713106 
-20.0399532 0.49645552 14.1215725 
10.5883541 0.487168461 -7.09733152 
-7.66859102 0.0131203616 9.41670036 
16.3415165 -0.0532232299 -3.74428606 
-24.3301373 0.471344233 3.68383002 
16.292799 0.14986816 -19.2666512 
5.14768171 -0.27039367 -11.136096 
-8.10931969 -0.195309758 -7.71194696 
1.53999352 0.47032699 6.06087732 
16.6078777 -0.399952024 2.89278054 
7.77862835 -0.0471607409 -0.779576898 
16.0286007 -0.196905524 -0.290161788 
22.2077618 0.602838337 7.40072012 
18.9326744 0.100230232 3.34401226 
-20.2113686 -0.22521618 4.01934147 
9.47889519 0.315676957 -11.0804129 
3.77759647 -0.0860430896 -6.96616936 
-11.6133766 -0.303355277 4.72437572 
-3.20991516 -0.541028142 -11.9511251 
22.0414333 -0.0101101603 -19.1898975 
2.59232163 0.443784833 3.82826233 
-0.0669756979 -0.0178780146 11.5937786 
-9.81380367 -0.467559189 16.8944149 
-18.1708431 0.148782253 -8.84776211 
-20.5959053 0.0985491499 7.20454454 
-0.461262226 -0.10480468 1.29812527 
16.0565491 -0.134618193 15.2445765 
-14.3067598 -0.344234258 5.35065842 
-6.87045908 -0.03408207 0.551596701 
-3.49584508 -0.67833972 -15.007328 
7.29883385 -0.217957884 11.046793 
-16.4151077 -0.0917792544 12.0401659 
0.664383709 -0.245003194 -6.64894009 
22.2173271 -0.353664935 12.0683928 
24.0692406 0.411835909 1.96492004 
-17.7380753 -0.584865868 -2.38625002 
-19.2639256 0.387675703 -11.2811451 
-24.9330997 0.537560403 7.35718489 
-3.83420038 -0.141976655 6.9959445 
3.48893118 0.294760317 -0.258502036 
1.70015085 0.0802029818 -1.71666574 
-24.185463 0.0662643239 -11.4130707 
-11.5519352 -0.0623827204 -10.5358849 
-9.55609703 0.167697906 -11.336628 
4.91142702 -0.136966497 -12.3666906 
-11.1260548 0.426974833 -14.5309286 
-17.9808178 0.446449727 21.5640812 
2.3536613 0.385794044 3.85783195 
20.9438896 -0.490047038 -15.1335077 
18.2172394 -0.0569441542 -14.5729256 
-13.0467834 -0.376381248 -6.26463175 
2.55370545 0.00908941496 -4.20950079 
-4.25739098 0.735636592 19.0586529 
-24.2179699 0.213892102 0.508529246 
1.66691744 0.452807575 4.34224463 
-11.509696 0.115470521 -1.54864407 
3.07501388 0.290005296 -1.28518569 
15.0530386 0.324504495 12.5074005 
6.07997942 -0.245938286 -7.36244297 
4.56510258 0.19803682 -2.61591721 
-9.3471632 -0.46887064 20.4879646 
24.6082211 0.12189839 -3.17468882 
-23.7319927 0.263624221 13.8584042 
-0.579338431 -0.0899753049 12.2375669 
11.5922155 -0.0875524506 1.62917376 
-8.20496559 -0.23793669 -14.1404009 
-6.96219254 -0.111936614 7.45129633 
-9.97991371 -0.0253346264 -1.09980106 
11.21628 -0.0645172149 10.4648685 
1.63023114 -0.00993879326 -6.53423977 
-6.18909407 -0.487000108 -17.6911259 
-7.93656683 0.319562286 14.4750881 
-24.8493557 -0.284968764 -18.7667656 
15.9242916 -0.155485734 -0.421771228 
-24.7192745 0.00149798626 -5.19914007 
2.9621501 0.380091161 7.85218668 
18.9230862 -0.629454494 -12.2254372 
23.818367 -0.0776647925 14.4443083 
-4.3012476 -0.50093013 -9.49693489 
10.9277782 -0.119379044 7.47364473 
11.5172024 0.0110610696 -19.5119877 
-4.4319253 -0.211942956 1.99231315 
10.8311167 0.115945846 -2.80545473 
8.12773418 -0.175355852 11.7553158 
-0.982029259 0.255232483 4.9058485 
14.8821011 -0.0447169654 -9.97853851 
-3.87814689 0.254079551 14.0420322 
-8.88057232 -0.0757905915 -1.08732128 
10.5089359 -0.104916759 -18.749115 
21.5663986 0.370029986 -1.47890556 
6.81453562 -0.244346768 -2.2373724 
-7.1338253 -0.0444178544 -5.62168026 
-13.7513027 0.496338367 -14.1958733 
4.79172134 -0.0703039467 -12.601162 
-19.5494747 0.535377383 15.3137293 
19.0500793 -0.675766587 -8.00819016 
16.6076565 -0.350257814 2.24560285 
8.17028046 -0.0615021475 13.4153309 
-6.27561712 -0.254100919 7.09687948 
1.92173398 0.119495891 -2.16545367 
2.86102986 0.18111366 12.7989998 
13.1444931 0.170301199 -3.86597204 
23.6157551 0.634845316 4.61607456 
14.859149 -0.12570484 -18.0284595 
-24.0293503 0.396020353 2.57885885 
17.3286171 -0.385275751 -8.80608845 
1.30013227 -0.0120379478 -14.8103313 
-19.0727215 -0.406482816 3.10616255 
2.55219507 0.165223956 -1.21411765 
-23.1788692 0.17440854 -12.3509121 
-2.13546944 0.0582639016 -6.33674908 
23.7906418 0.0268904474 -8.22103691 
14.2100191 -0.0385261029 14.8634758 
1.46062136 0.0800723806 -14.4051514 
-20.4931202 -0.322999477 -0.803076684 
-6.51174831 -0.335509181 -15.1602449 
1.5743252 0.176629499 -2.39948821 
3.39976931 0.1074908 -4.21673965 
23.674778 -0.366946489 -22.8892326 
-22.781147 0.44425562 16.722559 
-10.8462801 -0.201111227 9.98341942 
-15.6983309 0.398945332 -10.0841885 
1.27401328 -0.253713131 -9.77652645 
-19.0832253 0.248912945 21.0317001 
-20.4972439 0.616594613 -7.88552475 
0.816808939 0.324094176 19.4347038 
-20.582901 -0.204105467 -1.86423814 
24.2175407 0.0182199478 -7.61646128 
-15.0205708 0.0164147727 19.1787186 
23.1984558 -0.0962666199 -3.85497427 
-10.2414656 -0.361159414 6.16292143 
2.10066509 -0.00821575336 18.4101906 
-0.264120281 -0.142293826 13.6341105 
-12.9237967 0.230025545 0.468811065 
3.56247926 0.184223831 -12.697422 
10.8995543 -0.140399575 -23.5723915 
0.20018211 -0.198723167 -10.9991617 
-12.97085 -0.568726301 15.222949 
10.9511232 -0.132324919 6.38775253 
-7.39389086 -0.12555927 -1.13396597 
-8.98060703 -0.0718859881 -12.6488199 
20.6839981 0.406952381 2.3849721 
-15.2616434 -0.198002413 16.8977318 
-14.2906551 -0.101385273 0.390680015 
-12.2528648 -0.379705697 -4.65637445 
14.1324682 0.0872643217 12.4739742 
17.2048988 0.408994704 -16.3920994 
10.5070639 -0.0819231942 8.79389477 
23.7594948 -0.247985601 -18.3121719 
-20.3806705 0.331540734 -12.8142767 
10.3753614 -0.125984088 2.20342803 
2.56249619 0.0246938802 16.9051514 
-23.7927799 0.175501376 11.0849276 
9.87627983 -0.0678692907 -16.0992565 
-11.057066 -0.29716906 2.56924152 
-12.8480835 0.0106323147 -0.963905871 
-2.05425406 -0.0274494793 -7.60433102 
17.8267822 -0.0215145275 -0.829702258 
-24.5580444 0.20480302 14.4358578 
-11.9126959 -0.447798014 7.29226875 
-22.8030968 0.420654088 12.681488 
14.3570595 0.072354883 -0.771546483 
-25.0380573 0.569083095 4.88464069 
-5.05797529 0.100428984 -6.33208036 
-14.585453 0.484529972 21.7178478 
5.13417768 0.187276527 2.73051572 
-20.8526192 -0.308015764 24.6183815 
-15.0379457 -0.0476207212 2.01214457 
-1.77086914 0.086882025 4.77219963 
-11.4717054 -0.425737351 7.98345613 
-7.89005947 -0.390353769 -16.8620625 
-20.3697224 -0.213524312 2.93978119 
-21.2081261 0.631808221 -8.01199245 
6.98439598 0.179749578 -15.0318289 
2.59294939 0.321495026 11.0987883 
12.3100348 -0.238415152 7.82463646 
4.13983727 -0.274098843 -9.02613258 
9.82124519 0.0203295853 10.3406353 
-24.757164 0.0812302828 -9.3984623 
-11.4916897 0.525016189 -14.1579323 
-25.0557785 0.126807868 -3.31002021 
-16.9206562 0.134070545 -7.01238775 
-20.0220604 0.068275243 10.7406187 
-20.8201275 -0.0352808498 -4.24080276 
-8.95801735 -0.00250802794 -10.8076868 
-5.1357522 -0.49417752 -13.0863256 
15.9396391 -0.0842657909 7.61932993 
8.22837925 0.0673284009 -23.3867054 
-20.9088001 -0.232117891 0.201320082 
-12.8312855 -0.053551361 -9.24753761 
25.1675262 0.238875449 -10.9101439 
-2.36628532 -0.159139097 11.6259441 
-11.7059202 -0.328291744 -8.74729919 
4.31821537 0.096057713 14.4586716 
5.36351728 -0.0874725431 15.2931557 
14.0255699 -0.0553790964 -1.63696837 
1.40494847 -0.0172949377 -13.3207846 
-21.8765564 0.00960855931 -14.3735676 
-14.6115627 -0.34560141 10.8334131 
-9.94283581 -0.170231804 8.27515221 
24.4213009 -0.567442477 -21.7758751 
23.3763885 0.645947754 4.66568327 
-21.9106731 0.102586791 -4.05238008 
1.79037929 0.442735165 5.35196495 
2.34808636 0.296475232 -15.3585405 
2.87713194 0.0720321313 -12.7525177 
-14.0791588 -0.251872212 3.91960573 
15.8800268 -0.242386118 5.68875313 
-15.427824 -0.0569906309 3.37610722 
1.53863144 0.0224477593 11.5478907 
-8.0684824 -0.231414646 -13.8767376 
-19.1879177 -0.619477332 0.655171216 
20.6804905 0.240666583 -0.717561662 
-22.0228615 0.290488988 5.94455338 
5.14431 -0.0182612911 6.40810156 
-21.7235126 -0.0795266777 -2.04129148 
12.5718956 0.224536046 -6.8090229 
-16.1650867 0.459344953 -10.334199 
-3.92164564 -0.191876143 2.59043884 
23.4126225 0.0723477751 -7.81975698 
1.8648262 0.464833289 6.10696459 
-7.19510984 -0.183565408 8.81298733 
-8.37395954 -0.0568246134 -11.5264254 
12.1177549 -0.227494001 8.69835758 
11.980732 0.0923623592 -14.2190447 
17.8157768 -0.221067086 10.4769993 
-10.8383055 -0.338233888 2.04030204 
-17.3633518 -0.0668660477 10.5034866 
14.315588 -0.113325201 -8.7994585 
-0.793997467 -0.391784132 -13.0159302 
-1.59385931 0.0210018083 -19.700922 
3.36777449 0.168042094 -3.36079431 
-3.37533784 -0.191657439 8.01179028 
-7.75472641 -0.321126997 -14.6580496 
-6.58404112 -0.101424485 23.4457283 
-5.68933201 -0.0877650231 0.240359485 
3.02537894 0.100383177 -12.3179674 
-4.56739187 -0.147343323 6.60202837 
20.3072643 0.381474167 1.43087053 
20.1370831 -0.631368458 15.9074535 
-9.1558466 -0.109930858 -0.53710258 
20.1631565 -0.640307069 -12.2325735 
-10.1158829 0.29495275 -12.850543 
-14.1679735 0.639845073 -16.6462345 
23.7557163 0.565151095 5.34617805 
-24.081646 0.396669716 1.79539251 
0.435996383 0.0423881188 -4.11630106 
-22.1174755 0.317121476 -7.22022343 
-4.51577997 0.00331669161 -3.06731367 
-7.49468136 0.493272066 14.7819567 
10.9367456 -0.156101808 6.93534899 
7.04056358 -0.596997321 7.13374424 
16.2276783 0.0472026505 9.31076527 
-7.17702007 -0.101646215 -1.33363986 
-3.380656 0.0258380175 -6.82736778 
5.73471403 -0.292305231 18.6672268 
-12.377471 0.0100883991 -0.362806737 
18.3208218 -0.52725184 -12.1304569 
6.22764349 0.276589334 -15.2459164 
11.3123503 -0.0806336999 16.5365448 
-11.0922422 -0.432520211 15.3268023 
23.1021633 -0.128804758 -17.9164181 
24.4848824 0.0549440049 -9.17200565 
-5.593256 -0.27871412 4.4063735 
5.64393568 0.0756617263 13.9288912 
-20.8956432 0.27547437 -5.57294989 
-2.70681858 -0.311771035 -1.78878975 
16.2327003 -0.372729152 1.69909978 
-10.2819977 -0.36742118 6.92085314 
11.4151697 -0.0719988272 1.43043351 
0.162617013 0.0765229166 15.0861797 
17.0055199 0.0302039087 7.88772392 
-13.7582302 -0.398809195 9.84199047 
-12.2419786 -0.0698708519 -2.28462601 
-12.4464273 0.199914351 -12.6728992 
15.6296825 -0.251803309 5.79607201 
8.7446022 -0.0842385441 -18.9221573 
-15.8554268 -0.0490809865 9.59735394 
-14.9591913 -0.348309815 5.04025841 
3.77545977 0.0526742451 -4.97706985 
-8.28859234 -0.00668161828 -1.17991507 
1.54449654 0.477736682 6.22050238 
-17.4856148 0.182942256 -8.25188541 
17.9552937 -0.116929218 -2.09487867 
23.6087418 0.0338201746 -3.39396715 
-7.47143364 0.302048326 11.8812399 
-17.093668 -0.59843266 -0.837333083 
2.32099056 0.062505953 12.8404999 
-11.9621668 0.115013607 -12.4614277 
17.7390785 -0.466159314 -8.53903961 
10.370018 0.322567493 -4.57239342 
2.09228754 0.360444486 -17.4029045 
22.5864086 -0.535147548 -13.6065769 
22.7795067 -0.391765028 -15.417366 
15.1856279 0.374788761 11.4295835 
-3.28612137 0.207567722 -4.80388117 
-5.47963715 -0.608668089 -10.8283281 
-14.8102646 -0.216916367 -4.34408236 
-2.38494182 -0.0431205332 -4.12072659 
-15.3863659 0.0161841717 -6.78089762 
12.9475203 -0.192259327 -15.5373926 
-6.25634527 -0.0577084795 2.75993371 
24.0384445 0.00785907544 -3.51292944 
-18.3701725 0.415593892 -13.3590498 
3.39401126 0.0865296125 18.1524258 
-20.9587593 0.235633716 9.96763229 
-16.036253 -0.159096926 12.6174116 
17.4559994 -0.26027149 18.4539909 
25.0474033 0.457967609 9.20059586 
11.1393547 -0.180856228 4.20096493 
-6.80975103 -0.143286064 2.75161266 
15.6352892 0.0646172315 -1.17415166 
-1.243783 0.151211724 -9.22652817 
-23.6037312 0.0749272183 -12.372798 
-17.0314369 -0.0280227661 10.2214441 
21.1088886 0.0905388966 9.56197453 
12.3723602 -0.185095295 -16.4992256 
-16.4580193 0.0265301447 -5.59892845 
-23.1616745 0.19751139 -12.213028 
-17.5904179 -0.250155121 8.25760651 
-11.2830982 -0.241533622 2.27760482 
20.5753822 -0.680793762 15.0961447 
10.2642956 0.448258311 -10.5300312 
20.7400017 -0.166556045 -19.9517403 
-18.5783863 0.30477491 18.815836 
-21.5966244 0.218897924 8.24645615 
7.5873332 0.0987527594 2.73689771 
11.3525047 0.130349889 -1.67668331 
-22.3742256 0.493652016 -9.04024696 
17.6909409 -0.208516508 9.48168755 
4.08587503 -0.161738008 -7.38562918 
19.9446869 0.236440822 1.04857635 
10.8171492 -0.139794424 7.20222998 
13.0213633 0.249931097 -12.1937351 
21.033741 0.363375574 4.49593306 
-9.14537907 -0.344421804 -20.6983967 
4.96379709 -0.0200571772 17.3648605 
12.6861238 0.496635705 -9.74223042 
22.0572777 0.202832595 1.21283484 
-14.5089903 0.558970749 23.712265 
-5.08381128 0.0952637717 -5.56648779 
22.1674786 0.382725656 -1.31641233 
-4.1476388 -0.203648314 2.67806888 
-19.0326328 0.358957052 -11.5731144 
-21.1794987 -0.0298683252 2.82268834 
-2.78221083 -0.231904536 3.4910183 
9.78139019 0.216604441 -12.7988043 
-16.9064312 -0.268529445 15.4948444 
-9.71828365 -0.00384386349 10.6651697 
5.89539146 0.0826323256 0.663582027 
17.6328831 0.141150147 20.2922478 
-10.0943613 -0.739653468 18.2190723 
-3.91712379 -0.481054664 -12.1895914 
-9.73527241 0.00793242175 -1.38191462 
-12.6789045 -0.506191492 15.5017719 
-22.8409386 -0.567423105 24.7875767 
-17.1980877 -0.29376322 15.0092545 
23.73382 0.604113042 4.91887617 
6.4856534 -0.0106296521 4.52414656 
6.06743097 0.0144055979 -1.17505872 
1.85999036 0.0440790579 -6.54972219 
-13.2182827 -0.298130542 -7.15330362 
12.3747797 -0.00644481182 -0.757880628 
4.9877758 0.251500279 -17.2449417 
1.17086351 0.0149043566 11.6569576 
15.1729574 -0.153520629 -13.3081541 
22.6033096 0.360812813 2.61838222 
5.23375511 -0.11487139 -4.68994427 
-21.164566 0.568678916 13.2504406 
-23.8858223 0.300599635 1.46185541 
-14.7265577 0.196588486 -2.31842446 
18.8166504 -0.0719852597 -4.23314285 
0.217215776 0.089766033 -4.58587074 
3.79808712 -0.0225882865 23.9935932 
5.85468483 0.103002191 3.9008472 
-22.0209885 -0.036662735 0.591945767 
-9.17973137 0.108466059 -11.8072777 
-24.1079464 0.500511169 3.88932848 
-3.26214743 0.543691456 17.2126274 
-8.73121166 -0.027899554 -1.17949343 
-0.476414442 0.0545405969 10.3047752 
0.990848541 0.343403965 -17.0642395 
9.33945847 -0.213601634 5.1277113 
15.5737238 -0.151165411 -14.6374521 
-13.3823185 -0.232772097 -2.95294571 
-11.7291241 0.101504408 -18.7453976 
16.7623138 -0.116622902 6.01347733 
-7.68964911 -0.324115753 -8.83238316 
-10.3837223 0.357518405 -13.1699762 
-13.7308636 -0.342909276 6.98993826 
6.66377783 -0.147090375 18.9427414 
-2.04993749 -0.188113704 -2.39196396 
-0.121139795 -0.0806382596 1.37366879 
9.95164871 -0.0887412801 -21.2625885 
7.38039351 -0.0774836764 16.5624447 
10.5228004 -0.0069982768 0.0250238329 
-12.4641409 0.0592469759 -0.606318474 
1.8228327 -0.0425954275 -5.71426582 
-0.348281801 0.105386451 10.063942 
10.2871666 0.125698745 15.1727085 
-16.2758751 0.344745368 -8.5588789 
24.6392403 0.373756081 11.4434099 
-9.92308998 0.0631399155 -2.97522235 
-5.13649082 0.418176919 20.5113564 
16.450779 0.0320102088 8.69975376 
-3.57363892 -0.477356255 -19.5123634 
10.3377647 0.383792162 -11.52635 
3.07901001 0.0131194908 -7.3054409 
-0.843469441 -0.117111996 -11.0124388 
-11.3157644 0.0519674644 -2.23895216 
1.07983506 -0.143491238 -12.1229763 
2.31851149 0.255552739 0.553110719 
-4.1318922 -0.163455829 7.49923754 
5.81187582 0.0752467066 13.2233486 
-16.4526749 -0.119671069 11.8976469 
-15.6310921 -0.0717072114 9.68335915 
7.01765156 0.314332247 -15.9388943 
8.98971558 -0.123038821 -17.6386738 
11.584239 0.229583323 21.599575 
