ply
format ascii 1.0
comment created by gply, a Houdini tool.
comment converted from .[b]geo
comment for more information about Houdini, try:
comment www.sidefx.com
element vertex 1270
property float x
property float y
property float z
element face 0
property list uchar int vertex_indices
end_header
0.0252397545 0.0183849782 2.80219674 
13.3144732 -0.048526898 8.11295033 
-21.2262726 -0.208404422 18.1403179 
-1.3351624 -0.256604731 19.4999657 
23.9508781 0.30532527 -22.3411427 
23.0620651 -0.0921502933 -2.6218605 
19.2749634 0.0626618639 11.7973452 
-12.0836372 0.133171007 -6.88701582 
12.600111 -0.207094654 -24.100481 
20.0867729 -0.048940856 -16.4390564 
8.16311455 0.579877138 7.99463844 
11.8151999 0.0484391265 -13.3499136 
-0.525926888 -0.475190729 8.55538177 
15.024231 -0.340426683 12.2841368 
19.1153469 0.291542411 -8.30827427 
-13.9533958 0.141844302 -6.25466108 
21.8309822 -0.580403447 8.85139751 
15.6922464 -0.402740568 14.8051004 
-6.06333494 -0.801161885 16.7988834 
-18.7040195 0.0822890401 -18.5243149 
-11.4409609 0.0690976232 4.53873348 
18.4915943 0.175818473 -14.1324339 
19.1187363 -0.0562750138 2.18840623 
-23.7309208 0.228640407 -1.01501405 
7.86188745 0.100869715 18.2753925 
13.3050947 0.439643592 4.80935192 
-8.62737751 -0.16178304 5.60326624 
1.24060309 -0.171838939 9.19974327 
-5.85117531 -0.789775789 17.3318005 
6.46168232 0.593085408 7.99955606 
-5.66809273 -0.20765543 1.95943332 
-9.38832188 0.326469481 -19.2835369 
-17.3040352 0.237368315 0.180808485 
14.0639811 -0.190910056 14.861001 
-12.3089428 -0.0367184542 8.22715759 
-1.79656696 0.089395985 0.441559076 
8.96481419 -0.0553684644 19.7432423 
-1.22361016 0.195923105 11.3523006 
24.3546963 -0.263283134 2.42043495 
5.77850389 0.548248291 7.46360111 
22.4065437 -0.25894174 -1.42761922 
-21.0700951 -0.186523765 -10.4301157 
-21.7012539 -0.189186558 20.1763535 
-11.6277533 -0.123265654 -10.2219934 
-7.30219078 -0.577434838 14.3305588 
10.9323521 0.176627681 -1.02575636 
-4.42243719 -0.318941444 22.7363148 
-18.0410271 0.186667919 13.9496231 
6.19880772 0.196373641 -10.7139387 
8.28341007 0.201522484 13.1149158 
23.0862179 -0.0689090639 -7.55072403 
21.8801575 0.352365911 17.8844433 
6.17959452 0.179442808 -25.0342007 
-3.69833922 0.0726269782 -22.6444283 
22.5761833 0.172265038 21.6127567 
8.9965744 0.23871693 5.5274291 
-9.32023525 -0.12474601 17.907383 
3.65184307 0.275270402 16.5846062 
1.4127574 -0.508534372 -19.185173 
-21.9939594 0.277365983 6.45889854 
-10.1740255 -0.231455788 5.48329115 
-5.71201944 -0.271373957 12.3259554 
-0.873512447 0.138214126 -14.3909883 
10.0710011 -0.152632982 18.4542904 
21.1681995 -0.136182442 12.3155098 
10.7528086 0.0342067592 11.5875139 
-7.9461832 0.197182491 -11.2216053 
-6.83258343 -0.744067967 17.7171822 
-16.4538631 0.521266818 14.713891 
-10.684948 -0.274464637 0.807401776 
-24.6431427 -0.212332293 -7.53668404 
9.90649986 0.00953450985 -24.7841873 
8.44596672 0.537752748 6.68780184 
-0.671236813 0.320377767 14.6002703 
-2.77605224 0.00528893759 -8.00720024 
23.3840694 0.125427976 -6.60790586 
-3.48463345 -0.216786951 -4.64543867 
19.6848793 0.472706616 -10.7903776 
-4.82908106 0.0464220382 6.14885998 
-19.4131165 -0.4032619 -11.0752163 
11.7605 -0.0471014678 19.2728539 
20.987978 0.433529198 15.5554304 
20.5744553 -0.423870534 -23.9070129 
-23.9580479 0.0898348391 1.9647305 
-12.2604637 0.488136381 17.7498379 
16.7769432 0.674284935 -8.24494457 
-9.26485634 -0.213738292 5.20633459 
-2.60434222 -0.124908477 -6.00280428 
11.2808466 -0.390971571 -10.6290779 
-18.8970718 -0.120471999 -15.263958 
-19.8355408 -0.19249472 15.9328909 
-18.5360107 0.591055989 5.30474091 
11.1166925 -0.290228218 -4.28242826 
-17.67976 0.26777193 4.28948641 
-19.7357674 -0.406047732 -11.0418978 
-14.2318783 -0.0127315596 -9.34569836 
19.1143417 0.382109165 -12.7570553 
0.421561688 0.0424993746 -6.81947041 
-7.08373785 0.288287371 -15.6494465 
-6.54544353 0.423341841 -17.4782963 
-19.4919224 0.00186565518 -17.849371 
-23.7814083 -0.0334310196 12.0193243 
-12.3160429 0.261054993 21.0156803 
2.65035462 0.370088369 17.6651764 
8.73993969 0.171549723 -21.0317879 
-10.3651228 0.0207586884 -10.4098988 
-14.7115316 0.0279227383 -7.75279999 
-17.7756767 0.302342594 -5.29272461 
12.4260559 0.0976097882 19.1846294 
8.32830334 0.120170243 1.69789243 
12.4839478 -0.256134778 -6.6828208 
19.905035 -0.495981902 4.03154755 
-10.911437 -0.0300290156 5.20370102 
17.3236198 0.44774875 -11.2823772 
0.472775906 0.0165309347 24.4327545 
5.10409117 0.0825320631 -11.9022636 
-3.64241099 -0.113930345 -7.54473495 
-18.0642128 0.324401885 6.43951225 
15.4206181 -0.267343968 15.4853334 
19.0420227 -0.0463149585 0.00216901675 
19.4645061 -0.0939897075 -2.95841026 
14.1030235 -0.141762465 -12.2769108 
-16.2370739 0.056788031 5.62583637 
5.99798346 0.549137771 19.6183872 
-19.8367138 -0.213865742 -14.7059746 
3.41463065 0.0300200786 -9.76626587 
-3.98081303 -0.264052153 14.6974525 
3.38564825 -0.0270915404 -23.4558411 
9.39774132 -0.0422136001 -0.615634978 
-11.1156635 -0.240674764 -1.44926012 
-4.77141285 -0.392619282 14.9764938 
11.8244591 -0.0568869337 -23.5244694 
3.59840441 0.012765347 -22.720068 
-21.5527725 0.251383066 9.73324585 
11.4364023 -0.312544018 -4.18205833 
2.26083112 0.173377082 -9.20863342 
0.103268594 0.00154441549 22.9284248 
-23.5017147 -0.44515878 -9.42674446 
-18.3851852 -0.000674691051 16.2515831 
18.2898521 0.382180244 -10.9284105 
24.1027794 -0.278742462 10.2452326 
24.1285648 -0.133299172 14.3684092 
-12.523324 0.227760866 10.9896507 
3.65803432 0.0433424264 -5.30320644 
1.91487134 0.428741753 17.8566589 
19.0833969 0.249745905 15.2452717 
8.02361679 0.00432483479 -14.6747036 
-14.1026688 -0.0381637402 22.0050011 
-3.51467848 -0.17588903 -4.31251574 
5.07913589 0.0548659042 -18.2956104 
-10.083602 0.321329445 22.7002983 
-0.245674819 -0.0549888499 -7.97146749 
-10.8049927 -0.229664832 -13.2010183 
-8.13603306 -0.306782424 3.71939039 
-18.108881 -0.256765842 21.595192 
-2.09921432 -0.115007609 -5.66468477 
-16.6599617 0.123763479 -4.61887884 
-11.3530092 -0.0958442241 -10.9491415 
7.49921846 0.0233749971 -6.28757143 
-16.989563 0.247603476 -4.97822523 
-8.21687698 -0.600199282 -5.01775265 
-0.515000343 -0.212935105 -20.8781567 
16.0899944 0.150224417 -0.396029443 
-8.32928085 -0.146378651 5.15439177 
-6.58283377 -0.2226841 -6.4274559 
24.3217525 0.0212525893 18.5307846 
-1.04954457 -0.648211479 6.95735788 
23.9789505 0.15465413 -14.4142761 
24.8154411 0.530344605 -18.4758015 
-22.9782944 -0.0119724525 12.343153 
24.6128159 -0.483438522 -11.9820328 
21.5547104 0.163887054 -11.3048458 
5.17866945 -0.0137974685 -2.42628241 
-11.2164803 0.0833138302 -4.99933863 
20.4767094 -0.0846360698 9.9388113 
5.02677155 0.176532015 -24.4334641 
-11.7310133 -0.0700467899 -16.6468391 
8.2908535 0.0756874308 -4.08476591 
22.3235168 -0.163117006 -2.13587666 
-13.3385162 0.266729295 19.7603817 
9.98728466 -0.697182178 -8.93375206 
-15.1742878 -0.135706931 4.43505096 
-23.2633724 0.19305557 8.38232613 
-6.80460691 -0.368652552 -5.77147961 
1.58392131 0.118138947 -6.578578 
-20.4297104 0.731699824 0.817041218 
12.2037802 0.153391212 -0.655347705 
-16.0486279 -0.605218232 22.033699 
4.63910961 0.699618399 22.0942211 
16.0216198 -0.451742887 -24.1490097 
1.51727581 -0.320264786 -2.17772675 
-2.70493197 -0.302176625 18.9922867 
-17.0414371 0.215009898 -2.66861796 
-14.3399305 -0.101345748 4.00227594 
-9.26856327 -0.230407417 8.71158504 
12.9909382 -0.134305015 14.7296829 
-21.2197781 0.562436521 0.553217292 
-15.7490702 -0.642261863 -18.2436104 
-13.9005089 -0.110912777 -11.2080212 
9.60374737 -0.17157504 17.444025 
0.395632595 0.142156407 11.0955362 
20.2919178 -0.252789438 19.0914211 
-8.89211273 -0.439685643 -0.902308702 
21.7893143 0.318668455 16.1327438 
-11.6224461 0.137768373 -6.09059429 
-15.0117903 0.235876948 16.0184345 
-6.47781134 -0.245662048 9.01908684 
-24.2679024 0.439727634 20.1308727 
-22.8721962 0.186114445 8.17918301 
-12.3931456 0.113470785 5.3159709 
13.7476244 0.196217552 18.5099678 
4.35962248 -0.00947043858 -10.5405073 
-11.1488056 -0.137261003 -7.49052763 
19.0903263 -0.638529718 -24.2063866 
6.66102457 0.404289752 20.1462631 
11.1713209 -0.382785171 15.5544643 
-12.7014351 0.0832649469 24.5446548 
-7.98679781 -0.277920425 3.74550319 
24.2895355 0.457381189 -17.508997 
-20.4759827 -0.279090226 14.968792 
24.5009613 0.263724118 -21.6426716 
0.0603579581 0.326572865 18.5256691 
-12.89077 -0.0500436947 6.99504614 
6.31728172 0.281315446 -17.3144398 
8.93474197 -0.568551958 -8.25107002 
-8.16419983 0.272048503 25.0795326 
-2.75638032 -0.213336587 -23.4231529 
12.5769119 -0.149557263 -3.81132674 
1.76023352 0.588261187 20.2185879 
-25.1768589 -0.467798173 -10.1714268 
-7.36921024 0.321438879 -14.9199953 
-5.57427788 0.578800619 -14.2670612 
23.0556583 -0.0691969395 -23.684763 
3.91143227 -0.00178157771 11.3972769 
-22.8625622 0.0646990314 10.3499165 
15.3191271 0.349140644 3.11805296 
-16.3278027 0.210069895 -6.50128222 
11.4943695 -0.42388314 -10.4789543 
-15.4095659 -0.0271013957 -9.69740582 
-20.5945702 0.134548903 -17.0098019 
-6.67891264 -0.657461107 15.2465725 
-4.59771681 -0.0638137758 4.97200823 
-22.3513985 0.414345682 -2.34347868 
10.6232996 -0.479948044 -11.5355082 
21.0146694 -0.199681982 11.6347914 
0.98249495 -0.437563062 6.84267521 
6.93473673 0.228215098 -10.696311 
16.2982445 -0.0108345961 -2.56911087 
-2.62417293 -0.198324963 3.83563614 
17.2681122 0.505174458 -10.604332 
18.9388237 0.253564805 12.8174562 
3.80029464 0.23522532 14.3824863 
4.80620909 0.130916223 12.7810402 
17.8082161 0.082883738 -0.759659171 
-8.03962994 -0.0737692192 5.88345051 
20.9054451 0.264336795 17.1860962 
-15.769804 0.083429493 -6.05456924 
-18.08955 -0.0114607532 18.9514332 
-6.28606749 -0.801592231 16.9567585 
-20.1800823 0.587733865 3.82713079 
-0.585147023 -0.000819552224 -4.45926285 
-22.1924229 0.0493844673 12.298027 
-9.15666866 0.13055414 21.5804634 
-1.17605269 0.162998185 16.0129089 
-15.5057106 0.134308249 -7.51854849 
-3.9517045 -0.192353398 -9.24890804 
18.8253193 -0.315507323 -16.2859058 
0.322376043 0.18164961 12.2336559 
-5.49921989 0.225214273 -17.0787964 
15.9293995 -0.379963607 -20.4682789 
-2.08038902 0.0970856845 -18.7625885 
-23.0587845 0.279015034 22.8970852 
12.5871296 -0.243352741 24.9027367 
-9.36633015 -0.240302712 9.46091461 
-10.7650394 0.262290716 19.690733 
-23.319334 -0.185048938 -13.0891151 
3.20215225 0.113859341 15.566473 
-5.04634094 -0.103943408 1.7423259 
-18.1195202 0.317879438 0.34089911 
-20.0143299 0.477349699 8.1074543 
-1.41391659 -0.0558573604 2.67273045 
10.5728254 0.0179813672 -23.6215286 
-24.3435707 -0.189433455 -13.7940712 
-7.98715401 0.247029841 -18.777895 
21.4235706 -0.141796961 -4.50892782 
10.5559559 -0.027223438 -3.53173113 
19.2163277 0.221902639 12.5661879 
16.5944576 -0.137973174 15.2735062 
-13.3247299 -0.079198502 -19.0729828 
3.90533495 0.252040386 15.6578398 
-20.9483452 -0.0657957345 -6.57856131 
-13.9138517 0.0137503445 -10.1623774 
-3.45776248 0.0237900708 -10.793643 
-6.78292465 0.352819145 -10.731472 
-1.48914218 0.280234396 -11.0446873 
23.1882172 0.295960307 -15.2146168 
11.5944118 -0.41401419 -11.0942497 
-18.6727619 -0.0235238653 -16.625227 
-16.5505161 0.261253059 -2.7080369 
1.57125711 0.0482261293 -6.21260118 
19.7495804 0.297465473 -9.45405865 
-16.9990349 -0.525635183 -16.6775246 
7.90311527 -0.30978781 -10.8508825 
14.8617706 -0.402639449 -21.8169289 
-21.7063065 -0.134970233 -8.43762493 
-5.28542328 0.41775763 -14.6893826 
6.75816154 0.484540701 5.08422422 
15.3728876 0.100119151 -2.68214846 
-24.3039989 0.0790043399 10.7546749 
-7.70647621 -0.277564824 -7.67145967 
4.56551552 0.0881389752 7.84498787 
22.3942337 0.12574774 -11.4674721 
-3.72396088 -0.0545704961 -6.86591291 
15.0508242 -0.503739476 -20.8876038 
14.7840624 0.207931444 -0.60961163 
-11.4883404 0.127308115 5.3524251 
-1.04368913 0.211032942 16.1402874 
4.60595989 0.153421536 -8.11768341 
18.7705574 0.356293738 -11.3919401 
21.4162235 -0.260597736 -1.5828414 
-6.60368919 -0.313782722 21.8749542 
-2.39747882 -0.379166335 24.0353394 
10.9351625 0.314596266 4.57748413 
-11.6038685 -0.362080604 0.0923147425 
-2.67525911 -0.0485990308 -4.8110261 
-23.3856697 -0.404062092 -9.10889149 
0.783826768 -0.206603676 2.63286686 
4.35418701 -0.0226735454 -12.9671898 
-9.75639629 -0.0191022102 20.1479588 
-22.2753716 0.279164821 7.54752684 
-19.9559326 0.601802349 3.71818089 
14.0424929 -0.0268163234 16.4043045 
21.4324379 0.125559881 -8.60208988 
-5.32710218 -0.0355869904 10.9497795 
20.6293163 -0.0743601844 -4.97229004 
3.14752197 -0.0762292147 -5.62356806 
-4.71268845 -0.0755965561 -8.47697353 
14.406641 0.499417961 3.11165738 
1.10425103 -0.359304219 7.38063622 
4.44512224 -0.0851370841 5.61909914 
19.0508442 -0.185627192 2.92733979 
10.0056896 -0.214424312 15.4339323 
-14.9278107 -0.251604021 -11.5280981 
11.2850952 -0.0203615129 -13.5599461 
13.112649 0.0316903107 -1.13393438 
-17.0813122 0.155309901 16.4384937 
-15.6130533 -0.51625216 23.2164745 
-4.06743097 -0.0238256734 -18.7988281 
23.6162033 0.0349468105 -3.34446454 
-23.6229649 -0.473753393 -9.27922726 
-11.3572054 -0.183128506 1.17381918 
-16.7014503 -0.448421329 19.4698792 
-11.0688744 0.152434424 18.0377769 
20.9160156 -0.340331912 -0.821096063 
18.3491611 -0.215094626 2.66321611 
9.51426792 -0.148154348 -5.14495945 
-20.467926 -0.271981955 11.9510517 
-14.7271357 0.0497967862 10.8188334 
3.04408407 0.0514357723 9.38980198 
18.5905361 -0.280916423 9.08780575 
-5.49645948 0.256130457 -19.1581974 
-0.58777976 0.0897578001 20.8635063 
19.475975 0.370738983 -13.5576544 
15.0474215 0.0631435513 -4.59229946 
5.11475849 0.172095984 -24.7127686 
-5.50437069 -0.09365163 -23.5271263 
-19.8807278 -0.151275933 11.1687202 
12.37745 -0.261019707 -7.44298029 
-15.7734432 0.253081828 9.27986336 
-7.89113712 0.226431653 -21.6672249 
19.0944195 -0.465240926 -21.9311104 
-12.7934723 -0.411028683 -2.58656502 
5.81989574 0.178568512 -14.809392 
17.1681309 -0.52892071 -22.153883 
6.08434629 0.444692194 18.7004471 
22.1200657 -0.417086005 6.10406208 
10.5489159 0.148997039 6.98855543 
-21.3126926 0.0937373191 23.985384 
17.7116203 0.443007797 -11.4893274 
24.2956009 -0.168492764 14.4382353 
-4.31488609 -0.245914966 -8.24817467 
24.8882046 0.382086098 -22.4656582 
-1.8130914 0.240405023 -14.2202129 
13.046134 0.64418298 3.91513228 
-5.10156584 -0.212250859 22.7586823 
14.9529333 0.174488485 -5.71243525 
-7.93172121 -0.211377174 4.05449486 
-7.73528385 -0.462889731 15.38169 
13.935379 0.13106671 6.57678938 
-16.441021 0.259967655 9.66282845 
-2.72055054 -0.470375806 20.4614334 
3.32391119 -0.343523592 -14.8280697 
5.55651236 0.528703511 6.80987024 
-15.6123648 -0.305253446 -14.6936207 
-1.59392536 0.198142499 -0.792885005 
-24.4552841 -0.298071265 16.1632214 
-19.0332813 0.236182258 7.63262701 
8.88790131 -0.124243855 -4.86381483 
21.9139919 -0.463459551 0.298978239 
8.74432468 0.0802098215 14.8337898 
21.8202076 -0.0141332047 -5.91548347 
1.87559843 -0.104365788 -5.53325272 
22.7328568 -0.51098448 3.68016267 
-4.72059774 -0.13064836 3.44882917 
-7.96414661 -0.225271061 2.37414742 
13.3623772 0.0332182944 -15.3696909 
23.2627678 -0.120405696 13.7007418 
17.0666142 -0.649244845 21.182394 
-5.31637859 0.303239256 8.2824707 
20.6746292 0.301381946 -13.3565826 
-13.2710695 -0.0655809715 3.07354832 
11.1335659 0.289224982 5.06373119 
18.7711811 -0.301260978 7.78694916 
-23.7399979 -0.426160395 -12.4011974 
-6.1114068 -0.755220234 15.9803982 
10.7079325 0.0342002288 11.3041153 
-17.6862583 0.32160601 0.655460715 
16.3308887 -0.0494344085 -2.10625148 
-24.5822067 -0.0135718109 10.4988785 
-12.4557953 -0.0711553395 -10.503562 
16.2945919 0.00489158183 5.43821287 
-17.6519547 0.167492762 2.24312162 
-20.3061008 0.41667071 5.15198183 
18.8397408 -0.208204389 3.06219411 
-23.0611382 -0.0659850165 19.6170788 
-11.9605227 0.133774638 6.09876204 
0.613409162 -0.150510743 -0.468307495 
12.7225065 -0.0932171568 -2.5435524 
-23.2789783 0.527724326 25.1734657 
-18.7582664 0.0111275138 15.8641157 
-22.1440678 0.179092392 11.3422518 
19.863163 -0.57474637 24.0898113 
12.319972 -0.243857458 -5.9451685 
-16.4194298 -0.411337763 24.319746 
-9.29647636 -0.612790704 12.3532896 
12.992568 -0.157741964 -12.2580233 
-6.15999222 -0.373502851 -2.36713028 
4.19943762 0.685740829 22.7427158 
24.432518 -0.215951368 2.90341544 
-16.9926491 0.336385965 14.0725012 
-4.67853785 0.0973372459 10.605298 
-4.43472862 -0.0959148332 6.5870986 
2.97776866 0.514609277 18.83008 
9.39329529 -0.0279400703 -15.3921614 
4.30165243 0.0275604874 -10.3867989 
18.8255959 -0.673780382 -23.1856041 
-15.821682 -0.0083694458 -9.93468952 
4.99604607 0.197731435 -24.872654 
-14.40275 -0.527067959 -1.02251792 
16.0573807 0.207843319 4.45963669 
-13.2475653 -0.0591527559 3.2385335 
10.3597031 0.101937205 -18.4961891 
-19.5297165 -0.180649981 11.1275721 
24.5561008 -0.0749753639 9.83271027 
14.9405079 -0.243352517 -13.1538792 
-18.6100254 -0.168659955 21.4988289 
8.06379032 0.360009253 -22.0846996 
10.2128878 -0.143932268 18.4536057 
-7.81298208 -0.750986934 -3.85932255 
-24.5736294 -0.251160771 14.2014112 
-6.66122675 -0.181273535 22.4584332 
18.489233 -0.564261258 20.1640759 
13.2345591 0.660201371 3.96687579 
15.500145 -0.105633251 8.9509716 
-19.2502937 -0.185960621 20.0697289 
7.89287281 0.434925139 6.15687752 
8.20107555 0.0425819531 16.8539848 
-24.2628117 0.521637559 22.7785664 
-24.4883671 -0.414276451 -8.91062164 
3.79661822 0.763453007 21.1103668 
5.61088371 -0.00741830328 -21.665184 
4.55672073 0.383282781 15.5264311 
6.60769176 0.46189031 15.8615637 
-23.519619 0.228866592 8.07896042 
20.6624069 0.311176956 -12.7092609 
20.4435883 -0.363791078 0.907154024 
-17.1520023 0.114345245 8.99124718 
-6.17823982 -0.268038869 1.94910049 
18.4056206 0.426615804 -8.13996315 
13.7594948 0.140167981 0.247567356 
24.8108768 -0.107046068 -13.9327698 
-8.60479832 -0.327450365 7.55035925 
-18.7102776 -0.018452622 11.1414223 
-17.2972908 -0.461587697 -17.2784176 
7.64320898 0.1284623 -15.1913347 
16.8335991 -0.387992829 9.18251801 
-24.9275837 -0.0826928392 -14.5564861 
12.0833311 -0.153812692 9.16138268 
3.03113413 -0.384536266 -16.6010456 
5.47287369 0.146884218 12.1073303 
17.2387104 0.086088866 1.67694426 
-9.86741352 -0.604564548 12.1985378 
-17.8670616 0.369723022 7.11359501 
3.10604215 0.481344372 17.8984604 
-24.8854294 0.36375463 -16.6060982 
3.9922719 -0.0345452465 -12.1627197 
3.36736917 0.15342693 15.0971642 
-13.3662043 -0.299101561 1.3297205 
-20.3856945 0.483524352 7.98144674 
-7.40354681 -0.458560526 19.7717304 
15.6026001 0.0297576636 7.47634697 
-0.969417334 0.0107539902 1.64625132 
-19.6982594 0.897171199 -1.89674151 
18.3064003 0.0163072832 -0.544000387 
6.21354532 0.56125021 17.5645103 
-14.4978733 -0.591517508 -0.692659199 
-20.8182487 0.00999532826 23.8469219 
24.0841255 0.233537033 -5.3772192 
22.3264637 0.0117986854 14.8883076 
8.13799572 0.00283699646 -4.66602612 
20.7597179 0.0551724732 -15.5927982 
17.2658958 -0.495470047 8.92145252 
7.82213116 0.253977358 2.06087685 
-3.86131811 -0.143262014 4.25765228 
-19.9835987 -0.184158981 11.4267426 
-18.967577 -0.547022581 -9.99991512 
-10.8834229 0.135265499 -18.7643547 
-15.5723104 -0.0153707052 -5.04055834 
19.6667328 -0.0297566298 -15.8913927 
-12.7712564 -0.1261345 -18.4897366 
14.4406843 0.0794737041 17.8618755 
-16.0668278 0.214790717 11.8354282 
-20.8359604 -0.0704113171 -14.3029099 
18.3731308 -0.415717065 8.16011906 
-19.6148643 0.9340657 -1.75412416 
16.8799152 -0.00985050481 -1.41567612 
-24.8331528 0.503033102 -17.2467041 
1.09990227 -0.13058798 -4.09380817 
-23.2644958 0.0512629002 12.0473185 
-17.1038265 0.191135153 1.98723435 
8.47511482 0.197169185 -20.662138 
-22.2795849 0.324800819 2.39641047 
20.0863781 -0.000647008419 -2.29454112 
22.5707645 -0.138497964 -10.2904377 
18.6588135 -0.621681511 -22.678957 
-5.88782597 0.0250513051 7.86726141 
-17.3937244 0.0681970716 17.1934795 
-17.4339428 0.159762114 -3.60056829 
-13.6876144 0.0516158193 10.2125015 
-5.89695978 0.175993606 -17.785387 
-21.8216934 -0.417193621 16.3400478 
-7.02409458 -0.262133151 5.42440701 
7.13900614 0.277415484 4.41205835 
16.7292709 -0.328806013 -18.1152477 
-20.2574806 0.30186075 9.34894085 
-8.19896507 -0.445011556 14.6769867 
8.62221718 -0.373529524 -6.96914625 
-6.74118185 -0.261384726 5.64869022 
13.8882341 0.0746030584 -1.64452255 
12.0667543 0.278818965 4.89608431 
-5.63824081 -0.170573622 -3.20717478 
-4.72593069 0.159731701 -10.5471249 
-0.243779659 0.0722551718 1.08646393 
3.93917894 0.0879487693 -6.00440073 
21.3755722 0.128552094 -10.0276499 
5.76540709 0.377907813 18.865303 
14.2762051 0.386057198 4.80026865 
14.752718 -0.222332254 -13.4621668 
-13.1323328 0.106289543 -22.7985592 
-9.94088268 -0.228857219 5.85052538 
9.09787178 -0.584353685 -7.19660759 
-14.677639 -0.240385756 -11.1248379 
-12.7750521 0.10797251 21.9017639 
22.6068993 0.122353368 -4.92613268 
20.5042782 0.288650036 -13.7089911 
-20.5659733 0.506374896 7.06069946 
5.75520849 0.175831988 8.91759205 
-19.5242043 0.358463913 -4.03774643 
-24.558815 -0.0158245862 2.7055788 
19.8451977 -0.0195216201 -16.285202 
24.7933807 0.361782461 -21.1398029 
5.15926552 0.0941676348 12.1300325 
-11.5428457 -0.12809737 -8.45867634 
-13.7337179 0.255580097 14.8823233 
-1.29831123 0.103252187 -12.6719093 
4.819767 -0.117559887 -14.8800707 
-0.386292398 0.0234730691 18.3958492 
-4.36618853 -0.203186676 14.4889917 
8.23862934 0.25219506 5.10559559 
21.6417999 -0.154815048 -3.71974492 
20.1069241 0.107903466 17.6216908 
-7.83941746 -0.555788875 13.4740534 
21.3637123 -0.142022356 12.3637657 
4.45261383 -0.283635825 -0.440364331 
17.9277687 0.51106596 -8.01450634 
-23.2063122 -0.370194048 -9.72098541 
-9.84373379 0.0235872082 -9.3820734 
18.8312492 -0.0704231188 10.692565 
5.41039324 0.302837074 14.0133476 
-17.145277 0.210463792 -6.11877489 
-14.2974873 -0.0701861084 21.1209774 
5.66636753 0.259849787 8.49543762 
-6.92658186 -0.392708212 -0.539604545 
17.3774605 0.586360335 -8.68018627 
6.05868244 0.255973548 24.1690369 
22.2001247 0.139400229 -17.7545643 
-2.38051891 0.165850967 -14.424387 
4.29729986 -0.0201753899 -20.5528412 
7.32857275 0.371629238 22.8978786 
-21.7387676 0.258385986 6.00464678 
-22.8800659 0.213161007 9.29973412 
18.5299549 0.0268487092 12.5504923 
21.1340618 0.473361313 -12.1519938 
-11.9878798 0.0844760835 -5.0072546 
-8.25878048 -0.091833204 5.63222218 
-23.7838535 -0.548122466 -10.0274363 
-22.7707939 -0.210035041 13.9606133 
-5.9971509 -0.268952012 2.24406505 
8.60773659 0.00892522 19.0808449 
13.8411436 0.128703922 6.460989 
2.43497467 0.0507444628 11.1089268 
2.7956264 0.0537904203 -9.50153732 
5.50219679 0.152448237 -7.48683119 
19.0269222 -0.0621119104 -0.141461983 
5.72273493 0.132911041 -24.4207363 
-12.4612494 -0.298903704 0.799515128 
13.0650673 0.162296191 -0.324701816 
2.25293159 0.538817883 22.4398499 
-17.4434185 -0.329514593 20.1340122 
-7.76157856 -0.465214401 15.9828291 
-16.1767731 -0.379254758 -23.8110695 
-15.8337851 -0.0434695221 -10.3300953 
6.113729 -0.0111219613 -1.03819537 
-0.249736443 0.165239483 -2.86401296 
-12.8285885 -0.035394419 9.89041901 
-11.889122 -0.193430841 -10.8488111 
2.83443022 0.161924303 -8.18566322 
-23.451046 -0.431994408 -9.58643055 
-13.913497 0.216929197 13.5498085 
-11.9402847 -0.169899479 -10.9664488 
9.39898968 0.0676084906 23.9019585 
-4.56632757 0.221244767 7.82884216 
-9.46511173 0.0886857584 -8.33625412 
-1.57535291 -0.534344316 7.902143 
-17.8355083 -0.156057253 -9.75932121 
18.8803234 0.310569704 -10.1383553 
22.6099243 0.0355872586 -19.5873013 
2.73864126 0.213625729 24.6350689 
-0.731937349 -0.227591231 -24.3537064 
-1.83790505 -0.081349276 -7.59257174 
24.3969803 0.444563091 -18.3307476 
-7.02128696 -0.602973759 -4.52521896 
14.3688011 -0.38220349 -22.6284027 
1.43036604 -0.0168559104 -5.39617252 
16.3581085 -0.402201295 -21.7534885 
13.0047989 -0.281993032 -24.7286644 
1.879884 0.0813792497 -9.60955811 
21.3307495 0.303373516 16.354084 
-11.7145386 -0.14766252 -12.0339012 
19.443552 0.262560815 -8.53966141 
21.4784546 -0.464115798 4.7802577 
-19.0682392 -0.0367432088 -16.3946686 
-2.37763309 -0.170188636 9.52347088 
3.60503721 -0.287007093 -15.2013416 
-15.7921705 -0.441858381 -15.8514051 
7.84600925 0.244195953 -3.34918666 
-18.4537334 -0.157985836 -14.2659559 
-2.58666205 0.30308044 11.9081087 
15.9809017 -0.520501196 18.525486 
6.54473257 0.209929302 -8.21040916 
3.39506531 -0.29784447 5.7342577 
11.2899189 -0.00833285041 9.25918865 
-21.2778015 0.00242335489 22.4129753 
20.0532436 0.127618432 -2.61440039 
-9.4903307 -0.288496703 3.64367223 
-23.986887 0.720431805 -19.2718334 
24.9968643 0.0888616145 -2.0269568 
-10.4275007 0.311055273 23.6029167 
-9.52466011 -0.386116654 -3.9194541 
14.4114876 -0.116850972 -8.75482178 
-24.4280109 -0.279542327 -7.80117083 
-8.69636345 -0.184505165 -7.4836936 
-23.2732601 -0.317232013 -7.40738106 
-4.3570714 0.334438443 10.1057253 
-13.1267481 -0.0674137548 9.92794323 
-7.05281115 -0.183392584 3.29086971 
9.8774147 0.133383095 -15.8250551 
-24.7964458 -0.273233503 16.6019211 
14.7045565 -0.146940976 10.9276352 
-0.814650416 -0.266294718 4.57989502 
-5.80260849 -0.199655667 -6.84816599 
1.15079796 -0.255904734 1.53915274 
-15.9206018 -0.463992596 23.5444546 
-9.53296471 0.271563679 22.7224388 
23.4116154 0.0301893316 -21.7829494 
25.2147751 0.120005719 -0.772011042 
-13.7124557 -0.14569132 3.55676913 
21.275074 -0.430598289 9.80660629 
-20.8599529 -0.263500214 -11.8567114 
14.4660025 0.32749185 1.166327 
18.4223442 -0.699663579 -23.3203125 
-20.5888691 -0.314280242 15.6332102 
4.82873487 -0.177197307 -16.1933918 
6.66283178 0.514345288 16.7726326 
0.946144104 -0.240049213 1.77236426 
-19.7881451 0.217484102 9.73504734 
12.7279215 0.0544488057 -13.9693041 
2.31871438 -0.325422674 7.2984848 
-12.9748383 -0.440870911 -0.191119164 
2.07986641 0.0490309075 12.8069906 
23.0841427 0.256635636 18.8018684 
-7.46470881 -0.219328448 4.86467409 
23.5558548 0.170933485 -18.847147 
14.9140511 0.364547133 1.34674859 
0.436279178 -0.406354725 8.87186623 
-12.485651 -0.426906794 -2.34321094 
-8.29928398 0.208321005 -9.62228584 
-13.1410599 -0.131096289 9.60941696 
18.7713642 -0.696893394 -23.6025047 
5.23400211 -0.025429979 -1.66938639 
12.8633404 -0.380773455 -20.3226643 
-23.3123817 0.357729644 -0.26499778 
-5.5181365 -0.00631759502 -8.02776337 
-21.9737186 -0.177124366 -6.73209953 
-17.9286728 0.358169675 3.29316425 
9.40871048 -0.107630029 19.1548233 
-23.3543339 0.187887445 6.74958324 
-18.8890724 -0.0669877604 -6.63987541 
17.4207344 -0.205299079 -19.1772747 
-5.07008648 -0.136426315 -2.78574634 
-17.1002903 0.224719375 10.9951773 
0.756185532 0.00278142956 -7.84341145 
21.6871471 0.149103835 -8.43103981 
-4.13364124 -0.120024428 3.52430892 
-10.1565304 -0.278958589 -14.0995331 
14.4776125 0.118426271 -4.23356152 
6.85689402 0.127052113 -3.10240698 
-13.6982985 -0.227644384 1.89758193 
-21.8981247 0.132969603 -16.3492069 
7.18429279 0.216073096 -2.76461005 
-1.87468123 -0.301702917 4.35945988 
2.46766639 -0.50156039 4.1113739 
-3.00012755 -0.375174701 23.496788 
-24.056015 -0.0907624736 12.8127441 
21.3592205 -0.189805046 -4.33572674 
-12.0446606 0.0601991788 11.0394011 
-4.83500862 -0.08739575 4.19335032 
-12.163969 -0.193460748 -12.8752537 
-10.2146702 -0.223816022 6.02117014 
-12.5122862 0.534713447 16.5127525 
7.26333857 0.153668702 -6.49736452 
-11.9981003 -0.163880602 -11.5121708 
1.37068403 0.0093522314 9.93254852 
12.5159941 0.0763998628 -14.0069704 
-16.6514225 0.593460739 13.5228682 
-2.52177262 -0.285553306 16.9709492 
12.9023199 0.200475499 16.8970642 
-15.0399837 -0.0509252362 17.882267 
-19.1742878 -0.233537212 19.197052 
8.07027149 0.334371984 -20.4868736 
10.1371784 -0.157712087 18.2534657 
4.06011534 0.089332059 -8.96179962 
-7.72669506 -0.15752618 5.54335546 
2.85900402 0.0583220311 -9.04176235 
-16.7086716 0.130109549 -4.2340169 
15.9272118 0.590010345 -8.28665352 
10.8054295 -0.0304990746 -14.4371624 
-23.7849522 -0.220877618 -13.1552982 
-23.3886833 -0.337958604 15.4869232 
-13.2549238 0.173520043 -24.3392582 
-9.83915138 -0.223903596 -0.503849566 
17.5978222 0.0796966255 -0.660824239 
17.1305313 -0.182655171 -16.5314598 
14.0291176 -0.0264444482 9.46484661 
-2.86508703 -0.150249854 -6.41242504 
23.1647987 -0.0165257938 -23.9215965 
-5.23191786 -0.365046382 -6.72388792 
-1.47984874 0.016526252 10.5078163 
-4.82428885 -0.0600950085 -3.9500041 
13.4500732 -0.594273388 22.0823154 
12.0165367 0.120414287 -17.3782463 
8.49935818 -0.100169763 -5.03905153 
-0.338411182 0.00694688503 2.53928733 
8.95188046 0.49973321 6.83169842 
-6.46095896 -0.208405331 -6.54006243 
22.1595268 -0.443497509 5.91149521 
14.1843243 0.533775985 2.30181289 
2.97778654 0.491730779 22.9381294 
-5.42306328 0.265571088 -19.3088779 
-7.55343676 0.11227522 -21.9238644 
-7.76748323 0.280975789 -17.5571728 
-16.5375099 -0.0693622977 2.34758329 
-1.32986057 -0.0402394272 2.85001159 
-11.7457094 -0.0657599866 8.07090759 
2.36488986 0.0799180493 10.541666 
6.7440505 0.490789533 11.3895826 
-8.35501003 -0.371298403 0.743022919 
8.3140049 0.076694265 18.9287186 
-7.60776615 -0.199322253 5.91577387 
0.595184505 -0.355612487 -19.1544857 
-3.99060631 -0.122943141 3.12511635 
-12.4883099 0.474366248 16.3071766 
17.8537369 -0.618840814 22.1389027 
11.151289 -0.0527810119 -20.9198933 
2.72340655 0.369392335 24.0261154 
-10.6390438 -0.214991048 -12.9251537 
8.81634045 -0.0110112829 19.0816097 
10.0806179 0.0143362386 0.414098471 
16.4231339 0.0519337393 -3.55152607 
24.2661762 -0.371252835 -8.54628563 
-4.59592819 -0.163731754 13.8626499 
-11.6211004 0.0153574049 14.5244389 
3.9385376 0.100982934 -9.27323341 
12.9232111 -0.050962694 -3.4629221 
6.37376928 0.525138617 17.8157654 
-16.1179085 -0.320723474 1.1667031 
11.4501944 0.477736175 3.43461013 
-2.57945585 -0.464747012 6.27778769 
8.14857292 0.567807317 8.30492306 
-8.46608734 0.0670500472 -8.9153986 
-9.62330532 0.10581921 -10.376935 
-8.31232357 -0.103565425 -14.0347414 
-9.78532887 -0.131613284 17.7559299 
-18.9246025 0.275719732 -4.42630339 
-5.34455156 -0.123955399 -1.22854173 
-6.99151516 0.360740483 -11.8957882 
-14.949275 -0.228329435 -3.20884347 
-11.5890932 0.155557945 -5.24575901 
1.63007545 -0.490989894 6.57299519 
2.80025411 -0.190331131 -0.397717953 
18.0395432 -0.261665016 16.7035847 
-16.9240704 0.249970362 -5.34480238 
12.2360191 -0.0293528885 17.2158127 
-12.2641802 -0.0700917691 2.48918486 
18.6211758 0.275707334 -6.25041294 
2.0699861 0.100368716 15.8846359 
12.34235 -0.0297405533 17.7364254 
9.96136093 0.254242927 9.81022453 
-20.5298901 0.704669952 1.41766715 
-6.7703476 -0.534849882 -4.14537477 
-2.98228121 -0.0493141524 0.954977393 
18.3671055 0.355364025 -11.44489 
-24.8022289 0.0847408473 18.3782921 
-21.0896454 0.396112412 6.06703424 
12.9926853 0.373171598 0.860110104 
-13.564415 -0.285544038 8.34847069 
20.1229572 -0.485024154 5.06578922 
2.06874013 0.168677568 -9.26749325 
10.3164644 -0.0757878572 -22.9821892 
16.854805 -0.241536394 -14.0318489 
22.590086 0.0464022309 -7.87395668 
-6.39087915 -0.15791744 0.666685462 
23.6541748 0.0808306336 -4.03279591 
18.1722069 -0.295561761 9.83305836 
-0.173276678 -0.146156996 -17.7263203 
10.5156231 -0.179209247 -4.76157427 
21.9487286 -0.0345716663 -10.3660889 
9.46247768 0.0840139166 -24.713932 
-1.9849453 0.327055216 11.9059067 
20.6093826 -0.4188326 2.4332273 
15.223074 -0.320336491 14.3750372 
-3.95001745 0.0571792051 0.0849704891 
0.0774661601 0.0885540992 -7.12001133 
-19.4081669 0.578281403 3.08054948 
-15.0122595 -0.0847058669 5.97288942 
-9.015172 -0.472039402 -5.51067543 
24.7772484 -0.112288199 3.67556643 
-9.39608002 -0.235904515 -13.1561499 
15.2995872 -0.309583366 12.4609251 
-12.2149277 0.285562187 20.1339321 
16.2373695 0.108120151 -4.64129591 
-5.16984034 0.315427512 8.27946949 
-4.44965029 0.525628865 -12.8688631 
-4.53382969 0.36689195 9.94713593 
-3.21454167 0.047507219 -0.60003984 
-23.6109333 0.213084266 8.27406311 
20.7743282 0.270824254 -10.3045158 
11.3152046 0.0604294352 22.5143089 
6.10424328 0.357305318 8.64706993 
-7.88965559 0.192626849 -11.0988913 
-9.9879303 0.0311903432 -9.02698421 
0.857607961 0.390609652 17.2381153 
-3.00086641 -0.137187213 -2.38317871 
-2.75862193 -0.0685242936 1.23194194 
-2.75336266 -0.277257055 7.86303759 
-10.6720114 0.225028738 19.5970287 
13.1141529 -0.247243479 -10.9800978 
-12.6030293 0.155681238 24.073801 
-14.0033665 0.0982327089 -8.18055344 
-15.595335 0.305050582 15.7703238 
-11.3957844 -0.382752031 -0.295782417 
-20.1795845 -0.238502905 15.3734112 
16.1061001 0.0740320012 0.795172751 
11.0325747 0.0300277062 -15.5462923 
-10.1077423 0.0802868903 -6.7111249 
-18.2803345 -0.313152343 -8.58397484 
-9.83209991 -0.0514452197 -17.8380985 
-12.8247118 -0.10360305 8.85046291 
-21.4477863 -0.200702921 20.5344429 
4.32584858 0.133170456 8.74332905 
22.3366013 0.17193532 -6.03275824 
-7.60793257 -0.570485711 16.5600357 
5.23257303 0.211108029 13.1245499 
-5.38312244 0.215230495 -9.19324112 
-14.3965788 0.0875976533 -5.27383518 
11.026742 5.84535301e-05 -24.4952755 
-9.66957569 -0.64557445 12.2603149 
-16.1500645 -0.541695058 20.4944668 
-6.28316402 -0.336095423 22.0431843 
22.198225 -0.118334867 11.9364395 
-11.8928928 0.0678311512 12.5076437 
-6.43017101 0.487352163 -13.081542 
-4.06464624 0.211382717 -14.1504917 
-6.31950951 -0.389710754 -1.61638379 
-15.4932775 -0.129206598 -11.5674105 
-2.07804775 -0.41303888 6.24356985 
8.47235203 0.200520784 13.5488224 
12.0631781 0.269672751 5.58497238 
15.1435938 -0.254200369 -22.6777592 
5.81413031 0.492181212 7.72483587 
5.73462629 0.127709359 -23.895174 
24.4141808 0.0130353179 18.3639565 
13.2695198 0.0567408204 -3.88163185 
2.16640258 0.274686247 -7.53968096 
19.7964954 0.363048285 16.059164 
-8.7728529 0.22094427 -11.8517542 
15.7430449 0.00769272354 6.15200329 
-21.802887 0.273363411 5.33029127 
14.792448 0.443259716 3.70535088 
22.1997337 -0.692398965 8.45901775 
3.96567512 0.000989193795 -11.0832357 
-18.3589516 0.604691505 3.63113809 
-19.3018169 0.488071978 5.82502413 
6.42552233 0.192023829 24.8566952 
15.0312471 0.237466753 0.719315588 
2.85564518 0.065180324 -24.441206 
24.4508343 -0.101846121 8.60317421 
-10.9007101 -0.252402693 -2.37452269 
20.0953541 -0.475380987 -23.7898808 
-17.9899693 -0.0751882344 17.1096668 
-20.6985741 0.4513731 5.00155592 
-21.1552677 -0.274757475 12.1300211 
22.6851177 -0.0934888572 -1.75558448 
19.3236923 -0.223953053 8.84889317 
-23.7964802 0.108462676 -14.695406 
-22.2176762 0.434176087 0.378121793 
-4.2036171 -0.20890063 23.5904999 
-8.42083454 0.292994857 -16.1486454 
-1.60622132 0.204584002 -13.797287 
-0.0268808305 -0.337074906 6.35119581 
-19.516489 -0.104431652 15.683136 
-18.299427 -0.0629541725 17.7130337 
-21.9237919 -0.351610392 16.9418163 
22.2455711 -0.433331043 4.65806532 
-2.9255116 0.21511741 12.4907131 
-22.6694736 0.164555296 8.81058121 
8.87279606 0.407303452 8.77613163 
-1.84142017 -0.105298303 -5.07806635 
20.9266167 -0.0258486848 13.2486267 
-22.1363983 0.431334257 -0.286966622 
-16.2032127 -0.659713864 -16.6779594 
-0.673235893 -0.156529114 -18.6003132 
-12.9680243 0.189235136 11.2537909 
-2.06624842 -0.062390957 -4.41045141 
3.89530015 0.417303354 17.7320328 
-17.7060738 0.0914118886 14.7177114 
-22.0330238 -0.121158607 -4.60469675 
-15.4666414 -0.143144339 -11.7156162 
3.72197223 -0.0563483164 11.866765 
17.38727 0.0547751039 1.12639892 
4.66155577 0.555885017 19.0855312 
11.4895735 -0.247102052 17.0744076 
13.3918791 -0.0140964035 -3.2511456 
13.3209887 0.0907275155 16.2320614 
14.9031706 0.235425055 -0.724844575 
-13.1993446 0.0768670663 5.25818682 
-17.6751499 -0.271388292 -19.0668659 
22.0840073 0.0532126948 -7.26543093 
-4.43789911 -0.124912746 24.659586 
-0.104132593 0.0198544748 -14.9411135 
14.390213 0.16430451 -4.5647707 
-1.23222935 0.211408526 -1.62710595 
-7.16764402 0.179994762 -10.2287979 
-3.70212293 -0.185174406 -5.69577312 
18.2608433 -0.0197930112 13.2221527 
24.0915852 -0.0277633276 11.8623734 
23.255991 0.112626627 -20.4508286 
13.059989 -0.335436225 12.6688261 
9.04621124 0.130414322 12.9499826 
11.4005289 -0.215551481 -3.47057033 
-0.727689207 -0.104341365 10.0333767 
-0.430210173 0.120776065 -3.24437165 
10.5866432 0.133634567 -15.7879667 
17.3475342 0.303780854 -5.66876745 
3.37478352 0.221821517 -25.2853355 
-2.64422202 -0.00718216458 -7.69468498 
-23.1538315 0.106811821 2.96025777 
10.7194881 -0.30974704 -12.8232689 
17.5896721 0.287555695 -5.4808917 
-10.8868561 -0.221111923 -11.5576248 
-2.44926453 0.135070145 -10.4141951 
-6.51496601 -0.683841944 18.9246502 
11.5399122 -0.0216148533 9.39579868 
18.353714 0.19889684 -5.59062767 
-1.79074442 0.172752023 -8.91972446 
12.5878687 -0.225625351 12.81001 
4.55236578 -0.148578361 -15.2377434 
-9.24080944 -0.349802345 -1.60989022 
22.8814468 0.242613778 -15.9320526 
13.5129099 0.0265013408 6.73400021 
-23.2534866 -0.308490843 15.1230135 
-23.4802952 0.362704784 -16.2289047 
-4.10619974 -0.134455338 4.86765337 
0.86610508 0.6249367 19.7349052 
-10.9579124 0.0667089522 -18.6401768 
-14.8650951 0.060180366 -7.85307026 
24.1669865 0.0422280543 -1.04243052 
7.61858463 0.0825143903 21.5238228 
23.8212948 -0.0199608374 13.8926897 
17.2746239 -0.225987077 16.3687954 
-4.50060129 -0.319677144 15.0006609 
-8.1068573 -0.250235289 2.46550894 
2.44242907 0.280029327 24.2201385 
16.4160652 -0.0601042286 -2.27650619 
-14.8164644 -0.465008676 1.0281558 
6.04681778 0.0757692903 -12.3271141 
7.26653051 0.17215617 -4.83110619 
7.1705513 0.328286082 16.4775467 
0.158883601 0.183605224 -12.5776396 
-5.21313906 -0.0804066956 -3.34092879 
6.79200935 0.15071632 -10.069808 
-20.6818924 0.0478666723 11.1451387 
-23.9480419 0.370955378 20.5106926 
-22.0662117 0.0292003751 23.0540314 
-21.3922997 -0.297778875 12.6841488 
-11.4915457 0.00175339298 -18.1936493 
11.6779966 0.440929294 3.69744468 
-22.1484089 0.127314776 -15.7133255 
-3.35935593 -0.152891859 1.77387607 
23.2144718 -0.0929613039 -11.2533579 
-2.66479826 -0.41259414 5.13081455 
21.5994263 0.296189904 15.8137922 
-4.69599533 -0.0839012712 -3.67271996 
-6.24460363 -0.419100285 20.9533806 
13.6211462 -0.0560113154 8.43329525 
-13.6625767 0.132634833 12.4700499 
22.6505184 0.188982621 -11.9265842 
-7.65700006 0.266441375 -16.8807487 
-7.26309729 0.157377765 -20.4838867 
23.122736 -0.131082982 13.9826984 
5.57915831 0.394277841 13.1102571 
-22.5895786 -0.153361052 13.6433926 
-1.26508844 -0.378771305 -24.1966228 
-20.7882729 0.414776206 4.69102621 
20.6187305 -0.363076627 -23.2187786 
21.9678288 -0.487663329 3.33968639 
-19.280426 -0.37194556 -11.1210976 
0.630041003 -0.399899453 8.32428837 
-15.2244949 -0.0713597685 -4.86205149 
22.0101109 0.209121525 -13.1847696 
-9.07472134 -0.530913413 12.7935896 
21.3047466 -0.403192729 6.09899092 
7.08620214 0.284496516 14.9903469 
3.19148159 -0.294011086 -17.6211834 
22.5741501 -0.510688424 3.39182615 
21.9054832 -0.477941126 1.11507463 
7.5816927 0.552327573 7.18200302 
-22.0760632 0.19023113 -16.9429607 
-2.5310154 -0.419071913 20.7773075 
-7.23671055 -0.416508317 11.3000984 
0.02732151 0.0604578368 -6.20748806 
-16.1170902 -0.099082157 3.26643443 
-11.4594479 -0.236274451 -14.2659655 
-5.19867659 0.455550581 -14.4000893 
-19.5763073 -0.17953223 17.7566242 
7.13841724 0.15633595 -4.82279587 
-11.1678295 -0.187185898 -3.60759926 
-2.98745632 -0.240755707 7.59447956 
-8.50876617 -0.257407457 4.84763193 
4.16434288 -0.303613663 -0.355829775 
-1.02635813 0.0946241543 -1.2531203 
-13.1307192 -0.148547992 -17.7010994 
16.0678997 0.232287556 3.20821023 
-9.25859165 0.136466831 -8.56314182 
7.76829147 0.215625703 15.3701096 
11.6622467 0.19717437 6.09163332 
-21.1760387 0.465627491 8.10461521 
22.7492867 0.16342485 -13.7955732 
-6.84116268 0.366001517 -15.3953629 
-23.0568161 -0.056432642 -13.7428989 
17.8798141 0.279981166 -5.10339069 
13.0325546 0.269777358 18.7567558 
-0.45856446 -0.0417162925 -7.73871183 
-20.7001953 0.383123457 -3.81823206 
11.825592 0.0952942148 7.00769186 
21.7537804 -0.493213236 0.540205479 
12.4147806 -0.308554292 -7.87357092 
17.4028587 -0.261309773 12.1729536 
24.0878849 0.113210529 -1.92966235 
-2.96760654 -0.15139544 -24.1843109 
7.40249777 0.287407041 15.4222946 
20.5057545 -0.346154153 0.747366905 
-24.2140026 0.0158626642 -14.8578024 
22.7245464 -0.659916103 9.63599968 
-11.005208 -0.270147145 -1.03980267 
14.9949961 -0.325593203 -12.6379747 
7.00170898 0.472108513 10.8484745 
24.8243732 0.499488264 -23.0007973 
3.98079872 0.526494086 23.3573341 
3.17704415 -0.112153754 -19.8315067 
1.67965627 0.228308812 -7.68924093 
-3.79147267 0.188517705 -15.1056833 
11.1321669 -0.374411762 -12.1423912 
-20.6433926 -0.204600126 19.5775833 
15.4024124 -0.401483655 -23.2836876 
10.4616194 -0.724196672 -8.57295227 
8.54832745 0.131947413 2.38105512 
-14.7652617 -0.4774189 1.56942022 
23.809803 0.0362998471 -1.14334297 
11.8484783 0.101345323 -13.8899717 
24.8601856 0.328627318 -4.61540127 
6.01778936 0.601083219 7.45831776 
24.6974678 0.303344429 -5.62548971 
22.4185753 -0.436099112 4.87634563 
18.7481766 -0.0999129191 2.04026246 
-1.28440273 0.370497823 14.0457687 
-15.6316862 -0.0217066929 -4.36704016 
-10.5068426 0.134249479 19.4521656 
-6.25488472 -0.146982253 0.574589193 
10.682188 0.325615615 5.30237913 
-0.821225703 -0.609793901 6.74523401 
-1.95213068 -0.023872437 10.6719627 
-8.48088074 -0.418464303 -5.62637615 
21.6113453 -0.319259524 10.6517744 
-3.11428237 -0.170320585 3.3086555 
1.57280433 -0.0273129772 -5.68822956 
-4.27278662 0.00581810717 -0.495692044 
-16.0936527 -0.0265128687 -1.11832011 
-10.49858 -0.235164464 5.34590769 
-2.48495626 -0.313383579 -21.2399235 
-11.3729534 -0.162444383 -7.9276104 
-16.9525127 -0.0959272459 -12.5354786 
5.88505507 0.180953652 -16.6223145 
-0.441792786 0.0143275708 18.0336838 
-9.58127403 0.0656244308 -10.8384905 
-18.5421886 0.308102638 -4.60087109 
12.4396839 -0.220702633 -5.46002197 
-21.0876007 0.517939687 -2.07714891 
21.7843704 -0.116976887 -4.64429188 
22.623764 -0.22408928 11.091361 
-9.53015709 -0.182368115 -12.4713802 
-4.68995667 -0.488760293 16.4471931 
-1.66801906 0.0059827324 15.3871298 
0.120310411 -0.466587305 7.75205755 
-23.8935947 -0.0509586371 -6.15323019 
-13.4671946 0.00903736521 22.8690987 
8.6434536 -0.518231153 -10.8133888 
-4.6063776 0.0537837148 -20.0713997 
-10.4785099 -0.00128592737 -6.8808074 
18.5590363 0.0446448661 -14.7677202 
-20.2906494 0.515088022 6.5090785 
-2.95832586 -0.112389416 15.4629784 
13.9537354 -0.144553855 -11.7884312 
24.1918888 -0.228340819 2.70532537 
-3.95265698 -0.0641544834 3.66873121 
25.1969509 0.115384787 -1.1157397 
14.6187181 -0.593330622 -19.1980247 
0.71418035 -0.0962059647 -12.8929415 
-3.22938991 0.224134013 -17.276783 
9.59577656 -0.578846991 -10.3330841 
20.5994663 -0.201330096 19.2067337 
1.57586443 0.424144059 17.9244938 
21.873764 0.264471054 17.2367649 
-7.5505023 -0.284009099 -6.61299467 
9.89966106 -0.221294895 18.6432743 
23.5408726 -0.512071729 7.83570671 
18.6785679 0.0122860279 0.616416574 
2.0805099 -0.474455655 4.0458889 
19.7207775 -0.277684361 -17.3980579 
3.70449996 -0.252708554 -0.862792611 
16.76194 0.172542676 -3.77253127 
20.0915661 -0.541278005 -24.7019444 
-10.3726416 -0.171384394 4.0339942 
5.68758154 0.0934098139 -19.1691322 
22.3626804 -0.55020386 7.55208445 
13.6705151 -0.417449504 -21.937542 
2.80144715 0.0221577752 11.4250774 
13.2241783 0.0908352584 -0.925540268 
5.08400202 -0.0167774111 -13.4505148 
9.9685955 0.152528673 3.24830627 
16.2080193 -0.431106448 -22.0331287 
-22.0007877 -0.1844749 -5.21016359 
23.9462967 0.418805182 20.1561775 
0.200522497 -0.0231412053 3.39018178 
14.4849615 -0.115468375 -8.89147663 
10.6737385 -0.0490154326 -14.3241053 
-24.126524 -0.0688665062 18.2456226 
-12.023016 0.121439382 9.7813921 
4.65529013 -0.241329208 -15.7793198 
12.3204451 0.305248618 -15.6874485 
-7.99213552 0.200956613 -10.370306 
-1.98829162 0.0787831992 -15.8057861 
3.45759058 0.158851996 15.2279472 
-18.9975815 0.542983651 2.31742859 
-23.5597305 0.202884167 19.9881287 
-18.9096317 0.356950253 -0.338405192 
8.42709351 -0.400154144 -11.9745121 
9.67025661 -0.117713884 -3.25918007 
-11.2643385 0.417096645 18.9254799 
-24.4112282 0.562487483 23.9867134 
-19.56073 -0.0668947101 15.3406181 
15.1152611 0.329609931 3.24300742 
-6.22656012 0.370795459 -19.3538971 
25.1854591 0.576684117 -20.4413128 
-1.81710911 -0.415901691 -22.7135448 
16.6687775 0.0277151708 2.17425919 
12.1022711 0.336802721 0.881805897 
-10.8092136 -0.0512257852 -10.2503643 
6.65531206 -0.0273040943 -0.366940498 
20.9154129 -0.240298852 -19.7773838 
12.0620728 -0.055246491 17.2036934 
12.2456598 0.40597108 4.22850895 
-20.9602127 -0.377387017 12.5172014 
21.9662209 -0.444782108 6.29186821 
24.6030903 -0.273466051 -7.86532831 
17.1765862 0.342752337 -4.95216942 
-1.42192101 -0.162690058 -4.23170853 
11.560338 -0.266659349 -3.75597191 
21.0544186 0.235642269 -13.7120543 
-23.0660954 -0.192846835 -13.1166553 
-11.2816944 0.0268988535 4.44297361 
18.4651222 0.344763577 -9.411026 
17.6288757 0.294577837 -3.86586046 
0.202559531 -0.107245311 1.3243643 
-4.36236334 -0.336051494 15.1300716 
24.4436569 0.100550979 -14.5250263 
-10.9650593 -0.164418146 -16.8632813 
18.2979183 -0.270707309 -16.3347111 
8.20668793 -0.224710554 -8.71046638 
-22.265295 -0.388853669 16.6606064 
23.0405521 0.250406384 -15.9578543 
13.4632397 0.235965192 5.71479654 
-14.9910259 0.0239372104 8.9505167 
2.29504156 -0.181355804 -22.6542664 
-13.76548 -0.370173365 -0.334288597 
14.9826536 0.295549601 5.26237774 
-22.3405895 -0.243805692 -5.33739614 
1.31407893 0.0891248807 13.9638681 
14.8151722 0.348623365 2.07178497 
24.7313843 0.138305888 19.3795395 
-8.4721384 -0.435729712 16.1647797 
-8.52618599 -0.0872105956 -13.1823034 
1.57493079 -0.0752298757 -5.36637068 
2.58999658 0.0307999216 15.1843529 
-8.82950687 -0.380241752 0.572551847 
-5.67286396 0.588499784 -14.364604 
22.4056206 0.113119289 -11.2466164 
-16.2792492 0.560600758 15.1537638 
-5.13755894 -0.0890427157 0.338213891 
7.6327157 0.158050179 13.3649502 
-13.1683569 -0.382386506 -15.2525902 
16.4166908 -0.610832155 19.0232239 
18.703476 -0.723051131 -24.1248016 
14.3198938 0.00750644412 16.0376682 
-15.1082163 -0.348228037 23.7182426 
-16.2594872 -0.00351458648 4.27821016 
17.2603607 -0.29195866 -21.108532 
6.57429314 0.151027188 -21.0309544 
6.72360659 0.442263097 17.1328583 
13.2427731 -0.10735289 -11.6709108 
19.8154373 0.360438943 -10.0438652 
22.9761448 -0.507248104 8.35853672 
-19.9768333 0.713129997 -0.207216576 
-4.57934332 0.0299117565 7.02419233 
-13.141778 0.187541887 -6.38618135 
-11.8565092 -0.36680764 -0.0642241091 
10.2979488 -0.00185710914 -20.3545685 
-6.35608625 -0.64822787 15.3120728 
14.612052 -0.549159646 -16.1367779 
-24.1476479 -0.549136341 -9.52267551 
