ply
format ascii 1.0
comment created by gply, a Houdini tool.
comment converted from .[b]geo
comment for more information about Houdini, try:
comment www.sidefx.com
element vertex 1272
property float x
property float y
property float z
element face 0
property list uchar int vertex_indices
end_header
19.4181595 -0.493867487 -21.9246941 
16.4353828 -0.327756763 15.8477859 
-12.5680408 -0.0798949674 11.1244183 
15.2594643 -0.323130459 -21.754673 
-15.6655493 -0.116795756 18.8521976 
6.87816 0.0342068672 12.8798943 
17.5839005 -0.405250698 16.3808823 
-4.09077311 -0.138136119 16.524416 
16.7755184 -0.570399404 18.4588623 
10.775876 0.0266054347 -13.0913601 
25.056448 0.965771675 -23.2973366 
11.3128538 -0.0965394527 16.9904575 
-20.5324478 -0.224640608 23.2859497 
-15.8173285 -0.193244204 19.5649052 
1.32816124 -0.484105408 -19.4819107 
12.2732182 -0.0312160421 -21.8849316 
12.186204 0.201099083 17.365036 
-3.22018361 -0.392259687 24.4539089 
8.85816765 -0.0334272087 19.2888145 
14.4193268 -0.165370449 15.1723862 
0.471097171 0.547898591 21.145134 
5.46979618 0.190353051 -15.1223564 
-13.9127502 0.185410544 -16.9909134 
4.06222391 -0.209974349 -14.2619505 
-3.23563886 -0.215142503 19.0994263 
-15.6387014 -0.44408372 -19.115303 
5.09210396 0.278116822 14.1855555 
-15.2703161 -0.287719369 -19.0881443 
4.53393888 0.26200968 15.204504 
-9.91108322 0.138848841 23.5563393 
-20.1058064 -0.333477646 24.1170483 
-2.4750495 -0.106701061 -16.2026367 
-21.6128426 0.0634910613 23.5273266 
-21.1308594 -0.130282104 23.4606915 
-8.20754814 0.0125489244 -20.088829 
-16.1436634 -0.272176981 -15.1838207 
11.0586853 0.0502852313 12.0837355 
-8.39642334 -0.0709372163 -21.0562077 
0.856577575 0.175436422 24.3617611 
-16.5651836 -0.216386646 -14.3569527 
-9.97077656 0.0152362324 24.9324417 
-7.54067612 0.230828807 -17.892807 
-11.0283155 0.359849781 -22.9070911 
-19.6669903 0.43824321 -2.06540799 
-4.85075712 -0.424679756 -22.4285202 
3.08261919 0.239879936 15.5388765 
20.0607948 -0.473178566 7.14501286 
18.7966537 -0.0594162457 14.2407951 
11.9643459 0.537505627 4.43236113 
-14.3405027 0.0577504076 -17.1102085 
3.2523675 0.559497178 18.5707626 
-21.8777046 -0.0828746408 -16.808773 
0.0896841362 0.488594353 16.0701714 
-5.56027889 -0.197842941 -0.33678925 
-17.6778812 -0.122291014 -14.8311043 
7.53524446 -0.00817376003 16.2710438 
-5.2710762 -0.4480775 -21.3753681 
-6.04117775 0.0496236905 -16.7854786 
-11.6116991 -0.414878786 8.61567497 
-10.188962 0.00464524608 -14.2891932 
2.1243372 -0.444893956 -16.3965397 
-12.7547455 0.272553056 -16.8458729 
1.36896706 0.567335844 23.460104 
-24.0836468 0.152794003 -16.3128605 
-6.63594627 -0.208569691 22.7899837 
-20.1064415 -0.28847596 -18.4406719 
18.1672268 -0.454656243 -20.8500614 
16.005331 -0.404708266 -21.9321671 
-7.07264566 0.146463841 -18.4180584 
21.1255436 -0.00527882669 15.4960127 
1.13058758 0.60273236 18.4059563 
14.7527428 -0.245438427 -21.1185818 
1.20247161 -0.545556247 -19.2150574 
12.6578751 0.0164318681 -8.61001396 
-7.4174695 -0.313166976 2.21117234 
-14.2445326 0.0450882539 23.8773003 
-23.7196674 0.456072479 23.3521595 
12.8551378 -0.218719333 -21.9919586 
13.8856926 -0.348434746 -23.4524612 
1.16681004 0.18010731 16.1748657 
2.22605515 0.0259984322 10.6452761 
-6.63068676 0.225613773 -16.3158989 
-7.02730083 0.435688734 -16.5085945 
13.3634768 -0.347194195 -23.8915367 
1.32284486 -0.509210289 -17.6791515 
-21.6033096 -0.2459732 24.7681923 
-0.582976222 -0.030243516 4.72033167 
22.2312813 0.086677663 18.0329742 
9.51274776 -0.281021833 17.1722584 
13.861208 0.426633418 1.4629482 
-3.08941102 0.00995437056 -14.3644924 
-5.88388443 -0.15289551 -17.8037796 
22.3906116 0.0149217369 17.2437077 
-13.6082182 0.0663819537 20.2281513 
11.3194704 -0.0117761744 16.2502747 
-5.55134583 -0.423970759 17.5557995 
2.82864761 0.821340442 21.4613705 
1.74310994 -0.450717241 -18.7001591 
7.60092306 0.380306333 -17.8939934 
-0.924136758 0.491429508 15.3811865 
-10.0790052 -0.281037182 17.8316669 
7.34296417 0.389095277 -18.0784016 
-6.59873772 0.050968565 -19.1418972 
-1.30609226 -0.43819505 -21.8414249 
13.8208418 -0.353044182 -19.8398857 
1.96267796 -0.478801876 -15.387599 
-1.38198805 -0.29680416 -18.0045662 
13.2460785 -0.398965716 -20.0424843 
12.4823723 -0.517723918 -24.8306923 
-21.4156265 -0.13370043 -15.1965961 
-23.993948 0.204350144 20.8086414 
-10.9617596 0.295538276 -24.0225105 
-6.08664846 0.293230504 -8.8774662 
22.6478786 -0.321030766 15.3163061 
-23.7069454 0.380367041 22.6880264 
-6.1305027 0.212522224 -15.3047457 
-6.30141687 -0.245696306 20.9604721 
-23.4084854 0.323023677 -19.3137989 
-24.5035744 0.742850959 24.5236816 
6.07485247 0.509694457 18.424036 
-6.2162652 0.254312396 -15.0465851 
-3.3791616 -0.372440696 -23.8132648 
-2.50495958 -0.150195077 -15.6211748 
24.374033 -0.288808078 14.7201948 
6.25798988 0.416626066 17.0422096 
-1.86466718 0.235392079 -1.35561633 
0.232369646 0.509212375 17.0597973 
-12.8285351 -0.0959881693 -4.84401894 
-12.9127951 0.078632459 -6.38796759 
22.2295952 0.089873299 -20.0527763 
5.01432514 0.510992408 16.8517723 
-7.18495989 0.58002013 -14.3579788 
-16.1132774 -0.349950671 22.3954449 
2.92062187 0.141400546 14.661664 
-6.18837786 -0.438463122 18.6907959 
0.245910197 0.471952796 16.0716686 
5.22282839 0.515464902 18.0708275 
-3.62921405 -0.258609265 -19.2098961 
-3.11723566 -0.0831034184 -15.5215836 
1.77202785 0.551826239 23.7972927 
-10.4664764 -0.4480564 -1.37401092 
7.22737598 0.208434328 18.6484814 
19.4209843 -0.529174089 -22.713747 
3.16803145 0.50235796 17.6664333 
21.1424065 -0.194950238 -23.2306271 
-2.44861269 0.170777097 14.8028107 
20.0657234 0.0920052901 14.6954222 
8.08572006 0.494603902 23.6775875 
-4.86752987 -0.431425065 -18.9125786 
24.0225792 -0.254340053 14.7924509 
-0.153128088 0.465430737 15.7804966 
-11.5005932 0.148957342 19.6734753 
16.941328 0.191338032 -13.4599981 
-16.0514908 -0.246932045 20.1037388 
-17.5236645 -0.420604199 23.9216347 
4.2053175 0.306980968 -23.8421249 
24.3698502 0.0931791291 -1.34047151 
0.330919325 0.188765451 14.8743382 
0.783045173 -0.161393166 4.4451046 
-21.6093369 0.0427577607 22.6915703 
2.0694201 -0.042590443 -23.515377 
-13.8612309 0.195625216 18.9189548 
0.106104143 0.118939646 13.936471 
24.0942459 0.00673999172 3.24250865 
12.7237253 0.219831795 16.7349834 
1.38333654 0.0403642654 -24.2309513 
19.4975872 -0.135308564 -1.05011368 
5.61655378 0.369212836 -16.9770126 
12.3455391 -0.0568710305 -21.7843132 
8.12286186 -0.00920486357 -14.5670643 
2.80793524 -0.353829205 -16.6276989 
-5.11929846 -0.35789606 23.0985527 
-4.39256954 -0.422692865 -19.7539558 
-9.59411049 0.0968573987 -14.2534838 
-11.7374687 0.292329043 20.575201 
-19.53269 -0.26129052 -14.4312181 
-19.0447159 -0.253760129 19.354681 
-10.730484 0.161047116 -14.7552586 
-2.28858376 0.095163554 16.5666218 
-19.431036 -0.0720063299 -22.7600727 
-7.25750208 0.54622817 -14.6505136 
6.23676395 0.250238866 -15.8064442 
-19.8538742 -0.34654507 20.270731 
11.8205643 0.0438903384 17.7041397 
-24.862608 0.61884129 23.932169 
22.3517361 -0.220500231 -6.53196192 
6.59547663 0.201378495 4.12720585 
-0.0245557111 -0.400238812 -18.8557224 
-9.19546986 -0.372062027 0.604979157 
-1.24389267 0.576738238 14.3848629 
-13.5063086 0.270243436 -18.1321735 
-14.2383366 0.119859502 24.8524227 
-22.862812 0.618739367 -1.2790997 
18.0653458 -0.52314049 19.2413731 
0.681627274 0.689389169 19.234005 
-8.63822746 0.351853728 -14.6703892 
-8.42115593 -0.30463773 -0.906618595 
24.5460148 0.702640653 -20.0441494 
1.05907154 0.51629138 17.3694305 
-10.1578798 0.25756067 -16.8350601 
19.3510761 -0.504962862 -23.2856388 
-10.3604813 0.264021099 -17.8453636 
18.0744915 -0.303286821 16.6059933 
19.1720905 -0.419409424 21.1616993 
-0.687966943 0.583582759 18.546587 
8.01919556 0.0369140096 19.0278473 
14.7605782 -0.163294137 16.651371 
0.893260717 0.317125529 16.3464622 
-9.47870636 -0.393977016 -0.415097147 
-4.61766052 -0.428846061 21.3764534 
23.8275986 0.32763657 -17.7050705 
-17.5639896 -0.47152108 -18.6533146 
-8.8954258 0.243773565 -14.2609653 
15.9992352 0.696828365 -7.574368 
6.39937592 0.421213776 16.0761108 
7.29551888 0.138163716 13.1108513 
21.165226 -0.12642087 14.151186 
-23.1951065 -0.137104318 -15.3674974 
18.8322544 -0.565200746 -21.6670742 
-13.7352991 -0.174195156 3.95257521 
10.4493084 -0.224306867 17.4059963 
13.7590542 -0.0625183582 17.2097893 
22.9470081 0.259370327 -21.0117455 
-4.99995232 -0.432942033 -19.0336609 
-1.09851468 -0.397666246 -16.4032192 
-10.4818268 0.518223107 -19.2973747 
1.03043199 -0.421540618 -16.8734894 
-6.59190893 -0.186680317 -22.7015152 
9.69033623 0.0969867855 -21.3119736 
-13.6176834 0.083696045 -15.1651173 
1.59580731 -0.242948398 -20.3297405 
18.3597126 -0.0492124744 15.4345255 
-10.1823511 0.246443495 -17.7366886 
-1.12467027 0.153833985 20.977272 
6.6481638 0.169673055 14.5312138 
3.52587891 0.304724365 24.4101601 
-18.8223248 -0.226501644 -15.5766182 
-9.02353191 -0.277462363 5.00315571 
-2.39593458 -0.419772595 22.6215115 
0.0555688366 0.640841007 18.5551968 
-16.1062202 -0.308448762 22.7095203 
9.01545048 -0.188118607 17.6791954 
-24.900631 0.350619853 20.1013012 
3.56371117 -0.0712385252 -17.3555737 
-13.6431904 0.12711741 -16.2803001 
18.5188293 -0.133564219 13.9935703 
19.8751888 0.0625864938 15.8336182 
-23.5567627 0.382017404 22.6499939 
9.29098511 0.192387015 -20.0021935 
-2.5374217 0.171015233 14.1894007 
-15.937232 -0.39052394 -16.7708244 
4.43773556 0.138838246 -25.1723461 
17.7675056 -0.153836086 14.3444347 
-5.19985676 -0.460444152 -19.3169861 
0.0186100751 -0.248643294 7.79281378 
-0.136051357 -0.19769305 -14.2313747 
-20.6285801 0.617261171 7.0203886 
-5.96981859 -0.219703108 2.53220391 
9.38692284 -0.207218572 18.7863598 
6.90657234 0.138198331 5.11842394 
6.64008904 0.233630538 -15.4311857 
-21.9903736 -0.0607595108 -17.3162823 
-9.08712482 -0.488933831 18.4715919 
-16.527544 -0.237250671 -14.6733065 
-15.0937147 -0.0600635782 20.6484261 
-11.7581587 0.117317528 -16.0559158 
23.1955032 -0.263546884 16.6854992 
1.56558502 0.0110508371 15.1657228 
24.4593124 0.131460845 18.8084717 
7.93490124 0.174493 14.6536465 
4.05544424 0.103043869 -17.9779205 
22.0216541 -0.230958983 15.0302896 
-19.8019638 0.0654379129 13.5425472 
20.6445866 -0.115302771 20.0605125 
4.1507988 -0.191525131 -14.8239241 
8.48310375 0.0176538769 2.51118159 
5.89100409 0.591585755 16.816576 
22.5173645 -0.335779071 11.61133 
1.13468754 -0.399466842 -14.6221733 
6.41721201 0.268117011 -16.0375233 
-17.7430439 -0.114508249 -23.8952732 
12.708848 -0.269972563 -23.5557995 
-0.383647531 0.474170208 15.3042965 
5.33206129 0.499577641 18.8058662 
14.2248182 -0.138403893 15.6141615 
-18.8585396 -0.521067262 22.3677521 
24.0121555 0.148553014 18.7216263 
-21.9511013 -0.156376347 24.9463158 
-23.0638485 0.265284598 -21.5924816 
2.26655912 0.0143705271 -23.4603004 
21.8708782 0.00469965395 16.7257195 
8.92625618 -0.123591721 16.081789 
-20.0206795 -0.0338813998 -16.2665367 
18.1315918 -0.184286952 16.0484753 
10.2558689 -0.151647612 15.6687384 
6.51640177 0.183417916 14.6159897 
-7.17389536 -0.688055933 16.0296822 
21.4094276 -0.0593729615 15.4617338 
4.92874002 0.165151328 -16.1624489 
20.2754936 -0.374275863 10.5872402 
-19.4313393 -0.232957006 -14.5319376 
-7.06846952 -0.0561110526 25.0655098 
-12.781251 0.198939279 -16.4877129 
-6.8931179 -0.146544695 -6.19820547 
18.877882 0.00840380043 14.8723679 
0.627087593 -0.362690508 -17.0058365 
21.511549 -0.316613585 -24.522295 
2.72391891 0.498874992 17.5325127 
21.6102371 -0.027350422 -19.828474 
22.8219566 -0.227186069 14.5505199 
24.4819775 0.87970531 -24.2532959 
-6.31252813 -0.244180575 24.3316212 
-22.4414501 0.13759701 22.41222 
-4.41903162 -0.140632272 5.31601429 
-3.08436847 0.0878425688 15.1044855 
-5.51766109 -0.106491782 -16.0930538 
-24.1472569 0.553345442 24.3759499 
18.3143921 0.0470886044 12.4507513 
-23.4403324 0.424139977 -1.89799714 
-3.85280395 0.184118122 -14.2704849 
-0.345875263 0.0843657106 0.116007663 
14.7680025 -0.485728979 17.8578396 
-7.38326454 -0.827351987 17.857523 
8.25751686 0.36273244 -20.1699791 
5.60103559 0.426001787 15.9808292 
-8.3418045 0.300537765 -17.1246529 
18.9544563 -0.47258842 19.0815067 
10.2342749 -0.030859787 -24.7254143 
7.06330156 0.228685394 18.7000122 
5.77652216 0.502114475 16.4800663 
2.17497373 0.0746904984 15.3116236 
-0.182025731 0.67198056 18.8518982 
-11.6597481 0.164989904 -16.4013004 
-10.2605219 -0.169190839 21.3506851 
-23.9186401 -0.206026763 -14.4028463 
7.49187279 0.085235104 17.5407677 
15.3065977 -0.405311793 17.0928173 
17.6842823 -0.584676266 22.4181862 
-20.0652065 -0.00809924584 -16.5574894 
-5.84564018 -0.220280588 23.6490612 
0.517981172 0.518673599 17.7777309 
6.71929646 0.2099002 -15.1864462 
0.0896936953 -0.276212513 -14.9831848 
-21.7081928 -0.096602276 -16.500391 
3.19120431 -0.054783769 -21.0562916 
22.7275753 0.0962784141 -21.4265938 
15.6959639 -0.11657358 15.387042 
-6.64947701 -0.0244878829 7.22400808 
13.2622452 -0.292060435 -23.4764729 
-7.40506506 0.474574625 -16.7249966 
23.5750694 0.456031948 -22.3143635 
-23.5309792 -0.0979009792 18.9622631 
-7.31013775 0.465265006 -16.3912907 
16.1909733 -0.221647844 15.5291328 
2.28347659 -0.434966475 3.7924962 
24.4633141 -0.297007263 15.1555586 
7.17643118 0.26654166 19.0569191 
-7.80261564 -0.187022045 5.53753567 
-6.97497845 -0.169292882 0.967484593 
-3.84652686 -0.0141314343 -16.0880127 
-1.48703468 0.150228173 18.3041496 
-15.3513231 0.100413166 -10.5044355 
-2.33224273 -0.560054302 23.6367512 
-17.9417458 -0.413030148 21.8498421 
10.0098381 0.157991707 -23.1588154 
25.048502 0.912383676 -23.4651375 
-10.6109304 0.409506321 -18.8055458 
-10.2699881 0.021845866 -14.4145069 
-3.33183122 -0.0399849005 -14.6882439 
-24.6278648 0.659786463 23.7413197 
13.7038937 0.0556840897 16.7625237 
-2.49224734 -0.0593314059 -14.6038179 
-10.5755672 0.388978481 -18.2262268 
-6.05031013 0.041325029 -16.41819 
-11.59939 0.322968543 21.0056915 
23.2024689 -0.289329529 15.4816618 
12.8856964 0.317174226 17.35742 
22.06563 0.0658235699 -20.9301834 
1.71884012 -0.429562628 -16.3374233 
18.7872982 -0.520495474 24.568119 
-10.4979963 0.408342361 -18.5341167 
8.67710209 0.278843611 23.5613861 
-3.10396957 0.0218186248 16.2979698 
-16.7833538 -0.340532184 22.155323 
1.01450419 0.519841909 17.5199318 
13.163785 -0.396802455 20.7952785 
21.166523 0.0328380167 16.5706921 
-2.35394168 -0.071960032 -14.6633968 
1.50567555 0.540087998 19.0838795 
20.8416004 -0.423324823 -24.6016178 
-8.83716965 0.368766069 -15.627388 
-18.0627308 -0.418987006 22.9870415 
-0.441247433 0.699601173 19.2301273 
3.15043187 -0.304251254 -15.4746761 
-11.5584469 0.329102844 -18.385582 
-9.97156525 0.124910474 23.802227 
4.46317816 0.216498092 -22.2497253 
-9.06861973 0.198903978 -14.5211391 
-1.2255944 -0.11427103 -13.9266443 
25.177063 0.250103235 6.01440144 
16.8819199 -0.506397963 17.3713093 
4.54892778 -0.203028291 -2.92043567 
5.96096849 0.367279083 -19.7897778 
6.66185856 0.247083992 -16.0995655 
-6.55738211 -0.477592856 18.9621124 
1.3799144 -0.0769495219 -9.91553497 
-7.58619261 0.386766493 -15.2947731 
4.78627968 0.463531435 16.8457661 
-20.297123 -0.236688629 22.1349335 
-21.4074841 -0.150250345 13.0001736 
-11.0418425 0.531393409 -18.869421 
7.13906288 0.136796474 18.2089558 
11.3056459 -0.0596577115 15.7492504 
-11.0962067 0.0325566791 19.9128475 
-12.5320902 0.176831111 19.4258175 
-11.1870575 -0.213116005 7.37836027 
-6.38435411 -0.219608694 -22.8898468 
2.45127678 0.598176181 20.0829048 
2.77971983 -0.0566358604 6.035501 
3.78230381 0.438670695 17.4615173 
-2.35121346 0.217539862 14.6080027 
1.10796499 -0.204525024 -21.6435986 
12.1558075 0.0988970622 19.7209187 
6.6658287 0.316421151 19.0576191 
0.221372783 -0.311429858 -20.4831715 
11.9618044 -0.162404105 -22.9590588 
-24.0003319 -0.0186277628 -15.5200901 
-12.1094971 0.196945965 20.6163273 
20.9832115 0.0265925452 18.9150829 
-11.5228882 0.350110948 24.191246 
-2.18143749 -0.0672484338 -13.9229498 
-16.8914299 -0.2769849 -15.100769 
21.8045979 0.00604610937 16.8276043 
3.40695119 0.21048601 -24.8513165 
2.93622279 -0.330179304 -15.9222574 
2.69749427 0.0781491324 -23.1309586 
-10.5250816 0.150439397 -24.4528847 
-4.95928097 0.149042532 -14.7160053 
-4.72773361 -0.235978335 17.6262989 
16.2420006 0.178431734 -3.17751241 
-20.3295918 -0.003098018 -16.393177 
-20.3227692 -0.31117785 19.386404 
-15.4981651 -0.00237274379 -13.8424282 
22.2603188 0.168843791 18.6862698 
19.9518852 -0.343101948 -24.2178097 
-15.3446684 -0.0702983737 -14.4586458 
-2.94630003 -0.586874306 -21.6647491 
15.0669718 -0.156870157 16.0863209 
4.18708611 0.595767438 18.7166901 
-4.40577221 0.131652355 -14.5960541 
8.52892494 0.318294168 24.610239 
-4.16265917 -0.42481631 -21.7048206 
-5.25023794 -0.227614611 -17.6377258 
11.1795473 -0.144821256 17.4875679 
-6.25464678 -0.280392647 23.2754784 
-0.757650495 -0.236232683 -23.9335728 
12.139924 -0.156596661 -5.51770449 
-16.3535576 -0.116531074 24.1451015 
-5.00378513 0.163397074 -14.117321 
-7.28014088 -0.177371696 -22.3374882 
-15.5211725 -0.105797946 -14.8017893 
-5.49687719 0.00491013005 5.58961153 
-24.1832714 0.809577644 -22.4364796 
-20.3652515 -0.311345786 21.080368 
20.4726696 -0.235699922 -21.7088242 
2.56585407 0.596525669 19.8683853 
13.0737104 -0.0547243543 14.8661156 
-21.3334198 -0.0980322585 -16.8400307 
0.377133101 0.434236795 21.9729767 
-1.30671549 0.185650542 18.9116154 
0.475245595 -0.100308761 -23.5397129 
1.47832298 0.6482867 22.2815094 
-17.165184 -0.484362751 -18.6894398 
20.0675926 -0.407941639 -21.0169182 
14.5890379 -0.198338956 -21.9359818 
12.4691458 0.42168951 18.1972942 
-3.17630959 -0.204782382 19.8832493 
1.41589022 -0.341557384 -19.9841404 
-13.855772 0.229188129 24.7609062 
6.94642162 0.308417439 -21.1666431 
22.9349403 0.253580809 -20.8766937 
-23.9300194 0.351282865 2.32563591 
24.9136791 0.811846256 -20.3996563 
-15.6970558 -0.476947874 -18.6817589 
0.315888435 0.49020493 17.2536907 
-0.0418707058 -0.339685738 -17.9694824 
9.89206314 -0.0575089157 15.4176559 
-11.2648163 0.233240068 22.7083912 
-20.3255405 -0.259574145 -14.4915781 
-11.0290594 0.151041716 -16.0991268 
-14.0826721 0.047238715 -16.4759083 
9.5064888 -0.211398527 19.0554733 
10.5664225 -0.177641928 16.8402176 
2.09268999 -0.411515832 -17.6032276 
9.43241787 0.143628269 -24.437006 
20.0247307 -0.0467162207 16.8195705 
4.56286287 0.30417043 15.5879478 
18.8448238 -0.487748057 24.7094116 
-22.059473 -0.103405409 -16.6612053 
9.36512089 0.105108924 -23.2048912 
1.13488925 -0.542675555 -18.0486279 
22.4275265 0.0298310034 -3.54245925 
-15.4489479 -0.129176393 25.002346 
24.2848587 0.748424292 -24.039526 
-24.1027946 0.279752105 21.8731155 
-20.263216 -0.282242328 21.994297 
-21.5440636 -0.0772665516 -18.5162334 
-12.9903364 0.187171176 16.4791622 
2.29919887 0.154391438 16.1139889 
7.19958925 0.079080686 16.3107414 
-8.36660004 0.4663122 -14.1182489 
-11.9347258 0.292161971 20.1668777 
-6.82354689 -0.140139639 21.3506508 
15.1260824 0.264782816 3.88117766 
24.0729408 -0.00578712951 8.39600945 
-3.7676692 -0.409184843 -20.4106312 
21.6837368 -0.0188327171 16.0270023 
-11.0221634 0.193942517 24.3636761 
-7.99603939 -0.735649228 17.8318825 
-8.65175915 0.258263856 -18.1586895 
-8.23552704 0.441180527 -13.2279301 
-1.97880411 -0.452021927 -20.9055424 
1.52036917 -0.444498122 -16.7204514 
-1.62219214 -0.508718491 -24.0172577 
-5.47392416 -0.117156051 2.66495681 
-0.705007792 0.037704099 10.6412573 
3.12570548 0.173774883 14.9757795 
19.529314 -0.0326841995 14.4685488 
3.71901155 0.00582542922 -20.8960171 
-17.6875343 -0.427904814 23.4682693 
-3.23559165 0.00217914209 -18.463131 
0.648269892 0.542307496 18.1632195 
22.5327778 0.0488024801 17.4923096 
19.3723202 -0.0254269652 14.6878309 
6.85022831 0.43884331 -23.7394276 
-20.5191956 -0.281477213 -18.9107628 
-22.4590435 0.15025191 21.3555393 
5.90896368 0.439115971 21.0570393 
14.2129097 -0.234729931 11.9300957 
1.27052999 -0.42519179 -15.121314 
-21.9619789 0.00786718167 -15.4939499 
-22.1324596 0.0488606952 -18.0842304 
-9.33387661 0.331288785 -16.8825321 
6.0618844 0.2207679 -17.6927414 
4.24505568 0.29783088 -23.72822 
0.659588516 -0.45314914 -15.3219891 
23.8056927 0.719490886 -24.4242516 
22.7366238 -0.144622043 13.9664116 
3.0453918 -0.095746696 -18.9199886 
-12.2147722 0.072654672 -15.0762386 
6.24711561 0.404511511 17.2171173 
21.19104 0.0528854653 16.2317562 
-8.90002537 0.324896842 -16.8074646 
-16.4137707 -0.362409353 -15.5197887 
-16.760725 -0.512935638 -16.1938953 
4.90995455 0.731460452 20.1534996 
15.6877718 -0.792510927 20.587471 
5.05190659 0.434413075 16.5944118 
-11.4884968 0.129158154 -15.8168259 
8.43755722 0.29992035 -21.8037491 
0.720942736 0.502251506 21.765976 
-10.8699265 -0.159823686 19.4980545 
-16.1019382 -0.155851156 -14.7073212 
21.1986103 -0.334313661 -22.3586884 
16.4594955 -0.493994951 17.6582298 
-22.3705254 -0.0372630619 -15.6130934 
4.8643117 0.224811524 14.8900986 
21.0435257 -0.423591942 -24.6231041 
0.97194016 -0.384163976 -16.5640182 
2.67573977 -0.313925296 -14.8107758 
-1.67091644 -0.168326974 -15.761549 
-15.7140055 -0.0549845286 6.69007921 
-6.94191074 0.0810158178 -19.4690475 
-12.5176067 0.127344653 20.204195 
8.67462349 0.0032779458 14.1705284 
-5.05522299 -0.198561892 14.8680458 
-5.73219109 -0.208209082 23.7582664 
-9.04524422 0.327899903 -16.4271755 
-12.8538952 0.378850281 24.9853096 
4.40733194 0.543323755 18.5132637 
10.6505699 0.00457884837 24.2876167 
0.829461873 -0.542907298 -18.5319767 
-2.77219462 0.0321347266 -14.1546164 
-0.803532898 0.372299612 16.0000114 
5.23547411 0.283858895 15.946806 
-5.1619401 0.0903897956 -15.1561193 
16.3382416 -0.347374082 16.2478466 
-14.9049902 -0.00188463251 -20.138298 
24.4724064 -0.237422079 16.5080891 
-2.95797062 -0.0373779275 -16.6583252 
-5.26534128 -0.114736028 -16.2406998 
7.60054827 0.0702624619 0.782768071 
-13.9194117 0.165303901 24.3034039 
6.39016819 0.331089437 -22.610815 
15.2879772 -0.45229587 -23.330843 
0.949022651 0.554556608 17.7603664 
-10.3629713 0.399953187 -21.6789951 
-7.5734024 0.456713915 -16.8930588 
11.4541149 -0.0981336385 17.7549744 
-16.3661232 -0.137122348 5.12118673 
-23.034586 0.330089927 24.5739899 
-8.63014603 -0.23154141 3.45020723 
-2.98242855 -0.257760018 21.6110497 
8.01641941 0.0378338136 5.03692722 
9.73945618 0.248261318 -19.7626438 
4.96812153 0.202289298 -19.2507935 
20.1194706 0.0419808291 15.1894188 
11.744668 0.0691360608 14.7594728 
-11.4682283 0.149626985 -13.9549637 
-5.94100618 -0.138131872 -18.2019863 
2.08032036 -0.160554901 -19.9740505 
-18.7662144 -0.0199336968 -14.0109987 
6.12716722 0.157087579 -15.4598598 
17.8079319 -0.634945989 -23.973259 
5.63871193 0.624020159 17.406786 
18.8664894 -0.0340567753 14.3503294 
15.7925653 0.0925188437 -2.79743958 
-6.2029748 -0.169221476 -24.1003838 
1.63778615 0.675093234 22.8146496 
-22.8143482 0.624005854 7.19010258 
13.6071081 0.454517394 1.68892074 
1.42610097 0.603875697 20.6000195 
0.492937684 -0.391283751 -15.9102459 
18.5590248 -0.435868293 -19.9814148 
-0.760655463 0.26244244 20.9042263 
6.67013264 0.344566196 -20.0119896 
-20.1933403 -0.294650257 23.1024361 
-10.5062027 -0.328663826 8.21831799 
14.628665 -0.433868259 17.8429585 
1.92921317 0.672919035 20.2476501 
23.9423542 0.134309784 19.0634785 
24.2350483 0.0373135693 -15.9303637 
-4.40053558 -0.149026811 -17.3325157 
19.9296246 0.0307013523 -7.89072704 
-5.08247757 -0.272657514 24.3762665 
-11.2549582 0.174072787 -17.0268135 
-17.1927109 -0.428202331 23.113678 
18.3411522 -0.475258142 -20.8810043 
22.2403679 0.282634586 19.3082504 
9.58761692 -0.0438739583 -1.61110699 
24.9047089 0.947392046 -22.1277008 
-12.6572132 0.130823821 19.4094048 
16.0161552 -0.176368847 15.6598969 
13.394866 -0.105075918 14.9100819 
7.69455338 -0.0437938161 16.2335854 
-10.5241156 -0.0516063385 21.7537117 
-15.4124908 -0.0726086274 -14.5718431 
-2.87047911 0.157255635 15.2006187 
10.6440639 -0.227196515 18.6748276 
-20.4940586 -0.234837085 -14.324523 
24.4937801 0.534757674 22.9945126 
-0.400070786 0.163525954 22.4990635 
-8.70930672 0.293584555 -17.8944836 
-22.1012306 -0.176943943 -6.65155554 
-11.0206184 0.250873387 -17.6272392 
4.22965193 -0.123520792 -8.17072105 
-14.1370201 -0.0373905897 22.8532009 
1.89095664 -0.4679901 -16.6440735 
-21.6288605 -0.0912498385 19.5667496 
-10.4107485 -0.417826504 16.2767105 
-10.1121817 0.0988549292 23.5399895 
-5.74333572 0.427020878 8.91570187 
-1.52370977 -0.357159853 -19.6044731 
23.2360764 -0.218098849 17.319067 
2.60303402 -0.098478049 -19.8649235 
21.3585472 0.0179538485 -19.6139355 
7.13526201 0.104826473 17.3850784 
23.1739006 0.00954339746 18.6948433 
8.67158031 0.293773025 -20.6071892 
-13.7501917 -0.430434495 -2.39314556 
0.759194791 -0.370051831 -14.2865744 
-21.6122074 -0.0863288864 18.9305344 
-1.21130478 -0.419990271 -24.3797035 
-2.00131273 -0.188736632 -16.6720409 
0.537640929 0.38052094 22.5911083 
-7.34893084 -0.0192363486 -20.3611393 
-7.05350685 0.612839818 -14.3260717 
21.2574825 -0.62351048 0.564461291 
3.92444229 0.70010823 20.4605484 
10.6125212 -0.201309487 17.4621849 
0.16876097 -0.258282214 -14.3150148 
-11.0127354 0.158879519 -15.1355066 
-17.6527081 0.131573781 -11.3790865 
-8.58357239 -0.491193771 9.66880703 
9.49155807 -0.17610994 19.3234367 
15.391201 -0.828928828 19.1812954 
12.1969948 -0.225190699 -20.5571461 
-12.5941305 0.0948466659 -19.1208839 
0.641268671 -0.451993167 -19.1389217 
2.1602304 -0.0158870332 -0.444179893 
21.7217045 -0.129696995 -21.1382713 
2.03560853 -0.274137646 -19.3918762 
24.5166492 0.11267978 3.66926003 
16.9643459 -0.516282856 17.0202065 
-11.580699 0.0612985939 -15.3716726 
20.8630676 -0.665971398 8.88673878 
19.4499187 -0.253849357 -19.3122101 
-3.38607645 0.12764667 -13.8908892 
-8.99862099 -0.157244608 21.7395306 
23.0313721 -0.278994203 16.2773037 
9.41808128 0.0847626626 23.1112442 
25.2205486 0.295384198 6.49721766 
25.0788803 0.992469013 -21.4997196 
-8.02573586 -0.540067196 15.4002676 
-1.56984687 0.329627514 16.1699276 
11.6578522 -0.0207797661 17.529108 
19.4180508 0.196779668 -7.28098869 
11.9081001 -0.26089859 -19.480217 
-18.4626236 -0.243895426 20.1532993 
-2.17251348 -0.184535593 -16.3086815 
-8.58335018 0.310807228 -17.1351204 
16.7811909 -0.498593092 17.0225983 
-3.16248918 -0.514817595 -23.1220856 
7.23324537 0.12448886 -4.18399858 
-19.697813 0.366686165 1.60244489 
-0.543620467 0.755798519 19.2001152 
-7.86303902 -0.624499142 15.81003 
16.7468967 -0.683521867 -24.5937939 
-4.19080162 -0.0922290757 -16.7816925 
-10.2009525 0.424663931 -22.0971775 
3.23219466 0.0189710595 -22.0241909 
-5.85636711 -0.0514345318 -4.95757055 
3.61509848 -0.232112527 -0.469743937 
8.09495163 0.429857105 -23.1538601 
0.583344102 -0.340072215 -16.4397125 
-13.8310709 0.0852630809 23.5391769 
-20.3462868 -0.286236733 -18.8481636 
7.1770606 0.522915244 -23.3177204 
-10.8710394 0.153989837 -14.6319036 
18.8829613 0.0201162975 16.1256657 
13.346755 -0.249967054 -20.9021435 
-1.31391644 -0.099651143 -15.3541193 
11.8797712 0.100004748 18.6255817 
-11.8952799 0.162463099 -14.3324251 
16.9565639 -0.598840058 18.8133793 
0.0968271568 0.551794887 17.0732727 
-0.116104767 -0.384436727 -18.532795 
21.1027374 0.0162950158 19.714901 
-6.67779207 -0.0885297507 -6.0999589 
-17.58218 -0.13119182 -14.529521 
-15.3548813 -0.123506978 21.5394478 
-10.8365936 0.582880139 -19.6792202 
11.9387264 0.106260419 17.5543709 
13.0254641 0.0696732923 19.0323372 
-6.23846865 0.23069337 -15.3994865 
-0.714372158 -0.0706601739 -14.7333593 
2.11809802 -0.169187427 6.70347309 
-3.13183522 -0.207842246 20.3295841 
-22.954958 0.194029868 -18.4477367 
8.28719807 0.03348637 18.7910576 
20.3949986 -0.0250702519 14.1298494 
-13.9976044 0.0483129211 -4.69055223 
14.3440857 -0.435541272 -23.7723427 
0.740776002 0.351575643 16.2020073 
-4.58597708 0.0322351269 -15.3917093 
-0.589980483 -0.013834131 -14.1639748 
-5.64267397 -0.28759259 -18.6603184 
3.06676698 0.579524517 18.8016758 
14.5644016 -0.596115589 18.8326073 
-18.7030697 0.376170397 4.95469141 
-11.3358974 -0.29072991 3.66230178 
24.599062 -0.0535374694 13.9209213 
24.8368416 -0.0545784459 14.1717176 
-6.15822649 -0.310631722 1.25028968 
-5.15390062 -0.0868925229 -15.9669695 
9.29406929 0.00692349486 -22.5680923 
-15.2824602 0.147718415 11.0310717 
6.12847805 0.00847468711 2.93495536 
-12.8287334 -0.354952365 1.62132275 
13.2021351 0.119783811 17.8244858 
-14.0648289 0.106618054 -16.7174416 
20.2986088 -0.430091619 -20.6905899 
17.2619476 -0.315466821 15.8387003 
14.0648394 -0.657708406 22.6099186 
-13.0229483 0.523884296 -22.4557838 
3.46291757 0.176025555 -24.3235645 
-11.696909 0.264456332 21.9600868 
-16.8538189 -0.356675029 -15.3074884 
14.3793039 -0.250363469 12.0259056 
2.33060765 0.169767424 16.4140644 
-16.4726753 -0.432199866 -16.1094856 
1.59863067 0.462266862 17.6988125 
-12.9756956 0.554185331 -22.5670948 
23.5434704 0.136619389 19.1522217 
0.0637240559 -0.375827432 -16.8711758 
-1.29734588 -0.302109897 -19.6101055 
-18.6880112 -0.0264749397 -7.54010963 
-15.2604046 -0.103224307 -15.1227312 
23.5488796 0.435382217 -22.8809834 
-11.6920128 0.365162432 23.5347004 
15.3953314 0.167180672 -3.12343359 
-14.4377527 0.0161057282 -16.9511108 
1.76561701 -0.45409745 -17.4687042 
12.6644144 0.12295004 15.7464094 
3.34068632 0.588136077 19.4345856 
-23.6230106 -0.0498449765 -15.9680939 
-19.6966572 0.0114921955 15.4887581 
19.0198879 0.043876756 17.1903305 
-12.8634577 0.181781948 -17.8835258 
1.46773803 0.0307925455 15.3671246 
17.9595661 -0.384391993 -19.5661964 
-5.90615606 -0.231512591 -19.6588211 
10.4851112 -0.215913057 15.7338905 
12.1825018 0.0705794021 20.0118008 
-15.1978569 -0.151956797 5.42157602 
2.33498907 -0.334555209 -17.8700676 
-11.0305452 0.111677974 -15.6700773 
-0.684877872 0.12801452 11.3585119 
-0.54244417 -0.215129241 -22.8572998 
-23.7314243 0.595205307 -20.8342419 
-16.1249847 -0.539081991 -0.480838507 
-3.96874237 -0.420199424 -21.4808693 
-7.33401012 -0.178347394 24.0306931 
1.23438823 0.564389408 18.3111744 
13.456214 -0.328296334 -23.2510586 
-8.13470078 0.184387401 -18.0830345 
11.0168295 -0.178159401 18.4764729 
2.80153871 0.258689106 16.3364964 
-7.92869377 0.40323323 -15.1270628 
-22.7159996 0.180154547 22.7276058 
11.1834698 0.137133643 -1.51309288 
-12.2891321 0.3659105 24.4576473 
-15.5053854 -0.207005233 21.8070908 
-6.05070686 -0.290927351 -23.1063309 
20.0393867 -0.338814527 -25.0021381 
-9.0661478 -0.226269662 21.4729328 
-6.720047 0.203383535 -16.7097454 
12.7269325 -0.287304729 -20.9836025 
17.7890472 -0.359761566 -19.7141476 
1.98408377 0.0110588726 12.732132 
-2.26201487 -0.453401506 5.7230463 
-0.517210066 0.214442089 21.3429337 
-0.361757845 0.600356579 19.8838463 
-22.3376484 0.124490395 23.64077 
-0.224452287 0.666639447 18.7099247 
-2.40651202 -0.0967338383 -14.7916899 
15.2937632 -0.481114 -22.4818783 
2.11432815 -0.223868921 -19.5139694 
-6.87868261 0.379460782 -16.1491165 
19.4508553 -0.50166142 -23.4426327 
-23.7024231 0.350126654 22.5526676 
24.7951851 0.756201863 -20.0998249 
-20.5442677 -0.0382891558 -16.1620007 
-11.0829945 0.148754925 -16.3946266 
17.3469467 -0.0322476886 14.0919456 
-5.95666122 -0.130440071 -18.7249966 
23.5856495 0.469957411 -20.8051891 
-5.93040657 -0.0238743201 -16.3514309 
-17.1820202 -0.396343857 22.0211887 
20.3353062 -0.364346772 -24.8825035 
15.789259 -0.081588164 15.4672842 
-23.2069855 0.204014778 -18.4753838 
-17.192606 -0.233716086 -23.0788307 
-6.93345308 0.482726336 -14.737483 
16.1695919 -0.689967871 18.3037987 
23.0458145 -0.00838935282 -1.57126784 
-2.78377032 -0.171830565 -19.1833897 
2.63113379 -0.103761479 -21.155714 
21.108923 -0.0238916632 -19.5659637 
-3.40389085 0.27691859 12.9194021 
-6.31318092 0.310903221 -14.5052919 
-23.6842918 -0.185190827 -6.8119235 
-5.46576595 0.302879125 -14.0829897 
19.1382904 -0.480956107 -24.4415169 
4.40876245 0.534584939 18.1075935 
-0.121330336 -0.409114391 -19.7673149 
23.1117477 -0.336911112 7.2274518 
9.80352783 -0.200854123 16.2692757 
-5.48609829 -0.392955124 15.2197599 
-23.98592 0.273539752 5.4059515 
14.6036758 -0.0483264737 8.60534096 
-10.5321655 -0.300949335 20.3659229 
2.75774956 0.31625104 16.6222115 
0.75162071 -0.497085273 -18.8650494 
3.15770292 0.384234071 16.2224598 
6.91926289 0.476296008 -23.1258564 
2.54801893 0.56240654 18.8438129 
1.22066104 -0.406438828 -14.0623636 
-0.702312946 0.443281204 15.5659714 
-23.9387436 0.0857136473 -15.9431591 
-4.22724915 0.0145100057 -16.1579132 
1.88310552 0.761418879 21.5034122 
16.4686985 0.6114676 -7.58995628 
-0.229843765 0.656522095 19.191679 
-2.72302437 -0.191903576 -15.196394 
-13.1497641 0.19002153 -16.7922573 
19.7285328 -0.108197972 -18.3852005 
-1.88522327 -0.156054005 18.6497936 
0.651358426 0.383271247 16.2888851 
-13.2594433 0.105019711 -14.9082384 
-10.1362247 0.344480067 -18.8054085 
-6.03778696 0.0461428985 -16.5544529 
-16.3243237 -0.294673711 -15.1296549 
-9.10976505 0.33432734 -17.0459785 
-10.0363188 -0.393134564 19.9145107 
4.19799328 0.181290358 24.5493526 
15.0810957 -0.805899084 19.9972134 
-12.5916214 0.182665437 -19.7881508 
-13.9008207 0.202945396 -19.2588596 
-16.3748322 -0.318406165 20.4435654 
-1.1940155 0.545733571 14.2774715 
-18.9542675 -0.223256901 -15.6174793 
-11.7901278 0.39300698 -19.0653553 
7.63202477 0.164324343 2.40518212 
-23.6786919 0.191080734 -17.7485943 
-17.2577095 -0.514125407 -19.1455879 
4.41707563 -0.151000842 -7.76092625 
0.624502718 -0.412348807 -15.641943 
13.899621 -0.138739198 -22.0117226 
-1.28963935 0.0759209022 21.2364368 
2.3522675 0.0215397459 7.43884754 
4.94324446 0.132596076 -20.3626175 
-9.5599699 0.348494202 -19.3789787 
0.724374592 0.228446171 15.6961412 
-1.77368021 -0.0346269198 -14.6651983 
19.5742683 0.031359937 15.4947634 
-18.7228107 0.309980214 9.35879993 
1.34137666 -0.0884014741 -23.8659515 
15.2834711 -0.212165639 9.03344154 
-19.3908863 -0.339389712 20.1669788 
-11.0767059 -0.32224977 -0.379044861 
-5.45442104 -0.430978179 -20.5669708 
8.12806797 0.0727975816 14.9841785 
-23.2910538 -0.0506483018 -16.0397243 
-1.7150712 -0.517591953 -24.2077427 
17.6087971 -0.103496261 15.0217352 
16.6367683 -0.610460758 -24.1608734 
14.3526173 -0.0610439032 -12.6417894 
-6.67679882 0.430162042 -14.5398417 
-16.6660995 -0.367671221 23.2775764 
7.00543165 0.538061917 24.2890339 
-15.8262215 -0.311991185 -23.7074909 
-11.8005695 0.327847123 23.4760933 
-1.60608816 0.442952394 15.1066198 
-12.1313267 0.287582308 -18.9574337 
-19.8596611 -0.297419637 19.6832924 
-4.26399183 0.164466888 -14.0472717 
0.302082896 0.575226784 21.1341572 
17.7138386 -0.494565278 17.8040237 
5.6125865 0.331439227 15.3232155 
19.2375164 -0.214182958 13.4939346 
1.345366 -0.473249048 -15.9972525 
5.33188772 -0.176771998 -5.50779724 
6.92179775 0.493278146 24.5954018 
4.82780886 0.637130439 19.4153519 
21.6481647 -0.0321152247 23.9707165 
15.2219706 -0.646879792 24.672348 
-6.98863649 -0.412900954 3.87806702 
-6.62833405 -0.200400963 22.6405506 
-24.5098782 0.370698303 6.22220898 
4.71426296 0.241461098 15.0722084 
12.4133816 -0.505598426 21.3912354 
3.83339429 0.536843836 16.9066544 
12.9671793 0.613095582 2.31521344 
-6.89077473 0.452098727 -14.8773918 
-17.6218567 -0.278612852 19.8799591 
-1.20817876 -0.381164908 -16.2516518 
-17.8581047 -0.290901691 20.735239 
1.94134808 -0.168592334 -21.8252888 
-0.810763836 0.116131924 -3.1620574 
9.05026817 0.146305516 8.5985775 
-7.0251236 0.207286358 -17.7751465 
9.80712509 -0.213806272 18.7959328 
-1.92823064 -0.140788272 -16.0885887 
-21.0216694 -0.234210566 19.804554 
7.3115592 0.254480362 18.7333794 
17.0028992 -0.568199039 18.5511074 
-5.07531548 -0.409197986 20.2176857 
8.72062016 -0.11483559 15.9845943 
-7.46733379 -0.347056091 -0.877642334 
3.57320118 0.185066029 14.5819082 
3.98307657 -0.178279772 -11.8313866 
13.4609709 -0.27877441 -21.6792564 
17.7498112 -0.164576873 15.5607624 
2.891891 -0.260712653 -17.6579475 
5.01737022 0.199037328 -23.1534653 
-21.9751167 0.01268904 22.2759418 
-22.0784626 0.151926741 -2.97464466 
-8.12927055 -0.0132833291 -22.6700726 
12.6398325 0.249243811 16.9499054 
10.2527313 -0.197299242 16.8234921 
8.08442879 0.412775934 -22.2675152 
-7.05320406 -0.546634912 18.8959351 
-5.4646678 -0.44465822 -19.5100174 
4.22822142 0.200994357 14.1781311 
10.3163939 0.00638147583 -24.5386257 
5.21304464 0.186204031 -19.9249573 
-13.267972 0.114226945 -16.1645145 
-1.8984834 0.049262438 17.5372372 
3.39745474 0.450468153 17.7437096 
23.6658554 0.519369662 -22.9185219 
12.1756077 0.190889269 17.5071735 
7.924119 0.584242404 -24.8640862 
-18.8793716 -0.198499203 -15.1712408 
0.330272377 -0.325751841 -16.7418118 
-24.6292572 0.581755817 -18.4881325 
20.4291477 -0.136356026 18.6435699 
-23.9595737 0.127700523 -16.0683613 
19.5861206 0.0800373778 17.160717 
18.0710869 -0.548931539 18.8227024 
24.2869911 0.795368612 -24.2084904 
-7.23408794 0.327940077 -17.1616364 
12.3716936 -0.631017089 24.7322121 
-4.54861641 -0.358685315 19.8663998 
-6.16971397 -0.357583314 14.1054182 
3.96947551 0.0181838255 -19.8814468 
3.58930278 -0.550858498 1.88162148 
7.92848969 0.24449037 14.1814327 
23.2830677 0.348079026 -19.9248352 
-2.30956125 -0.196673051 -17.8669224 
14.2249975 0.317645907 2.09046817 
-24.6123466 0.104313076 -16.4660931 
-12.6086836 0.188879192 -15.4640112 
15.0655222 -0.663768709 18.6738167 
-17.6572723 -0.525687039 -16.7870827 
-13.5226631 0.210745364 24.5029926 
2.11760259 0.495454192 18.2735729 
7.26299286 0.618312955 -23.8270359 
7.37317085 0.0470647141 16.2960587 
21.5779686 0.032128308 16.2519894 
-0.190935478 0.408317149 15.1777773 
7.12185097 0.415444762 -22.7248173 
17.6481228 -0.152975619 14.68857 
10.5000362 0.0849733725 -22.7047768 
-0.00585067272 0.507218778 21.3119698 
-7.7161293 -0.338353604 21.4995461 
18.1643143 -0.405112147 -19.5769901 
-9.48817921 0.308326602 -19.0459785 
13.5682869 -0.366346091 -23.52458 
-2.32723832 -0.067347005 -13.426528 
-21.8354511 0.0746871158 22.6589546 
-18.1071548 -0.137472451 -24.2379398 
-1.99347341 -0.0705370754 -15.0232983 
-11.6053038 0.345526934 23.4064407 
-14.7291098 -0.0167847797 23.0231705 
1.16598439 -0.00265469495 -24.3265343 
4.06372881 -0.161501572 -3.25814557 
-0.875517845 0.497586608 14.8157444 
2.11990499 0.775017023 20.8345909 
-12.9286604 0.209481612 -20.690609 
-6.6563983 0.566300333 -14.0059223 
17.151926 -0.317969859 11.2665653 
23.1583176 0.230617285 -22.8063831 
-20.8778572 0.625296235 4.39513588 
13.7964954 -0.0379532836 15.8786392 
13.8997192 0.018081218 16.2461052 
-9.1855402 0.128646135 24.9512424 
-9.36739159 -0.512672424 14.6471128 
3.41903329 0.534511268 19.2097511 
2.62896323 -0.1955515 -19.2511234 
2.58956409 0.542120218 23.4200974 
-24.2721367 -0.203987181 -7.15480852 
-4.5595274 -0.314445555 -18.6622772 
-11.2062016 0.235690698 23.1502018 
-19.3514271 -0.188175783 -7.83747101 
-4.20117378 0.0977556407 -15.1082602 
-24.0269299 -0.029684782 -15.2925749 
-13.1994772 0.282073677 24.7414169 
-23.7580509 0.376251459 -19.2133713 
13.5812874 -0.24443838 -20.6901875 
2.30949736 -0.400742859 -13.8623657 
-16.8655357 -0.215650424 24.2206078 
-10.7664042 0.170348078 -16.64007 
10.7024803 -0.239629492 18.3829365 
1.22313452 -0.243764743 -1.40260363 
-24.4399281 -0.302519143 -7.98176384 
18.5134525 -0.559125066 -24.7570381 
14.9463129 -0.311438829 13.942646 
-11.1526423 -0.0266234614 19.6267281 
11.5004444 -0.0895133168 17.4287624 
-0.0604176149 0.115569636 13.5922289 
1.15530956 0.0872788504 15.4230747 
21.5302238 0.0622326061 17.7380085 
-4.41597843 -0.156979412 -17.7355824 
-14.9463902 -0.00345940189 24.552784 
-21.911747 0.0537756607 21.4807701 
-15.1115999 -0.0847072229 -15.9672995 
14.563386 0.315308034 -10.6383743 
-3.14210367 -0.191020116 21.2899685 
21.738472 -0.243676811 -22.7110844 
22.3589096 -0.028137438 -23.9157658 
1.45899045 0.51722306 17.7912979 
2.47008061 -0.161127642 -21.2695904 
21.5576134 -0.293815523 -24.7240791 
-19.752697 0.43703413 7.45288658 
-16.8855591 -0.210083544 -14.0534391 
1.58152068 0.617569387 21.5556145 
9.48251438 -0.106953919 15.9922972 
-1.01641917 0.312470973 18.5417423 
9.9298563 -0.0313559249 -22.1343575 
-14.2322626 0.205663189 -18.9110794 
6.22664452 0.203425795 -24.062151 
4.15787411 0.0888494179 13.4157372 
21.627079 -0.0323317423 15.7447958 
23.0417824 0.276771039 -23.6260242 
-4.13506985 0.00916293636 -16.0857334 
-8.84258461 0.187427178 -13.9798822 
-9.26123619 0.237325355 -17.9177952 
-3.45335674 0.0539207906 -16.9336529 
-22.9335346 0.00369689241 20.1651726 
-10.4018488 -0.367091388 20.2263508 
-21.0651302 -0.139869705 -15.6611948 
13.5264902 -0.141798764 14.9179344 
-17.9016552 -0.217359275 19.5867615 
8.76164818 0.06981273 21.501482 
23.9555492 0.536118984 -19.6941891 
-1.80380094 -0.558472514 -23.5947151 
4.2674427 0.682572424 18.9723568 
-20.7684021 -0.227710918 -19.0415764 
21.3833885 -0.355260342 -24.6364403 
1.29577792 0.567602694 18.6208191 
0.0927956104 0.187185138 22.9470482 
-13.0706739 0.196643189 -18.0826778 
-2.49971104 -0.601608515 -22.5102043 
-4.00891829 -0.4376131 -21.8205986 
-14.3794088 0.039557673 -16.7391891 
-19.3115273 -0.163290277 -14.8485231 
5.94298935 0.506959617 17.5507832 
-5.18942308 -0.331546873 24.7984333 
-0.211879641 -0.290187716 -21.4829235 
13.8706665 -0.168095022 14.3456841 
23.8861237 0.580144823 -22.8133526 
14.3037882 -0.286233425 14.1076565 
18.694212 0.105508469 16.4241543 
5.63272381 0.605120897 17.7228241 
10.7846279 -0.202683553 18.8204803 
-19.6874886 -0.269328982 -10.9508009 
-7.72241783 -0.0666056424 -7.20261288 
-12.9157276 0.21011287 -20.5539627 
18.4830704 -0.405517966 -19.7241364 
-17.7848988 -0.249119073 -15.4523487 
-5.71475458 -0.198451325 23.9349251 
17.6469765 -0.644210696 -23.0321903 
-9.58223057 -0.497099549 -2.26058769 
-10.2310476 0.285930634 -15.3261023 
9.19270229 -0.139813095 16.3206882 
-15.6216373 -0.0866158679 24.2576523 
0.546172678 -0.079225108 -9.05809402 
18.0251865 -0.490990371 20.7065773 
5.65676546 0.303620785 -19.9189835 
-15.119215 -0.0779757127 -15.8312759 
13.396986 0.00829056744 15.634285 
-5.44222212 -0.236911118 -17.5017834 
20.9567623 -0.0180453509 14.6118813 
14.6088085 -0.438672662 -24.0403442 
22.6689148 0.167919919 -24.7964344 
12.9630547 -0.181444615 20.2160454 
-12.3079128 0.109749332 -15.3232584 
-13.5808277 0.120359272 19.6221504 
-15.2955685 -0.226099223 -16.6186409 
-24.2168236 0.337115526 -17.7952156 
17.4351902 0.197187379 -4.1041851 
24.4967785 0.638381898 -21.7990112 
2.93547726 0.224392012 15.6416435 
23.8352814 0.529507756 -20.6896648 
4.44864845 0.227075681 -24.1850109 
0.552484274 0.434408426 22.1491375 
17.0776672 -0.63466984 19.7420139 
-7.470016 0.0587636344 -19.0736618 
21.9671326 -0.0176139586 -21.0923653 
16.781208 -0.524259388 -23.0453072 
15.7051535 0.425245941 -10.7007227 
-3.27127814 -0.334142268 22.2144279 
12.4955835 0.273885369 17.0904102 
0.045286186 0.57197082 17.647892 
-20.3385639 -0.301160574 21.5504074 
-5.05106592 0.0869977772 -15.0980597 
19.8913097 -0.345868766 -24.8248024 
-0.621433377 0.5370543 17.6925659 
-4.75004816 -0.416016668 -19.1685638 
10.3664122 0.145243108 12.1193199 
19.7747402 -0.370227665 -23.9080639 
-23.0375481 0.239955783 23.3598595 
9.57120037 0.131365702 -24.27705 
-13.0853443 0.0741823763 22.9297829 
-14.0143414 0.228930622 24.799921 
-16.2924442 -0.497218341 -0.183892787 
2.22249603 0.100124381 15.6095324 
11.7626734 -0.0977885127 -20.9429607 
-9.75342464 0.162654623 23.165287 
-1.15653467 -0.267044485 -18.3910007 
-13.9588203 0.205022633 -17.2637596 
-15.2844229 -0.362961203 -17.7464294 
3.99502683 0.476171255 16.844347 
15.7349558 -0.261550903 -21.2778759 
-1.28868079 -0.375661284 -20.3227291 
-23.2947884 0.25605309 -18.7202377 
-10.4065599 -0.314851701 20.6899872 
-8.21257973 -0.0797585249 22.6127796 
21.2597103 0.0699750707 16.7185497 
11.2315292 -0.0370979682 14.9970293 
-5.59128475 -0.121515743 -16.4112663 
3.73090506 0.0345922895 5.97045135 
-2.80243611 -0.26212278 21.6881599 
18.2094879 -0.499920845 -21.4525909 
-5.55881453 -0.393211812 -19.6019173 
-4.64247179 -0.293949634 23.8919086 
14.2774458 -0.475410461 -24.8570023 
2.23792672 -0.460023671 -17.0222664 
18.4779282 -0.19146131 17.5373917 
24.8885498 -0.177070349 15.3353443 
-19.1161575 0.0877078325 -23.6018696 
7.94415092 0.429231703 -21.0507431 
-17.3488674 -0.166094318 -14.3851585 
-12.1985388 0.289622188 23.3230743 
22.4087276 0.0705315769 17.7147827 
16.2457371 -0.408233076 16.6381989 
-0.946204424 0.400980115 17.2959156 
-12.2042322 0.234939873 -19.0909157 
5.47587252 0.195772752 8.87507629 
-11.1656914 0.179082513 -16.8404255 
24.2130356 -0.200152472 17.0471535 
-21.1338596 -0.146897078 -14.878233 
16.036171 -0.571993589 -23.881218 
19.4237518 -0.0034852419 17.5749626 
3.72654128 0.48473233 18.9052753 
-14.5679131 -0.0443973728 -13.8684683 
-8.01309681 0.505804181 -14.5121431 
7.15488911 0.0749172121 20.6401634 
-23.6729393 0.303266227 12.8429546 
-18.2457676 0.109380886 -1.07053721 
2.06212544 0.521465659 18.5632477 
-15.2025805 -0.0649174973 21.9255695 
-18.9934826 -0.440436959 23.6816254 
6.59497976 0.27350989 17.8131371 
20.5113811 -0.00951078627 17.7093754 
-21.1835747 -0.21776633 -19.0450478 
1.18758178 -0.424672067 -16.9042912 
16.003994 -0.806672215 19.30756 
3.15232277 0.575447261 18.4781456 
14.5190897 -0.319386035 17.2048225 
-12.0727148 -0.26195249 9.49677181 
-20.8098583 -0.0787391365 -16.8316326 
20.6629162 0.0712541267 14.7746105 
0.20165357 0.590644836 18.5135345 
14.5381517 -0.695770562 20.6075077 
22.3503304 0.115791619 18.0722351 
-21.9366589 -0.116594993 -14.3367767 
-14.8185854 -0.210904807 -18.0606499 
-8.15686893 0.488135636 -14.2193851 
-3.47094917 -0.0471942835 -14.8358812 
-19.8635006 -0.415893495 23.6104164 
15.9143009 -0.111744441 14.7578764 
21.9371681 -0.0269475393 16.3612328 
17.6420727 -0.0991724208 14.0429239 
-1.07707477 -0.0986981839 -15.3985147 
18.4156055 -0.106457867 14.9810448 
-8.89285469 0.292778015 -17.6012745 
-17.0425911 0.0618436038 7.38136387 
22.4162235 -0.0660181195 -23.2143536 
-15.6624918 -0.233369276 -16.4252834 
-5.21681404 -0.37943244 -19.9322433 
-5.86787128 -0.311035514 -23.6885052 
6.72868061 0.324435949 15.5425777 
21.1847687 0.0745861754 19.0190182 
-1.1727289 0.120837025 -6.11244488 
2.66690874 0.639002204 23.0381184 
15.6689596 -0.767136097 18.6417599 
10.8993664 -0.0461584479 14.1108761 
2.02859497 0.414549589 17.3628998 
21.9559002 0.217779636 19.575922 
-11.1951685 -0.368158013 15.4457912 
-0.513853133 0.466607034 16.7693214 
16.727953 -0.289081365 -20.1723213 
-24.3383408 0.615418375 7.9243927 
-8.27086926 0.0971857905 -18.4556293 
-14.3823652 0.0939257219 20.4893494 
-3.35683966 -0.0393212885 -18.5295429 
-13.217906 0.218618467 -17.3520832 
-11.1966124 0.136288017 -16.1594982 
5.68636179 0.542533815 19.4126987 
-16.3042736 -0.473703355 -17.858593 
