ply
format ascii 1.0
comment created by gply, a Houdini tool.
comment converted from .[b]geo
comment for more information about Houdini, try:
comment www.sidefx.com
element vertex 1271
property float x
property float y
property float z
element face 0
property list uchar int vertex_indices
end_header
-12.5787029 -0.331733078 2.90699053 
-8.37635517 -0.062228594 -18.5157413 
11.145834 0.392711163 4.06013203 
7.98221111 -0.296109527 -3.43510509 
9.41566563 0.179749951 0.112636201 
24.7355995 0.548028886 2.47327185 
-5.09212875 -0.199000508 23.4764252 
7.69335985 -0.548919499 -7.97384167 
13.0875378 0.833298385 -7.54530001 
15.7528028 0.526599765 -5.60734558 
13.373724 0.0387179814 11.8389015 
10.3205051 -0.23107706 8.03390217 
22.6643028 -0.74944967 -8.04636669 
-14.3766146 0.276117206 -9.34994221 
19.6827545 -0.363099456 7.47033691 
-16.0412064 0.295753986 -10.4379969 
-2.24003935 0.118838973 -0.519868493 
5.59693384 0.0277687721 3.13747287 
-12.5968723 0.532741845 -14.4451609 
10.339817 0.339982808 -13.4591808 
23.3319588 0.262703717 2.46563554 
22.9380264 -0.612524033 -7.02925825 
-14.0226936 0.490046859 -13.8198481 
17.8750095 -0.398362011 5.22726202 
-13.859684 -0.182131886 -5.23378468 
-5.83739853 -0.0882249027 -13.1932421 
23.3789234 -0.174147412 -16.9621525 
-14.4625072 -0.0408048034 18.8436584 
-11.3541536 0.449909389 -14.5803938 
20.718626 -0.729357004 -10.2089157 
-7.26155901 0.0261437036 -7.35013103 
-12.9678974 -0.502470016 17.1226196 
9.34050751 -0.115006693 15.7579288 
0.0575191379 -0.441221237 -16.1172581 
-11.1718798 -0.652077079 12.3442316 
17.4782581 0.0027180491 -4.72289181 
-0.526829064 0.11523582 -4.76510429 
21.0610542 -0.672346771 10.6032543 
21.7735195 -0.0523575544 -18.0298901 
-23.6701412 -0.204581857 -10.0871716 
13.8640976 -0.0302299373 4.34562874 
0.497776628 0.0238725953 -5.81783199 
10.1110735 0.0521014221 16.4246235 
-3.28868222 -0.0248801522 21.5114422 
-22.0804787 0.828400254 7.9558363 
10.9364815 0.0100900549 -5.79328442 
-22.3728142 0.154582158 20.7458553 
-9.14461517 -0.454479098 8.70966244 
-3.22120643 -0.0241838526 -9.74957848 
16.7409706 -0.384947926 5.72891092 
20.199894 -0.354103297 -7.66373396 
-10.8950834 -0.5628497 -2.44269466 
21.9855003 -0.892675459 -12.1274061 
5.34382534 -0.0749501362 -14.0123796 
-19.1277771 0.0475406572 4.65933228 
-7.67225075 -0.118814901 -6.67613268 
22.1403503 0.187032059 0.615285456 
25.1248894 -0.421662897 -9.85706615 
2.51404023 -0.392998815 -10.4639826 
-12.8437634 -0.504594207 4.35833073 
8.16725445 -0.302637249 -4.36612082 
-8.69819069 0.317830801 -10.6814404 
-14.4817972 -0.203450948 -3.71672606 
-2.95754576 0.171138704 10.2231092 
14.919199 -0.757560372 18.7261906 
21.005415 -0.171108559 4.9557333 
12.8336744 0.681813121 -6.97064781 
-1.66717339 -0.320919663 -9.64527798 
-1.77018738 -0.366561681 -11.0102234 
13.7934017 -0.210410431 7.34525013 
-4.40376091 0.164417371 -8.72909451 
-5.20476484 -0.082724832 4.66873503 
6.23431635 -0.569114029 -10.5900354 
-20.788517 0.460144103 10.4333382 
-13.5879889 -0.247421116 -4.630548 
-9.16464329 -0.322042674 4.77604151 
-13.9952421 0.041263897 -7.42621946 
-17.7703228 0.00942327827 -14.1064987 
2.92014122 -0.135052413 -2.96329832 
4.0410347 -0.0998272672 2.83129692 
-18.7524109 0.352670521 13.0329313 
-9.97352695 -0.497653782 6.61236 
17.806612 0.158571705 -7.98308039 
10.5503941 0.279307693 4.02342224 
-20.3440628 0.621132135 7.15961218 
14.4790468 0.581589282 -6.09116554 
16.5714111 0.157320991 -1.14555407 
-19.2875767 0.375012457 11.0270472 
-21.4333057 -0.0731373951 -8.093997 
-0.671869576 0.0365474559 -8.19305992 
1.28359342 -0.176665559 3.72585559 
5.54748774 0.0752799064 14.1811733 
-23.6653099 0.861882627 9.00756359 
9.0946064 -0.0731622279 -12.841753 
22.9215202 0.58821553 -22.9902878 
3.60460448 0.227662146 5.66163683 
-8.73256683 0.290741593 -15.5497398 
-0.498295575 0.576231241 19.2948952 
-23.7096329 0.81411767 4.17611074 
-11.3050451 -0.570672512 4.18390179 
19.9172535 -0.625496805 13.6927395 
-19.8865471 0.0743973851 -7.18240261 
-3.09248638 -0.178956687 -12.3809814 
-13.1213198 0.0533524193 -9.28455448 
-4.92173386 0.309302032 11.9982805 
21.7342491 -0.18008846 5.53912973 
5.41612291 -0.0107896794 -3.77125359 
19.0445004 -0.00888588186 -9.85610771 
-11.1854143 -0.66954726 12.5891476 
10.0667915 -0.0794598758 -8.1048708 
17.0993614 0.3310844 -6.85383368 
-8.11401939 -0.108245932 9.27498817 
16.4294014 0.104857206 1.02981949 
3.25979018 -0.338451236 -7.87092733 
22.5673542 0.176810652 0.683427989 
-11.5123587 0.377351999 -12.556632 
2.22169423 -0.0105367592 -3.64688134 
12.4369888 0.396399409 -8.69677639 
-12.1538067 -0.411878914 3.15624142 
0.658010602 -0.0675419718 -4.33927774 
12.3502054 0.357494235 -1.43437946 
-15.4205017 -0.298037767 4.64046621 
18.0517807 -0.166811511 18.2519798 
-12.0871677 -0.110287651 0.0728863776 
1.31871784 -0.384429544 -11.0621662 
2.03573418 -0.187948689 -17.0328102 
8.8704567 -0.26074025 -5.33015251 
-5.94450569 0.0321169384 -8.38560867 
3.11270642 -0.139114082 11.9007263 
21.1763592 -0.31334883 3.74920225 
-14.7838116 -0.450401515 -3.30673909 
13.2290306 0.265244871 2.76352453 
6.30568743 0.153436556 -15.1024151 
15.0175982 0.672572017 -10.150218 
-0.742648125 0.510159492 17.1925335 
-7.59446335 0.543126464 -11.6420183 
-3.01534438 0.328892469 12.5172977 
12.6446152 0.0124871116 13.4837027 
-1.92046869 -0.308391243 24.060442 
14.9480038 -0.203652024 16.2286263 
11.9715281 0.424672127 3.72202253 
-2.8392446 0.190540686 -0.735338807 
-24.0096798 -0.131240234 -5.42656136 
-8.36665821 -0.113638304 10.8052502 
-8.92031956 -0.246731147 1.01019192 
-12.4295444 -0.14249219 -0.883053184 
14.7530451 0.132172689 -0.365656555 
4.79892397 -0.0845872015 1.40590632 
-20.0844936 0.427382171 8.25990868 
3.67994499 -0.291022718 -3.06485033 
-8.571208 -0.1048356 -8.26208878 
15.3664942 -0.546177268 -24.5699978 
-17.8145046 -0.271175325 3.68572807 
3.80369329 -0.389027208 -11.4603481 
-14.2434263 -0.378984183 2.26352334 
8.00098419 -0.205379084 -0.316875279 
6.96947908 0.124698691 -15.1067801 
20.686615 0.00983255915 -4.50915432 
8.88844109 -0.103229232 -12.2237854 
11.6409035 0.268219143 16.796978 
4.90579271 -0.0524151661 12.3108721 
-10.2171011 -0.507369578 16.8561249 
-9.60769558 0.00425973115 -19.1292286 
5.26320934 -0.472900897 -8.53981018 
21.1124229 -0.659138262 -12.2150517 
9.09527588 -0.28191632 9.66248035 
18.2247257 -0.231829464 18.6178188 
-1.85949838 -0.210232496 -9.28273773 
8.67652893 -0.17290172 16.2835865 
14.7639008 -0.301898956 9.20347786 
-6.73756075 0.0788358301 -1.58849418 
-0.845238507 -0.136657 5.19627762 
-20.3535023 -0.247081444 -14.7996941 
-13.5846195 0.530338764 -17.1773376 
-13.5753031 -0.177465931 -2.96669841 
-24.483757 0.540159047 5.49903393 
-14.5159025 0.27315551 -7.56613445 
-19.974165 0.62289232 11.7795334 
-18.100853 0.406167358 15.8968172 
14.1527405 -0.215409175 -17.0048752 
10.0451632 0.242634147 4.00547409 
-8.02079773 0.229052082 -8.62715816 
-18.0376072 -0.35536921 3.04700112 
-12.8675261 -0.174510926 -7.11332417 
15.6202049 0.399548709 -8.74336433 
-0.319746017 0.194312334 11.7230625 
18.6641178 -0.507396877 1.58691502 
-19.1637535 0.357663512 5.66156673 
-0.938883781 0.345932782 -6.3539362 
1.60754478 0.0771232098 11.4299116 
-4.3462677 0.110008538 -10.2453365 
-6.41678715 0.0122083863 -3.539361 
17.1352901 0.294405073 -8.92436218 
-17.4732323 0.324079484 -7.56464863 
15.0729332 0.319960624 -3.5361886 
-17.8908329 -0.27560249 -2.27149439 
6.79052591 -0.280560553 -5.18673468 
18.6556339 0.241988689 -3.18413734 
-2.47141981 -0.229125783 -12.2616177 
-16.2970886 -0.019430995 -5.19733715 
1.64762509 0.319576442 8.08258438 
6.17073011 -0.0711411685 6.69080687 
-20.5774422 0.166114077 -3.81946921 
5.62052536 -0.0897920653 -1.29206085 
-15.1836405 -0.34044975 1.62336802 
-0.0163529664 -0.057991147 -4.09076595 
-9.81853008 0.350238889 -17.7022552 
-13.6657333 0.200588882 -8.73691177 
-17.6606808 0.368513197 -8.8548708 
-11.1302929 0.796473563 -15.9098434 
5.61011648 0.0305142049 5.26360273 
-24.6653767 -0.18031238 19.4032688 
-20.2650185 -0.0358955264 -10.4106092 
1.16608393 0.114373356 -0.0129257739 
9.36799622 0.188850358 0.681442916 
5.64118719 -0.185906798 -12.3578749 
0.444290072 -0.238080055 3.77525616 
-6.08165026 0.357901663 -11.5222559 
4.90558243 0.363499522 15.5033064 
24.8315754 -0.000853301957 -16.9841537 
-12.6050968 -0.236398444 -6.42103672 
-19.4355488 -0.444104761 -21.2199135 
20.6760979 -0.254402429 5.83529758 
-17.2089596 -0.0311103202 11.5904465 
-5.26698446 -0.0375356302 -12.8276548 
18.5220623 0.0732187182 -12.4541016 
-20.5595264 -0.0933988392 -5.7373457 
13.35742 0.442756712 -4.30361366 
16.681015 0.178628534 -12.089262 
9.48976135 -0.0976048112 5.42943048 
15.044549 0.564234316 -11.6132355 
-13.4720869 -0.325311631 6.85402107 
-8.71084404 0.494493812 -14.5079451 
-15.1445951 0.375084817 -10.0135927 
2.84151983 -0.0466671363 -2.28445768 
8.17886257 -0.0335042961 15.3818026 
-23.6603146 -0.129719689 -9.19211197 
17.9060364 -0.422793537 3.0243206 
18.1122208 0.138021305 -3.84874177 
-19.3187294 0.13607423 4.1488533 
-18.2942448 0.25868246 -7.03991413 
8.30904484 -0.145816013 0.197002798 
8.45040321 -0.306424975 -3.43452024 
-21.2748585 0.794519067 6.80789423 
-13.3356733 -0.144905895 -6.31261349 
-3.6376791 0.322166055 -3.26034665 
-5.22421169 0.220973268 -5.99054241 
-23.4738598 0.0322034992 18.3665752 
-19.5824604 0.248829335 4.2976284 
9.92397308 -0.111661285 -8.30172443 
11.5087261 0.237875596 -11.1235027 
15.3247643 0.00462512579 1.94121075 
9.7487421 0.19235447 -18.6410866 
-11.7653141 -0.736285388 11.294137 
-3.5603261 -0.102074534 3.71279907 
23.1224995 -0.35665074 16.0156651 
-7.73589754 -0.00624002842 -3.84903407 
0.706112623 0.191228852 17.0537338 
-6.41496134 0.137787193 -2.56801224 
-24.0815544 0.696575403 2.67045999 
18.8868427 -0.4558734 13.7428713 
22.9801331 -0.685364008 -8.1135397 
-17.258585 -0.479450375 -2.56319928 
23.8379192 -0.0240768231 -17.2462959 
-20.0376892 0.338709444 3.62380838 
1.60797763 -0.122157834 3.25278187 
0.0727357119 -0.156602293 3.56255722 
12.6839657 0.415479451 0.91961956 
-3.05623245 0.508697331 16.5707664 
-9.82021523 -0.217158824 -8.0499506 
-18.4771976 -0.0262325238 -3.38795614 
-3.96466064 0.322922826 -4.79582357 
18.2020111 0.0969061628 -5.07162333 
-15.121686 0.251855552 -8.97273064 
-1.53781867 0.386920959 -6.12041283 
-14.9486332 -0.353330076 6.32878351 
8.15717125 -0.453920156 -6.68351793 
-2.5073657 -0.145026222 8.6910677 
-0.592136264 0.265035659 -6.72822428 
-23.5195255 0.72511816 6.26399326 
-6.00241041 -0.0914559737 -5.61066961 
-22.8728256 0.438366443 0.0811911225 
-2.20346594 -0.285021901 -10.5557137 
6.0124836 -0.401031107 -11.088994 
-7.84347391 -0.195757747 -2.71461296 
-11.5984259 -0.123478904 0.876942158 
23.2627697 0.590878427 -23.7097054 
9.35599709 -0.299771637 6.82830191 
18.4716129 -0.398141503 4.15340137 
9.93405247 0.266477168 3.76352096 
18.8049259 -0.0927459821 -6.30437756 
-24.5490665 -0.100439623 -5.46415424 
12.3822966 0.436710566 1.05620992 
-2.26502204 0.111284122 -6.92884588 
9.90489197 -0.150478974 5.85041142 
24.0570984 0.335768193 4.78166199 
-17.4844341 0.190649688 -13.3458452 
0.284328729 0.210840032 12.9064894 
-9.92387676 -0.424212158 5.25106525 
-23.7368202 0.229255199 -3.18050218 
5.99188614 0.0783868879 16.3825417 
6.60360479 0.0511770174 17.0925064 
-17.4644985 -0.300660431 5.69532394 
-0.34490931 -0.120873131 -2.49624896 
8.1177206 0.0667708293 20.6176548 
14.3553438 0.0307402704 3.26980901 
16.3532372 -0.271556348 -20.848917 
6.51948261 -0.0420152582 20.5124073 
2.63851547 -0.300213844 -7.11289072 
1.02004719 0.3479276 7.44596958 
12.2760744 0.0645336956 5.72356462 
-0.580317736 0.147520363 -7.76328754 
-12.9687443 -0.192458317 -5.00864363 
-14.2387438 0.154850826 -8.00684929 
-20.0367241 0.0712095276 2.02163625 
15.0505028 0.604422867 -6.77079153 
6.50924397 -0.330194056 -12.6258736 
-24.7074966 -0.122686334 -6.60608816 
-14.0624628 -0.290422201 3.31955838 
-16.0494175 0.198534563 23.0607605 
-5.65424967 -0.0826121792 -13.5330915 
-0.490077823 0.443892121 17.3719635 
-9.90088463 -0.126976728 -20.0964813 
-11.8449945 -0.752715349 9.82114697 
-19.1075134 0.29239139 -10.7624102 
-19.5013275 0.574036837 6.70086718 
-16.5862293 -0.374550611 7.94297647 
13.6734562 0.430925965 -4.8985672 
-4.71178818 -0.0791404694 -12.7920465 
-18.6047173 -0.079901427 4.15772247 
11.2847538 0.143856511 -9.30199051 
-4.56335497 -0.108430125 -14.7038441 
10.5917482 -0.0355973803 10.1193247 
18.8454552 -0.39307946 5.07367945 
0.493014395 0.0799678043 16.2846909 
17.4421978 0.176090524 -7.16218424 
19.4433918 -0.236620978 -20.9699135 
4.28290081 0.0588554591 5.45765924 
7.45985365 0.310637683 -21.435318 
-0.479253709 -0.161522567 5.05248833 
-0.768241286 -0.264384091 -11.8728237 
2.55725527 0.281835556 8.49983883 
18.0329418 -0.328241348 5.58266783 
12.4108047 0.181556419 -13.4330864 
13.0289154 0.414413422 -2.85435605 
-11.4110079 -0.395142585 2.64526892 
-0.379717052 0.194144294 9.09604645 
-23.6472168 0.828431189 3.77170086 
-15.0743446 0.0960010365 13.2077065 
17.7673512 -0.168235838 7.75338459 
-13.2832651 0.571502805 -17.6722584 
17.372942 0.298345864 -5.8935504 
-22.9836559 -0.423348665 -12.3075151 
-19.9983196 0.0594690405 0.33483547 
20.3822765 -0.0874013975 18.6421719 
-10.726943 -0.579649031 9.63346291 
18.9348526 -0.59263432 12.2824945 
-3.97738647 0.234290034 13.4953241 
24.3924122 0.729241431 -23.5184803 
-1.64806807 -0.0848437324 4.72057962 
1.99768209 0.187204406 10.1173687 
-0.220107377 -0.293100953 -19.7580051 
-12.2296314 0.336996764 -12.8720217 
3.3189466 -0.341553539 -5.84233809 
-22.487051 0.172183588 -6.02925539 
3.01163864 -0.153414771 -3.57497454 
-21.4149551 0.814248323 6.77808714 
21.411871 0.0146191148 -3.8110044 
-22.0163841 0.154691264 -4.02156687 
-23.2185249 -0.139088795 -9.84946823 
-0.441418856 0.103800423 8.12805367 
5.2059164 0.431215405 16.4544048 
8.30318451 -0.392549545 -10.6641626 
5.29554558 -0.0375753455 -3.70272374 
8.12430096 -0.509567142 -7.87718534 
3.88473272 0.371563673 8.19589138 
23.865963 0.620914459 -20.5088711 
16.7651348 0.354669005 -7.93309641 
14.1158247 0.313796103 -12.9339771 
8.29601383 -0.431232691 -6.72884417 
-19.4578209 0.264389753 -7.49689054 
-18.1294632 0.314823925 16.7585201 
19.0458508 -0.3177118 18.3463764 
-4.50700617 0.142765835 -8.34863663 
10.9688358 0.159357652 -0.204756856 
-5.76019192 0.205139518 10.1389437 
-9.12284851 -0.177065626 3.31394649 
-16.2308388 -0.488018602 7.43870974 
15.1589289 -0.564711511 -24.1150036 
-21.4642277 -0.236224234 -10.2179203 
-19.5625668 0.41542232 13.947648 
-20.8836994 0.793568492 5.04051113 
20.4320431 -0.205190584 5.26666021 
8.30698872 0.366083264 -17.4570961 
-21.9077702 0.0846008956 -6.28619957 
-7.90743732 -0.252358884 -1.62615991 
-8.8393116 0.636950791 -12.7491617 
-6.39013004 0.0348911844 -3.40378332 
2.35874605 -0.0482659526 13.3819704 
9.22649384 0.163680881 0.399632573 
8.05255318 0.416024685 -19.0307007 
-24.6500931 -0.469638973 -11.3369913 
-21.5678768 0.31975916 15.72363 
10.9719687 0.0429931581 -4.67630291 
12.6484852 0.013220828 6.98778057 
13.5366936 0.356357574 -3.11789036 
8.78914642 -0.418773144 -6.84028769 
-23.7419796 -0.289637357 -11.6049519 
-22.4947701 0.575054944 1.45359182 
2.00393033 0.655124187 20.7426376 
-16.1602688 0.193819195 -16.389183 
2.58598661 0.3487674 8.009552 
18.520052 0.0190089922 -13.0805044 
22.4299221 -0.110459872 8.85255718 
-15.9090662 -0.262408376 4.96773672 
21.9785633 -0.503741443 11.1732407 
4.51369333 -0.375268787 -7.28796816 
12.3752871 0.00516585261 9.28744411 
-7.14151478 -0.311150193 2.88673019 
-19.0676727 0.186282769 -5.42345142 
-22.0686131 0.0141529366 -7.01154375 
-21.9975109 0.786958039 9.26140404 
11.3612194 -0.0310492273 5.95965052 
-8.88874531 -0.352711856 11.2627039 
13.7866716 -0.11763151 5.69575453 
-5.5937233 0.341935366 11.7226725 
10.799366 0.346782088 15.1847105 
-3.66531038 -0.222198516 6.62144136 
-17.1635933 0.199175313 14.1269197 
-19.5814686 0.187615678 -10.3814125 
14.3554516 0.770625472 -8.65861797 
12.9056282 0.436883688 -11.0624905 
15.3286886 0.57509917 -6.13598299 
-2.69850373 -0.205213249 -11.3182783 
9.06289005 -0.17930457 -2.415411 
9.52286148 0.0343045145 -13.379817 
23.4817429 0.28836596 6.20075178 
-6.24292088 0.118838996 7.0579958 
4.3335886 0.103568323 -14.823925 
-19.1472054 0.26699391 -10.8944893 
-12.9563198 -0.548527062 11.9836378 
-16.9301605 -0.696922302 -2.38788676 
10.8816299 0.297434807 -7.62144613 
23.0667858 0.153722569 6.42278862 
8.36393738 -0.309367448 6.74288654 
10.5462694 0.0277655497 -8.0556097 
-21.9704342 0.319121271 12.5920792 
-5.53855228 0.0394810848 -4.0328002 
6.0070262 0.341288179 -17.1025772 
-20.1562366 0.150680602 -5.18019915 
-24.6986294 0.51742065 5.99464703 
9.15633106 0.286479235 -19.87257 
3.35647941 -0.365239471 -7.58387947 
-15.0758057 0.312186629 -9.58444691 
4.24362183 0.0967391804 4.05759811 
17.4098701 -0.478400052 4.34026814 
-2.78724384 -0.0335749798 3.7602005 
-7.2819376 0.549583614 -10.2753277 
-10.3960905 -0.692533791 -3.61040902 
-7.61318684 -0.114895202 -6.24641705 
-7.21708488 -0.0386547521 -3.31348896 
9.88540936 -0.264870495 7.45427132 
-15.7811451 0.0747141093 -19.0796204 
10.2700319 0.0425774083 17.9872284 
-17.5511818 -0.38299948 6.70594358 
-10.7849607 -0.467114806 3.165416 
-13.8440714 -0.222616494 19.0888176 
-7.74640846 0.399512202 -8.62826824 
13.033988 0.815007389 -7.24576569 
-9.26130104 -0.381685257 5.79264069 
-19.0759907 0.227029473 17.8143826 
-17.4188595 0.287626058 -10.5205679 
-12.6253767 -0.303258479 -3.31889462 
4.17051411 0.177248925 9.2786808 
-18.4510212 0.203457862 9.5723772 
-13.5925541 -0.33365196 3.62637782 
-23.919405 -0.109662026 -5.97089529 
15.4752874 0.53201592 -7.36717129 
17.1730385 -0.0685699508 12.0994177 
-3.23592949 0.226959109 10.7522926 
21.0654087 -0.815982401 -10.189208 
21.0868015 -0.0931466669 -0.173152447 
-15.0215645 -0.1947999 -4.32931232 
10.3164349 0.0465152115 -0.662691474 
-1.68071818 -0.108628258 4.36259985 
-0.811733365 -0.0787272826 5.48057699 
2.51165318 0.282840848 5.4373188 
-6.62506437 -0.158281833 3.32102251 
2.65364647 0.363154382 6.2134757 
23.0677204 0.285395175 2.6563549 
3.58150291 0.0286163334 14.7063246 
12.7882757 0.484422088 -10.8920202 
23.8125591 0.273948073 1.97284353 
-3.96358395 0.0203483328 0.318986088 
18.0462284 0.145544246 -8.12574959 
-1.75192869 0.6809659 17.5960865 
22.406847 0.0894395038 -3.73830652 
18.065237 0.123783238 -4.01926184 
11.2303658 0.285047024 -11.3615179 
10.8557491 -0.0670522153 9.66152096 
-10.0301466 0.13138546 -11.0168562 
-11.8136702 -0.206090361 -7.50301743 
-22.5780735 -0.386853993 -11.707366 
11.4875593 0.217653006 -14.0337887 
10.8373041 0.216927245 -6.79849386 
-6.75528336 0.0884736553 -7.81702518 
-2.2539897 -0.283135951 -13.5695276 
0.927926838 0.245217249 8.78600883 
-20.940115 -0.23980163 22.648077 
9.8106699 0.0735401139 12.2999048 
20.2096558 -0.490108818 -8.54316521 
-3.35165524 0.334674597 -3.49789262 
4.19132185 0.124660835 23.8063984 
-8.34271049 -0.248162523 -2.96180439 
5.16990709 0.50328064 18.9856319 
-23.5306892 -0.0422919951 -4.48751926 
-9.32937908 -0.57119298 17.3997326 
-14.7096062 0.421946704 -13.4871387 
16.1537552 0.271237671 -11.4570704 
-4.73482275 0.120066077 -4.80465317 
5.29461384 -0.262172341 -5.71706915 
13.739603 0.676499367 -6.52527857 
-19.262825 0.344427258 -6.77169323 
22.1064701 -0.815063357 -9.65592003 
12.2690496 0.372633725 -8.77035046 
9.96841049 -0.0978357792 -7.98641014 
-4.71316624 -0.171872959 -15.6417637 
-17.7247658 0.022827154 11.4087257 
17.1546669 0.250064492 -7.57616997 
-14.378293 -0.402319252 5.69540167 
15.2214365 0.358500153 -12.3405724 
-1.33674252 -0.266597599 -11.321682 
20.9791431 -0.35672766 -13.3480492 
7.17509747 -0.632552922 -7.2122941 
21.2038364 -0.642751336 11.3454142 
-6.29771709 0.0142720528 13.0875702 
-22.4759407 0.968642473 6.9913516 
-13.1239672 -0.576489329 4.70430565 
-19.9919395 0.375586867 3.91134691 
-6.32271147 0.262325704 11.0559673 
-4.43720245 0.258058339 16.1789589 
-2.62270164 0.475447148 17.1676254 
-16.4748154 -0.150597841 10.3125448 
-10.1825666 -0.47683686 5.40445185 
23.13834 -0.291422844 13.433588 
5.66846561 -0.109192565 -14.066124 
1.18358862 0.65094167 20.5624924 
3.99232054 -0.334257513 -4.14684248 
10.9508381 0.129129663 -8.83560467 
-23.8317814 0.67403692 6.11575365 
3.15897202 -0.440901518 -11.2171326 
-9.14386559 0.347501606 -10.5537033 
23.8728333 0.322151154 6.04538536 
4.33958244 -0.00508306874 12.9122 
-5.53830576 -0.0303182323 4.22241497 
22.4481487 -0.430114448 10.966341 
19.0832748 0.11341621 -3.99564409 
10.4111023 0.00463713985 -17.8172894 
17.7844296 0.105564825 -7.81399155 
-18.0502319 0.294926137 -7.49087 
11.0862904 0.0621181317 -4.82165289 
-19.1057262 0.38464433 6.82724094 
-9.30823803 -0.0415767431 -18.8503456 
-4.62081623 0.0823988542 -6.92614269 
22.0112419 -0.791695476 -7.59282827 
6.22966051 -0.0700312555 3.71273446 
12.4864168 -0.254789293 -21.9276733 
-17.3276081 -0.318776041 8.13636494 
1.8334645 -0.065438807 0.526909113 
6.54178905 0.0621877275 3.01969504 
6.05729914 -0.11637228 4.50067282 
13.953536 0.739333391 -7.09849072 
22.1661911 -0.461072832 11.4826431 
20.8946972 -0.655561984 -11.1248674 
-3.72581029 0.358634114 -3.15583396 
0.500312448 -0.500309289 -13.8869057 
15.5798283 0.524146497 -6.44477606 
6.24920321 -0.520553946 -8.94944096 
-16.6361046 -0.0471172445 -5.59013224 
3.6877439 -0.367311716 -8.45031834 
8.07067585 -0.405907631 -6.27977371 
-13.2784472 -0.155629084 -6.61051369 
17.7221508 0.222112432 -11.1985083 
23.2983303 -0.168379113 -17.1056385 
-6.7516923 0.0264361501 6.00888538 
13.8603363 0.855148017 -7.82805204 
-15.9510994 0.211355299 -9.15132523 
-20.4271622 0.376986146 16.4836407 
21.1310883 -0.798309028 -8.32505512 
-0.966531515 -0.0445947126 3.5488832 
12.0677547 -0.486324966 -24.0893116 
-9.80319214 -0.430394083 -0.0475749783 
6.07818556 -0.425949603 -6.05808115 
10.5136509 -0.0545157976 -5.52533531 
-22.0937405 0.727885008 3.78772306 
-14.7992773 0.0717939287 18.3745518 
-23.4266205 0.728301108 5.56252575 
24.3151531 -0.263579845 -15.7013063 
16.3011818 0.237628952 -9.52213097 
4.12681198 -0.320616037 -11.3176613 
-6.5598402 0.142176196 11.1731501 
-14.3048325 -0.17053248 11.3587523 
-14.4557467 -0.348620147 3.82347941 
-6.7499547 -0.370031714 16.1250725 
-11.505106 -0.146111012 -0.539353788 
20.3265343 -0.0733602792 -17.886404 
7.82202053 -0.292559803 9.37854385 
18.4244175 -0.220019773 0.0839927644 
6.89070415 -0.518023789 -10.1889458 
18.4780674 -0.479951441 3.46978068 
22.5954037 -0.124767259 9.3993597 
-11.7065916 -0.607604861 6.62917185 
15.3854113 0.178775698 -16.9908981 
2.35533118 -0.0808776468 -16.9440422 
-8.51547432 -0.230179831 7.27159786 
-7.82350969 0.745918751 -12.2050266 
10.0452328 0.0451054052 12.2871923 
-2.4467535 0.17531608 -4.89307785 
-21.5311489 -0.443701774 -15.1918182 
8.66765404 -0.476907015 -7.13248777 
-11.4666271 0.134052381 -9.95408726 
-18.8944168 0.241836444 17.6279202 
0.0464588851 -0.522479415 -18.0398083 
3.88968372 0.507282019 17.2725449 
4.52442694 0.23578088 9.4860611 
1.53216815 -0.49664104 -11.6771479 
-18.0992947 0.279247522 10.5561752 
-13.7077961 -0.0883031487 -6.86472321 
-12.9687176 -0.38385874 14.8933973 
-16.8125534 -0.33916977 5.33307981 
19.7068119 -0.230720058 -5.77839184 
18.241169 0.113153391 -12.2151976 
-3.70813751 0.0699592754 -10.3702707 
-21.267704 0.705901206 4.42637539 
2.24097276 -0.34406653 -9.13678837 
12.9876623 0.0648517385 13.7431564 
1.63933372 0.369762808 6.49887514 
-18.179924 -0.12984848 6.26757097 
-21.4695683 0.108537368 -3.75817537 
17.6622715 -0.193476021 -17.7271652 
-5.55011463 0.134801716 -10.0008745 
19.8479805 -0.534734368 7.86724472 
2.61856818 0.353370011 7.49509907 
-21.1156406 0.465681136 3.05169535 
18.7588253 -0.611546814 12.2318268 
7.87441969 -0.294560105 -5.18999481 
0.88256973 -0.2326473 2.80923963 
-23.2658958 0.516741753 0.06228479 
-2.5517962 -0.575371623 -21.3533306 
0.299673736 0.143042728 -7.16931677 
0.421625346 0.102843918 -6.94220686 
-12.2364988 -0.270365328 -1.69576204 
-23.2800007 0.747708261 4.09230566 
-9.33939075 -0.517746091 13.7101622 
-0.181567788 -0.0915404335 -2.70680618 
-16.9795227 0.230918542 -7.48808956 
-16.3701744 0.09672793 23.884985 
11.2241774 0.195619658 18.5388393 
-17.3896255 -0.0118512986 11.6319456 
12.0381908 -0.179856017 -16.739809 
9.78637314 -0.111590713 -2.93956828 
-20.5552197 0.388438314 16.4253502 
0.702417314 -0.0995429978 -0.809976637 
0.871431708 0.00393945351 -8.9591217 
22.7530956 -0.762342751 -9.34567547 
-8.01745415 -0.244964078 -6.02788687 
10.6022072 0.108341843 -20.8886261 
-15.085722 -0.0540636778 16.291832 
-21.0492172 -0.0431657806 -7.0772748 
-2.86073756 0.205015942 19.1069622 
-8.53228855 0.373202533 -10.7877865 
-21.3671684 -0.136503458 -11.2885246 
13.6714468 0.770543993 -6.79803228 
7.82525063 -0.550961494 -7.11051178 
24.1902618 -0.737663507 -13.0784283 
5.30394459 -0.280853122 -5.56598997 
-18.465847 -0.176412389 3.92122722 
-22.6010113 0.152485743 -5.49175358 
3.65552831 -0.0507780164 12.8992529 
-15.0178137 -0.704156697 -1.79279244 
19.9762402 -0.173099846 -1.15573275 
-9.24969769 -0.340321034 7.48785639 
21.9820881 0.181563288 0.221097454 
-19.3454075 -0.0518867262 -1.34349573 
-7.00891304 -0.0159245748 -15.1986694 
-1.50894892 0.795271993 19.2137718 
3.77903414 0.200152397 9.13437748 
5.30409765 -0.0384960845 13.9682798 
17.8865337 0.128810614 -5.70111179 
-19.4589405 0.295559525 -5.45243025 
7.82735682 -0.375976712 -6.27776575 
11.2364006 0.299518257 3.07499433 
-22.0099583 0.228532046 -3.21750212 
3.19525218 -0.265968025 -5.13404894 
-16.3804932 0.0955936909 24.6379852 
13.5416565 -0.186037645 8.13403797 
5.21225071 -0.0281128846 12.1195335 
0.34518382 0.395483285 9.43988705 
-19.1972923 0.367385507 -8.10248089 
20.9939957 0.0468673781 -4.47758007 
-23.261591 0.0113500245 -7.14531326 
-12.2955856 -0.399238318 3.73943353 
-11.9788647 -0.409190923 -6.57984638 
22.0040874 -0.515902221 10.8730345 
14.1645823 -0.131503969 -18.4390793 
23.019083 0.243335381 3.47865009 
11.2876778 -0.0280972701 -17.1520481 
18.3449764 0.040908426 -5.16702127 
-12.614007 -0.503280222 4.51339674 
19.473608 -0.317269236 -7.35177994 
-23.3471107 0.751954138 5.41837168 
-12.6151152 -0.28873992 -3.77584839 
2.89125419 -0.246425211 -15.0892897 
3.54409766 -0.291369855 -10.4479818 
0.525898516 0.301252812 17.4688816 
-3.9248507 0.260634243 11.9915695 
-20.2162285 -0.0367696211 -8.06985855 
18.7672005 -0.32216391 6.48491812 
-17.8589115 -0.108371347 -4.10614729 
6.65469027 -0.460806161 -8.65581512 
-12.1124744 0.385448813 -12.989583 
6.09189177 -0.286802918 -12.0889835 
-16.8517494 -0.875490665 -1.46999979 
-17.4712143 0.00969069917 12.9474745 
-9.72347069 0.151237667 -10.4707375 
-8.09512806 -0.608742177 14.7214851 
3.60390854 0.0253966842 4.24783993 
-9.14661312 -0.0995182618 -8.51901436 
11.5912819 0.314784288 4.42221117 
19.1083393 -0.00577125791 -11.5557013 
21.3531857 -0.914020419 -9.50510788 
-21.4522247 0.0159596074 -4.38193369 
23.9171295 -0.0974528342 12.5142536 
16.5911217 -0.274129063 4.32875872 
-10.9864044 0.76256609 -15.7609215 
9.87752724 -0.286958277 8.00132942 
-10.585659 -0.471529871 4.97544241 
-8.17881966 -0.321924537 3.22483993 
1.8512131 0.33297947 7.78332806 
-7.02235556 0.326061785 8.39974976 
10.4436531 0.0874989256 -16.7536545 
-11.0698271 0.193859041 -10.8331947 
-20.3698387 0.488775909 11.982935 
15.7557344 0.0711305663 -0.594542027 
4.18383789 0.0646244064 3.74141264 
21.9388256 -0.14240399 4.51252794 
-16.6870785 -0.203991443 10.0091705 
19.6853504 -0.193303451 -20.5472298 
10.2883205 0.0743901283 -6.76001215 
11.0685816 0.373956919 -11.8094549 
-5.01627636 0.090287514 -4.24832249 
-22.9089336 0.531213939 11.898674 
6.81401777 -0.50895679 -6.22895718 
0.241313681 0.236014441 14.124156 
-18.739193 0.223511562 6.49797535 
-4.78175974 0.0683661178 -8.29028893 
13.1075716 0.672793448 -5.8666997 
-14.130126 -0.193167493 10.5755234 
11.9221897 0.0220541358 -15.3740692 
5.98691034 -0.0943735093 -2.25467682 
9.74937248 -0.210185692 -8.50830269 
-23.2010632 0.00629051868 22.9515476 
-19.2808189 0.330915689 -6.40313005 
-13.1503057 -0.335671723 13.2833252 
-13.1647539 -0.277521759 8.69696617 
-18.0727425 0.0380065851 -13.8243084 
1.26660228 0.220419854 9.43831444 
20.673914 -0.688456595 11.4842196 
16.2765484 -0.181067273 2.96333671 
0.581908226 0.0160197075 -6.23975849 
12.9744787 0.419261307 -11.7128763 
-24.250824 0.132741958 14.9600897 
7.20517826 -0.374901265 -12.4489908 
-17.5568752 0.169236332 13.7585039 
-4.80108595 -0.247201964 5.12048483 
-12.4109211 -0.347598523 -5.25252771 
7.16780424 -0.542566538 -10.3175507 
-14.868207 -0.24194032 -4.03753138 
-23.5545788 -0.0233653132 -4.33499861 
5.51826239 0.405734003 -18.2197914 
7.64597607 -0.0747155547 17.252409 
14.5296926 0.750849247 -8.48309898 
20.7106171 -0.0817256644 -5.50943184 
9.69934273 -0.152614012 -3.90841317 
20.5780602 -0.668602705 -10.975914 
3.84214425 -0.245979667 -5.16250563 
23.7894001 -0.316823661 -15.5004215 
-15.1089258 -0.425082028 1.07205689 
6.60058022 0.550419748 -24.6592388 
-19.3870392 0.22577171 -7.19109726 
-20.0059261 0.147126049 -5.92777729 
19.5375614 -0.10909263 20.7945805 
-6.17235708 0.0326486491 6.56852055 
-16.2568588 0.112750642 21.4735222 
9.60170269 -0.273632407 7.61692381 
23.3835735 -0.0769715905 -17.4328537 
-19.275938 0.144912973 4.93376398 
11.7646255 0.287409961 -4.64822578 
-16.0186558 0.210487336 17.5068588 
5.80496788 -0.505598605 -8.94142151 
20.5559807 -0.319763064 -0.0443305224 
20.6033535 -0.373059273 17.5541401 
-13.9384565 0.254448861 23.3897247 
15.6027021 0.0934730396 -1.70234394 
-6.47038746 -0.334423363 -17.6772156 
-24.1431313 0.14314948 21.3364697 
-10.6151056 -0.485752165 15.7556105 
19.8834648 -0.0893603712 18.5459061 
-19.9196491 0.614260077 11.2794952 
-4.17338085 -0.0165701639 -6.87354898 
10.828289 0.151165128 -1.3046459 
2.34513378 0.450978845 17.1424351 
-9.01445389 -0.433379918 10.0023336 
19.2125435 -0.0625655353 -12.9366465 
14.4347887 0.41529429 -5.00872612 
2.58415341 -0.121474713 12.9568491 
-12.1791954 -0.540761471 4.43695784 
-17.7700367 -0.479857653 -18.9315472 
-6.74115753 -0.149829715 -15.7384634 
-12.6931381 -0.484826714 4.2250309 
-6.8613534 -0.248021275 3.12424994 
-18.4146881 0.485687912 -9.59973145 
-15.8092499 0.322234362 18.1518288 
-15.560256 0.414179415 -10.9636993 
21.0738697 -0.542401135 13.3023729 
16.3361015 0.446123302 -6.92138004 
-7.94457436 -0.0710295588 8.93805504 
7.42497778 0.41721037 -22.9278126 
-24.0746536 -0.0166113824 -17.4100266 
14.2743387 0.894047976 -9.49529457 
8.84890175 -0.426931739 -7.41393042 
19.9907589 -0.456068635 7.58701324 
17.8088646 -0.520681083 4.15994453 
20.4429626 -0.23526305 4.95377398 
-9.81888199 -0.291176975 1.61431408 
-6.88869095 -0.0639201477 -15.1447592 
-19.2659397 0.184760988 -5.12388897 
14.2205486 -0.12265823 5.37046719 
11.829113 0.352078348 -4.21645689 
-12.876564 -0.359753609 0.318912148 
-11.3880405 0.341026932 -13.1137667 
-4.24469519 0.215691403 14.7822742 
-10.799612 -0.638242006 11.4918194 
-13.0293055 -0.174779117 -6.70268774 
13.375145 0.244355381 3.30776238 
19.1621704 -0.54013896 8.44174194 
24.0952721 -0.818285644 -11.0681429 
-21.3971844 -0.0760827512 -6.74310684 
12.903017 -0.311264455 -16.5987358 
-5.46925592 -0.378091455 -17.2893562 
-23.0707169 0.0254943855 -8.14564991 
12.124362 0.393435061 -4.33155489 
-7.59388828 -0.0801720992 -5.12908363 
23.9326992 0.45213449 3.26913786 
24.6043701 -0.62504071 -12.8242273 
-19.3552971 -0.578352571 -17.4608459 
-7.20376205 -0.351416796 1.33547819 
-3.37101173 0.394597381 -2.99300051 
13.1798725 0.86338532 -7.45264387 
3.51316595 -0.310333401 -9.60077286 
-16.7536392 -0.721581638 -2.50874853 
18.4587727 -0.357950121 -22.0405388 
23.2797337 -0.304497868 13.6015778 
-20.9127331 0.381177545 16.8847904 
-3.28322458 0.32623598 14.3281374 
-6.20419502 0.0771231204 6.72302008 
-15.4889898 -0.452328742 3.41085935 
-23.1877842 0.918569863 7.76043177 
13.8437347 0.796115577 -6.99602938 
6.47591352 0.456905872 -17.7242966 
7.43076277 -0.389815241 -5.9488883 
-19.8829556 0.0803143606 -9.64752483 
-14.6447573 0.396891087 -14.1830854 
16.4905109 -0.31172964 7.43106747 
-8.55825329 -0.201984257 8.55360889 
-4.95649385 0.117527373 -4.09290743 
-9.88378525 -0.482891768 15.0107117 
-15.0340395 0.0998500213 11.5437403 
-16.4685459 0.335329622 -11.7827473 
-23.1159401 0.494626343 12.2953081 
1.49536264 0.192394257 9.53578758 
9.36500359 0.223038197 3.98948216 
21.0976791 -0.0609851629 -0.577148497 
17.459589 0.0452702381 -12.3828878 
-6.83947563 0.376804173 9.11669731 
16.842577 0.30436793 -8.78428459 
-21.0494423 0.808957398 5.70928383 
20.0499935 -0.850926518 9.37717056 
23.525877 -0.195678934 -5.22501278 
9.84401417 -0.110496685 -3.20807314 
18.5528278 -0.0948748365 -6.26857471 
-10.1887217 -0.52582711 18.3316135 
15.2273102 0.570289671 -7.89706945 
15.2924623 0.585606456 -5.72364283 
10.297966 -0.2529926 7.60460854 
-8.37217331 -0.043045193 -8.24007225 
13.3195391 0.523793936 -10.5414772 
15.5760517 -0.108553372 3.4501245 
16.463953 -0.224760577 9.3685894 
-14.7639513 0.0667787865 12.9419756 
14.3270063 0.734766781 -8.20275593 
-5.10983849 -0.0385262743 4.21077251 
-2.31323433 -0.0839698538 -8.08740425 
-5.32433558 0.243142024 13.1345243 
20.8361797 -0.645700634 -11.619256 
-15.7366724 0.421265304 -11.730834 
-12.2765989 0.578700006 -22.5658035 
-20.6105385 -0.0435981527 -12.2075081 
-6.69954538 0.367894322 9.69588184 
-0.985003114 -0.0407412015 3.9653945 
23.0739899 -0.80229044 -9.37465382 
7.33374119 -0.0594358407 6.25701427 
-24.7892399 0.65413332 2.80856276 
-3.5045526 0.26893127 14.6014261 
-15.4510288 0.21248284 -9.17201424 
-12.2839785 -0.584854245 17.1257 
-19.2996254 0.0789384171 -13.5558405 
-10.5430288 0.116407968 -10.2384043 
24.1174946 0.385055035 5.51378536 
16.7359505 0.0767260194 -12.991662 
-15.5663176 -0.423404366 8.45473671 
-18.916687 -0.0290015619 4.28403759 
-10.2226982 -0.10155604 -8.45181656 
-21.2473679 -0.199686587 -10.4204082 
16.4162254 -0.163611144 2.87766838 
8.59599018 -0.234677866 -2.39255786 
9.87925243 0.324085265 1.8538717 
19.3431873 -0.0987327695 -5.14805984 
-1.8697089 -0.365778178 -11.1340399 
-4.94639349 0.209195718 -2.64012527 
-19.568964 -0.106824763 19.9040279 
-11.0768232 -0.530764997 3.7339015 
-17.6645489 -0.200486958 -3.17587233 
-11.7825222 -0.468219995 18.2623825 
-4.5885148 -0.129700854 5.66044807 
-2.37902164 -0.0181318242 3.87759352 
8.95730877 -0.115710199 -13.6425734 
-23.9093742 0.709004104 3.01474929 
19.5642166 -0.235995576 6.69248056 
-15.7742615 0.432410508 -11.5648117 
-6.72655821 0.549747407 -11.8201466 
19.0761967 -0.577055335 12.3868084 
-24.7553673 -0.461385906 -12.5715284 
-7.43309116 -0.0138018038 -3.6164062 
-22.8987751 0.0788684785 20.0157337 
13.4906654 0.612775326 -6.32008123 
24.4809151 0.459641039 5.46317053 
0.937164187 -0.418590784 -16.087244 
-18.7534771 0.516022265 -10.6204758 
-3.7486968 0.0359006859 0.68544513 
-0.882433951 0.37888819 -5.45221663 
-19.7465439 -0.0594964288 -2.98787713 
-8.92563438 -0.32740438 5.26087952 
17.007122 -0.0300259534 -13.2656431 
9.36792278 -0.301326811 -5.60185385 
21.880003 -0.958805978 -9.1802845 
5.08291531 0.330309391 -18.9138222 
13.8117123 0.48435086 -0.447687089 
8.83607388 -0.354303956 -6.31929827 
-17.0677204 -0.415863484 6.9241786 
5.30655003 -0.332440645 -7.2749424 
-17.8202496 0.390577197 -8.96906948 
0.00251398236 -0.200447038 -0.32446745 
-13.2623367 -0.0992172435 -5.11751032 
-15.2373428 -0.465135366 3.16685605 
-20.3517303 0.532515764 4.31764174 
-15.7213211 -0.380586863 6.2971921 
17.9756451 -0.287707567 6.53460693 
4.41048956 -0.331732661 -5.20581055 
-14.533618 -0.281721354 7.3260932 
-16.8979416 0.128282174 18.9314823 
-16.5623817 0.188526273 19.0802193 
-19.3102646 0.133765221 -4.90924501 
9.6374321 -0.13216041 -3.57565522 
-1.19687605 0.0581838042 -3.55003738 
19.579916 -0.0100608431 -14.5692024 
-21.3787727 -0.169738442 -11.0244579 
-18.5190144 0.116702437 8.13664818 
-17.2370071 -0.39065209 6.90070391 
-11.8113108 -0.512861133 7.88639784 
20.7351723 0.0741645545 -16.6067905 
-3.77987957 0.0225559305 0.423514128 
3.11053681 -0.0783004835 1.41092455 
7.10402966 -0.344635785 -4.08784008 
6.83771992 -0.51559943 -11.2863283 
-8.5287447 -0.32554391 -6.33437824 
20.1719246 -0.51647073 -8.87928963 
19.5374546 -0.26185143 6.85717487 
-15.456543 0.190928087 -8.98400879 
-1.98265505 -0.279331565 -12.3343172 
6.59642696 -0.541027188 -10.8848886 
-6.91447353 -0.0745677724 -15.3085938 
8.53750801 -0.340856522 6.88070583 
-18.4182549 0.27265656 10.7765894 
5.68729639 0.0687522441 3.67941904 
21.7622795 -0.817919075 -10.9905128 
-9.06888485 -0.110027641 -8.34580803 
23.9193516 0.41303423 4.15042353 
9.2208662 0.301640153 2.19459891 
-13.1658821 -0.35830465 9.48877239 
14.0966158 0.155135438 3.03960824 
-16.0439034 -0.441271305 4.02298832 
9.74580956 -0.332664073 -9.42188549 
20.0706787 -0.81880939 9.1593504 
23.7749615 0.743775189 -23.9619446 
7.37460279 -0.13716349 -1.64991462 
2.47190428 -0.31836468 -12.609498 
15.854598 -0.0400382578 -18.8537235 
14.5349102 -0.248756438 10.6472855 
-16.0676842 -0.600196898 -3.28298163 
0.887581587 0.116863906 11.0289803 
-6.36208868 -0.0724947825 3.53981304 
22.3661995 -0.814662099 -9.81650162 
-0.379709691 0.237447158 9.69959831 
-22.3140221 0.880566955 7.69978333 
21.9453487 -0.0452309959 3.02650237 
-18.2967167 0.00733031845 -4.80704165 
-20.4651756 0.736832619 5.2402544 
10.6868496 0.356521636 1.03675318 
-6.84213495 0.221222207 7.85781956 
-6.92819071 -0.0981402397 13.1572895 
23.946907 0.452219695 3.82932973 
-18.6228828 0.0556456633 -4.80238056 
2.41356206 0.388909429 6.78294134 
2.19117451 -0.196781531 -0.0169101842 
-1.8163408 -0.137699261 8.05883217 
8.8970499 0.227327004 -15.0197229 
20.70158 -0.809725821 10.3923302 
10.1789789 -0.138994157 10.6550159 
-5.50366926 -0.248171434 23.8614502 
-22.0658951 0.407178402 11.5636597 
11.9030113 0.143860802 -6.40205193 
-17.1107445 -0.373532444 5.9517417 
-17.1816635 0.0101364376 23.9220104 
22.4702015 -0.0341606773 5.28569221 
-7.51364183 -0.254121661 4.34413433 
-24.3928833 -0.216310203 -9.32249165 
20.2572041 -0.450413883 16.0482788 
1.72726905 0.461999089 6.98431921 
2.43565392 -0.0934648514 3.41260433 
-21.5217781 0.00290599884 -7.71492004 
16.5032177 -0.262625188 -17.9162216 
23.7108383 -0.809248865 -10.1189671 
-6.26307726 0.431582093 -10.9075928 
-1.10528862 0.323440164 -6.53926706 
14.0100355 0.788644314 -8.03955746 
-16.828413 -0.353268594 5.72214222 
16.9568653 -0.100395784 -14.1779728 
6.56692553 -0.0930582583 6.96138144 
1.92811167 -0.33517158 -13.4867659 
-24.2069283 -0.040789891 -4.18615675 
-10.9142723 -0.643947124 7.41386223 
24.3702831 0.414130032 4.42028761 
-2.37012362 -0.208952859 -10.2217398 
-17.9434071 0.529100597 14.6224337 
17.5325375 -0.336063802 5.44151449 
-17.5469818 -0.175359815 -4.1201272 
-9.64931297 -0.400843114 -0.261675119 
17.2708797 0.0113928672 -4.14542675 
-12.6273985 -0.414798141 3.8656652 
1.50236189 -0.255866498 -15.8470287 
22.5912762 -0.442112833 17.0779762 
-5.67453194 -0.29979676 24.7741451 
-13.6247263 -0.338418752 17.3072281 
-13.1009903 -0.374586821 9.93414497 
10.9944067 0.0770797506 -3.07050157 
5.15148592 -0.340282917 -7.41599131 
15.4006596 -0.0822380632 3.74359989 
17.4446144 0.151726887 -7.91345358 
22.962698 0.0749609843 0.0221730676 
-16.9759731 0.0497238338 19.3124485 
10.6396132 0.319244146 0.805221379 
-1.40289319 0.0351318046 -2.2512393 
-12.7950459 0.312875599 23.7378788 
2.33841658 -0.353365093 -12.5898943 
8.78159523 -0.157938585 -12.151701 
-19.9642487 0.0295478422 -11.0308523 
-15.7238693 0.0705495104 -5.42764521 
0.0667711645 0.219989672 -6.90288591 
13.4111938 0.131073698 4.85346127 
5.30158758 -0.1249789 13.2067575 
-17.8050003 0.436043948 -9.41781902 
-21.0348415 0.609850228 8.44149208 
-14.0346107 -0.168285623 19.0451336 
1.49954176 0.410664111 7.35067463 
16.6434593 0.360327333 -5.26598358 
15.2134533 -0.209216774 4.01762724 
-1.26299214 -0.077020146 5.30478716 
1.86594963 -0.465604872 -12.3515081 
4.65114594 0.30225724 -22.9312 
1.22509396 0.18441698 10.0870714 
3.08135629 -0.0831382275 1.67946374 
18.5454731 -0.336091101 19.0127258 
16.4116383 -0.182450801 3.57416654 
23.4882126 0.222918704 2.23762965 
13.7745066 0.351267219 -2.0927906 
18.0042496 -0.211540505 0.597477913 
-14.589119 0.566171825 -11.3115168 
1.34561288 -0.214852646 -9.39546394 
-20.6875572 0.458058476 16.154129 
12.6955318 0.114309631 3.88314629 
-11.1431007 -0.651904166 7.61831427 
7.70503902 0.138144955 -15.1665201 
13.3299437 0.49030003 -12.2773848 
1.21751225 0.0779436901 11.7886066 
1.97638214 0.271279365 8.08227158 
8.88582706 0.262338966 4.00652838 
23.3767338 0.253668755 -2.50758719 
-3.26272678 -0.0279331654 -11.2239962 
4.16323233 0.329038501 7.31032228 
20.517025 -0.706864059 -9.561059 
-15.8523579 0.198614299 -15.0405846 
-19.5011063 0.254329145 5.02189112 
-8.71039772 -0.312615663 9.84897614 
14.5647411 0.707184196 -10.5685692 
4.48952389 0.324089199 8.24009705 
-19.5884686 0.362190843 5.36723518 
-15.1759415 0.285785586 -14.338891 
-23.9409199 0.430844247 -2.35808754 
24.7024498 0.718239844 -21.2119122 
13.40627 0.660659492 -9.73634148 
-15.7249107 0.303523362 -10.479723 
-17.1741886 0.236031771 -7.52747774 
-24.7894363 0.575265229 5.53574324 
15.0117826 0.355198562 -12.1818323 
-8.30208588 -0.372088194 5.23485661 
-9.8607378 -0.544205368 18.1087456 
-4.78175783 0.338437527 13.6812668 
-0.122595333 -0.133147389 3.46214724 
-10.7510519 0.311825842 -20.7022495 
-9.85691643 -0.636271298 -4.61427164 
5.44281626 -0.0610262379 -14.5206518 
-14.4362431 -0.143208325 -4.48829842 
16.9372826 -0.01617679 12.8635931 
-8.42953014 -0.217194721 9.67280293 
-3.48038816 -0.475608498 -17.7780972 
4.51940584 -0.394544125 -10.5300102 
12.7248888 -0.0721554607 7.59382486 
15.6264 0.497260004 -7.32028675 
4.6661787 -0.356929451 -7.35549068 
21.8738575 -0.362439334 8.38017082 
21.5360355 -0.0830473676 -15.24545 
-3.79114819 -0.363588542 -16.6687298 
1.35140288 0.272080302 -25.0990028 
9.58272552 -0.273801357 -8.36210823 
-20.7202053 0.47662738 14.347043 
-14.3161716 -0.076376535 12.0310888 
22.0784721 -0.12177375 5.061409 
19.4987316 -0.35806492 -24.2353363 
-3.74394846 -0.768892169 -24.4939327 
-5.63427544 0.0635417178 -6.95038748 
9.93272018 -0.0507826805 -2.90139437 
-0.638406694 -0.058116924 2.45832467 
-19.09091 0.107760921 9.37669373 
18.9188061 0.00910116825 -13.7062454 
24.686779 0.375800073 -19.4992981 
-8.00406075 -0.250905812 12.9122038 
13.7386627 0.378946096 -12.6032343 
-10.3081017 -0.496020138 18.8513851 
16.1890106 0.216543362 -3.02613926 
2.27894306 0.214893222 4.93633461 
1.00407743 0.106930353 10.9157314 
-1.29849565 -0.233199045 -9.0490694 
15.4349251 0.547477603 -11.2325487 
-7.15952492 -0.465603799 14.8863983 
20.2071419 -0.283400625 -6.66670275 
17.2695827 0.319306195 -6.43139267 
-18.513792 0.343359739 -7.83753967 
14.1286421 -0.197511271 16.1190052 
-16.7176685 0.255062461 -11.247529 
-8.5976553 -0.00900031067 -17.5713425 
-6.03988838 -0.0810775161 21.2618427 
-10.4809885 -0.549558103 16.7066784 
2.2757082 -0.104672983 12.9898062 
-12.9574394 0.140338153 22.3450756 
18.7475338 -0.415671647 4.19261169 
-9.47507095 -0.286214411 3.79328632 
8.49905109 -0.534418285 -7.3764739 
21.4863529 -0.185323045 1.80722225 
8.52404022 -0.284200907 -5.00479364 
6.00315762 -0.0365345031 9.87274361 
-17.6938629 -0.246347636 5.65755939 
19.0548916 -0.0481518656 -12.6011505 
-12.2424507 -0.403340667 -5.16150188 
-0.259181947 0.116582647 -5.02517748 
-2.70276475 0.210250914 -1.39481223 
21.5760651 0.0885671452 -1.78646088 
-9.17903805 -0.526254296 9.31009007 
-2.15958714 0.186343387 12.4393806 
-22.5317326 0.987864316 6.50188351 
1.47318065 -0.425602466 -12.4473829 
11.4933052 -0.173195601 7.55916309 
-2.70098567 -0.0650718585 -7.79156971 
-5.18239832 0.121936776 -7.53930712 
17.0421486 0.129007965 -11.3501892 
7.02589417 0.0638220012 17.5944347 
-19.9142017 -0.10184598 -12.8057098 
0.925225437 0.79266113 21.3539448 
-3.48626828 0.260501325 13.5412102 
19.1535702 0.0138817634 -1.79827726 
-7.74925995 0.659220338 -11.9222794 
-7.24132967 0.0191845633 -6.20664501 
0.117994972 -0.146931991 -11.116374 
-13.9127035 -0.423609734 -0.468254477 
-4.38397741 0.0399567224 -7.46272373 
-9.68690491 -0.414960861 -6.38795328 
20.1107407 -0.0287545808 -4.48070669 
-13.505928 0.46408391 25.1630058 
-13.2279091 -0.122647807 -5.87351513 
11.8717327 -0.125001982 7.20288515 
5.99269819 0.516423345 -21.9016628 
-8.67862129 -0.243157551 3.82642388 
20.9095135 -0.0175145734 -2.01219034 
14.6212578 0.782564342 -8.8369236 
-13.2082739 -0.349910319 2.8286891 
-3.63508558 -0.119129643 -11.9443445 
-6.22571468 0.0228729472 -7.84029865 
15.5096941 -0.0926595628 3.85361862 
1.71119857 -0.210965693 -6.37468624 
11.9918079 0.321512997 -4.50926447 
14.005127 0.569383025 -11.3045979 
-8.93382359 -0.381343246 11.0695896 
-14.3834 -0.0141138323 13.0707617 
-16.3877106 0.0516554005 22.819231 
-5.45593739 0.0445211381 -3.6289804 
0.0921449289 -0.158038914 5.6482935 
-12.1548595 -0.283690542 20.8078251 
-15.2541485 0.147234783 18.2226429 
12.0531702 0.467161 0.837879777 
15.9048691 -0.305229008 8.35115242 
-7.96372414 -0.327323765 4.44126892 
3.1564188 0.0344054736 -16.8844185 
2.59331322 -0.19167465 -5.61329651 
-12.2900705 -0.543654025 6.25977278 
-4.90761423 0.0497214422 -9.12549305 
-0.988150239 0.552046657 21.07934 
24.6767006 -0.628277361 -11.757987 
21.1273041 -0.627393067 -12.4228392 
3.46707535 -0.369042575 -6.1517725 
0.452592015 -0.322621673 -11.7262821 
-3.70998383 0.0888206661 -8.4392004 
-9.72720814 -0.430975199 15.5110025 
7.98065853 0.025646925 5.66588068 
-10.1969318 -0.388594151 -0.34652403 
13.3153467 0.27036041 -13.5322161 
17.6181679 -0.360668123 24.5959244 
1.70907331 -0.200447574 1.94716299 
6.52985811 -0.467674106 -8.89861393 
17.6200676 -0.134776071 9.5394516 
-1.15467179 -0.243911579 -13.1455975 
23.6548824 0.31384024 5.88491631 
-9.51173115 -0.387610674 4.44395304 
-22.4098492 0.9187029 8.65245628 
-20.5761395 0.447751045 9.75009727 
-4.83026123 0.105870649 -0.823406398 
14.7384996 0.054018259 2.99943686 
-19.3922424 0.244816616 -10.3763914 
-0.461233288 0.105165198 8.00025177 
-17.0022259 -0.00613098964 -14.9923306 
-2.84402084 0.199333802 18.8137093 
-12.6503077 0.325359881 -24.1996479 
2.53145933 0.604390979 19.5611153 
12.4484682 -0.00585095584 6.6386261 
-11.1621161 0.237845153 -10.9771786 
-1.50618482 -0.0519225635 9.83960629 
-10.5191221 -0.485289723 3.61072159 
-9.44297504 -0.512332916 10.7495584 
-1.64235234 0.156155601 -3.05927634 
-7.12034225 0.275361031 8.40742874 
-19.2246456 0.209209174 18.0954895 
14.7866583 -0.277167529 10.7675505 
