ply
format ascii 1.0
comment created by gply, a Houdini tool.
comment converted from .[b]geo
comment for more information about Houdini, try:
comment www.sidefx.com
element vertex 1270
property float x
property float y
property float z
element face 0
property list uchar int vertex_indices
end_header
4.37707949 0.028323574 24.9518471 
-11.6491537 -0.144472137 23.4969692 
-7.45301533 0.0595689081 20.1726227 
-24.1515026 -0.347409159 -24.1233387 
3.56962013 0.0573864579 -23.6344166 
0.471904695 -0.340877503 21.4786453 
-3.03488231 -0.248115107 21.0859165 
-11.828742 0.269784003 20.3157749 
-1.85022569 -0.26433754 22.3960476 
-11.3317089 0.0987517387 23.2609005 
4.6881752 0.149383321 23.6380959 
3.87013769 0.0829880685 14.7960968 
7.73339844 -0.367664516 -25.0348911 
-2.50880027 -0.0369585305 23.3083477 
9.88721275 -0.0603479445 24.4731693 
2.96848869 -0.0214080196 -21.9180889 
-2.10016418 0.703541279 -21.2781181 
-4.12399769 0.326503217 24.120451 
-12.961565 -0.680697858 -23.9520493 
-3.09312701 -0.22588928 21.6317406 
-1.27777338 -0.125851452 22.9916687 
6.04275131 -0.210245475 -21.6218548 
15.181942 0.267326742 21.8935337 
2.33363748 -0.0754462406 20.7370377 
15.954731 0.237276703 20.6956406 
-20.4424725 0.601921499 -21.6164494 
6.90350819 -0.332855791 -21.3826294 
9.8355484 -0.0988391116 21.9809971 
12.9848881 -0.0960398614 -23.2879124 
12.5167685 -0.0819792226 -20.840929 
-5.64242935 0.823830724 -22.2351151 
-6.11140728 -0.0574235097 21.009882 
-15.4927006 -0.392199278 -24.8263206 
-13.9770956 -0.857101858 -21.4752293 
-0.402982593 -0.378497273 21.8858795 
-0.74118638 -0.0221991148 8.67867184 
-8.74349022 0.272785068 -25.0086746 
-16.3108082 0.0315036476 -22.798008 
-9.7647438 -0.0736440569 -23.3362255 
13.025238 -0.0346430168 12.0702085 
-11.4989033 -0.0483947583 23.5044174 
-6.18187428 -0.151145741 4.3872242 
-7.60641241 0.0984081849 21.8631783 
-12.9278841 -0.789921522 -23.5170383 
4.13286924 0.0241284799 -23.7772522 
1.5395571 0.0296384618 -24.3874722 
-12.5219364 -0.634328783 -20.5391674 
-12.518815 0.15615651 20.1847839 
2.34973979 0.0905982554 -2.32857585 
3.41768551 0.0717246905 -24.9472733 
12.1959896 -0.0439973101 22.5613422 
11.5473967 -0.11316929 -22.7933102 
9.09503174 -0.195184872 -22.8800087 
4.02931118 0.0497726686 -23.9049435 
-8.51655674 0.209473416 -24.7025928 
-0.534932375 -0.266683131 24.0396214 
-11.7847281 -0.303747594 23.9372692 
4.14972734 -0.0704765096 -23.2236595 
-2.15395856 -0.0540046804 23.1966705 
-9.46195698 -0.0146453194 -23.6650963 
4.67008018 -0.0728045851 -24.8304462 
-12.4810534 0.115988851 -3.77760386 
-8.47999668 0.311373562 20.5867043 
-9.28398895 0.253122956 24.1842461 
11.7835665 -0.0537010357 -24.1338673 
-13.4369307 -0.812752604 -19.8371449 
-3.88350439 -0.172075942 21.0731354 
-4.1402607 0.743971944 -23.0319729 
-13.4246635 -0.160713911 20.8143883 
-3.43238235 -0.244140297 21.3477936 
-18.2905979 0.309122711 -20.0972748 
-2.63900518 0.144985124 23.9004593 
11.2686586 -0.183601096 -19.9394989 
15.3873558 0.2904284 21.7926807 
13.7745924 0.350120485 24.3959389 
-17.4338074 0.286249369 -20.1076927 
-5.9596405 0.436663836 24.589613 
1.82818151 0.0161193311 -24.5387554 
11.0390596 -0.121386185 -21.4271355 
-12.3261185 0.162680715 19.9289093 
3.1479187 -0.0574839823 -22.3546925 
3.48473859 -0.119087502 -22.1864185 
-1.97630942 0.424161583 -19.8950958 
-0.901726902 0.344088286 -20.8731518 
-18.7895489 -0.225373745 12.5436153 
13.4804745 0.615458667 22.4065094 
-5.94670248 0.648337185 -22.418272 
4.05115986 -0.0868346691 -23.0715313 
2.93504453 -0.0825239941 22.2315807 
7.34178782 -0.502085209 -23.599081 
-4.65450621 0.143696994 23.3699856 
-12.5125504 0.0916773304 21.30406 
10.2875729 -0.0424360633 -20.8903084 
-5.70863104 0.262632459 23.2786884 
-19.9291916 0.543008029 -24.0313911 
18.2711983 -0.56274116 23.1073742 
-1.56108499 0.583211303 -21.9490223 
1.04454219 -0.200933784 23.520504 
11.9639482 -0.034276586 -22.2831001 
-1.36455297 0.0977300256 24.3872948 
-9.473526 0.594919384 20.7860298 
12.3335056 -0.248490885 -0.934027791 
9.67738247 -0.0850856006 -20.9964294 
-10.6392355 0.553999841 20.7915916 
-10.3241272 0.0319262929 -23.5426197 
-1.87061572 0.780373991 -21.5444641 
-8.14979076 0.118003018 -19.8250809 
3.27099252 -0.114532463 22.1006718 
10.6774416 -0.17199336 -3.05555511 
-1.31889963 0.499913841 -21.0906868 
12.6709404 0.015009244 -19.5674019 
21.0723457 -0.349897772 22.1060219 
5.47667646 -0.170730442 -22.758976 
4.69975758 0.173278272 23.7469463 
-2.005476 0.336018711 -24.375351 
-8.31894207 0.0622293949 24.3428898 
8.14994526 -0.348943293 -20.8034077 
10.5079584 0.084187977 -23.4787159 
3.66486454 -0.104602262 21.4146271 
-10.4827108 -0.407664061 -21.1053028 
-11.7550621 -0.0965365022 23.2331772 
-1.88217032 -0.512376964 21.0863438 
7.68311167 -0.395285696 -24.6741753 
2.70453644 -0.0564654544 -21.3081112 
4.20730925 0.0569543727 -23.8965492 
15.861763 0.331352264 20.4705906 
0.701579511 0.00550724613 -23.5563393 
6.20667839 0.11690674 5.63602734 
13.5176134 -0.177297741 -20.8501129 
-5.9910717 0.456822693 -20.948925 
6.70920324 0.224761993 22.0438728 
-9.61270809 -0.290768385 -20.8479805 
2.93399525 0.066248022 25.0712929 
-2.16583252 -0.377449036 19.9520321 
-13.231513 -0.771088183 -21.7979488 
0.0315014422 -0.139587119 -24.6409378 
2.480762 -0.0450268388 23.517271 
18.6808453 -0.481724083 20.6269741 
3.73352027 -0.186168283 8.82078743 
10.9019442 -0.132330418 22.8973789 
5.14176607 -0.124093123 -23.7831059 
6.19881535 -0.163664579 -24.2839222 
3.16408491 0.0376450941 -23.9215908 
-10.6142654 0.345724225 22.0858021 
2.50826836 -0.0876211375 -20.6055717 
-18.2588711 0.2352864 -22.7852516 
8.60292339 -0.31246075 23.761467 
23.0289345 -0.654334545 23.4779682 
16.7138119 0.184737965 9.56585979 
0.817210376 -0.171315521 -4.54484987 
5.68111229 0.0242963079 23.9130478 
-12.493166 -0.527559936 -24.0164566 
14.1166077 0.508558214 22.7689362 
-2.47460127 0.444216013 -19.6994133 
12.7920074 -0.0448446162 -20.4210606 
-4.6004467 0.375257224 24.3392715 
-2.43127799 0.530926108 -19.9073257 
6.9147234 -0.313434124 -21.0677624 
-3.58078313 0.387498707 24.8479309 
-12.1629772 0.188243181 19.4470768 
6.00609541 -0.0490620174 -24.6319218 
-10.6528654 0.166953936 23.6847038 
-3.65811753 0.0180905759 22.8543224 
-1.25921154 0.40292871 -19.5573883 
-9.88880157 0.577864945 20.6796627 
1.79714262 0.295335352 -22.5232792 
10.1719694 -0.0941187441 21.4750557 
-0.720353067 -0.102994226 25.1485729 
9.11050892 -0.198329866 23.8777866 
-2.65777206 -0.323589653 21.1503677 
-7.1827178 0.124274373 19.5307217 
-15.5926228 -0.418709546 -20.1317673 
8.82467842 -0.25562495 -21.2868938 
-0.480818868 -0.149928913 25.1589909 
7.98537588 -0.309621662 -20.3541794 
-9.85523319 0.0615049377 -23.9102058 
-8.03766155 0.0163413156 24.6937523 
21.2966042 -0.483580291 24.2837811 
8.30875969 -0.30385533 24.587801 
-8.80102921 -0.0845211893 -20.2940369 
3.14945126 -0.092020452 22.1490707 
23.0371304 -0.565072179 22.9589005 
-1.44975197 0.546898961 -21.5383434 
-1.34176421 0.39787674 -22.2478828 
13.3221455 -0.260866702 -21.7144699 
1.83077765 -0.157528996 23.2613907 
8.09036541 -0.504253447 -23.0505638 
1.47678792 0.142895162 -21.8157692 
1.19200397 -0.387264341 20.3291893 
21.0898151 0.569687247 -10.7179995 
-8.4288578 0.247672603 21.490448 
-5.71349144 0.747806251 -23.2463741 
1.02743983 -0.281387985 21.1912746 
11.274724 -0.142930672 -20.8947353 
-9.61401653 0.274718493 23.0585308 
6.18341637 -0.225326553 -21.8680611 
0.507460475 -0.495968997 19.4937668 
4.41620159 -0.104132012 -22.2330837 
-12.0937424 -0.327695131 24.4780312 
7.29910994 -0.0222378131 22.7121162 
1.76460779 -0.0780444443 21.197855 
6.01869678 0.0768707544 21.4196072 
-13.7657204 -0.31617108 23.3641605 
9.19232655 0.150726855 20.2516327 
9.59970474 -0.0469091609 -24.8724651 
7.48366022 -0.143165588 23.8390465 
2.60848355 0.0901754498 -22.6559772 
-1.98088586 0.290693164 25.2665443 
-16.5268402 -0.0688738227 -19.6387024 
-5.37840033 0.879358351 -22.6945896 
-0.525224686 0.330170929 -20.8737583 
-4.35126448 0.90666455 -21.7007732 
-9.76467896 0.196377441 11.1703873 
-12.2183161 0.20502831 20.7051239 
4.77404451 0.0422631241 21.1224174 
-7.09907484 0.130914629 19.8559036 
8.79987812 -0.260222554 -23.5883331 
1.27766836 -0.075573042 24.7855282 
-4.12938452 0.834307015 -19.8121853 
-7.30888128 0.399467438 -20.3438835 
3.17938852 -0.105847873 20.6019516 
4.53694868 -0.0531307049 -24.6763954 
-4.58356047 0.787352979 -23.6402683 
11.3148718 -0.139584512 20.4993286 
-3.54543066 0.797840357 -20.921896 
-4.5291357 -0.153829977 21.6254311 
-8.44197845 0.120510563 -23.6836777 
13.2254553 -0.118833274 -23.3412762 
-0.297299206 -0.614413261 19.7708549 
13.0327148 0.252009362 21.4234104 
0.526140213 -0.338806719 23.1045036 
10.1076374 -0.0291663446 24.5572472 
-10.8928757 0.544069946 20.1767311 
5.10167837 -0.0907619447 -20.5504017 
12.3781843 -0.0534358025 -20.1613083 
-5.33497047 0.784902275 -23.9400291 
10.2705536 -0.0136157833 -21.1806583 
3.65018606 -0.10904327 -22.0362186 
-9.62376785 -0.371705651 -19.8064365 
18.8885555 -0.20730789 19.407814 
3.38703513 0.0714586228 24.9623375 
13.0301895 0.0770824403 20.2640171 
-11.5237827 -0.420816869 -21.0377617 
4.18926668 0.0838016793 22.5656643 
-3.28052473 0.6187132 -19.538393 
9.79053783 -0.138777331 -19.766449 
-4.19412136 0.907388091 -20.2700844 
-5.54398155 0.585948944 24.7988186 
-9.14351368 0.171326041 24.0766354 
6.79774904 0.184547722 21.0206814 
17.3582516 -0.0679299682 24.1641083 
11.470583 -0.0648349971 -22.4771957 
-1.04648924 0.376664698 -21.2274761 
2.79244971 -0.0897880271 22.9065342 
5.46630955 0.584666073 -5.79039383 
3.6325748 -0.0949312299 22.3526516 
-2.11904359 -0.539373815 -4.65800571 
9.91784954 -0.0919501781 22.1322269 
10.6484709 -0.192999557 21.7979355 
-12.3319283 0.0783786774 22.0974903 
6.93257475 -0.216455072 -24.5712967 
-12.9691582 -0.083861202 21.8672962 
-7.10069752 -0.027299745 -24.6158447 
11.8169193 -0.116741836 -20.599987 
10.4446669 -0.0467221737 -19.9947128 
-3.70039988 -0.315260261 19.9709167 
4.13553905 0.0566063821 -24.1967926 
-3.54187393 -0.0794269443 22.4878407 
-2.44002247 -0.376971573 20.6964264 
-0.276940763 -0.0766967982 -24.2920284 
1.71028924 0.121212408 -20.5230637 
-1.44842696 0.454871386 -20.6410465 
6.7417078 -0.187395096 -24.9476891 
8.43030834 -0.343470991 23.8097191 
13.7606153 0.0630547181 -19.5368271 
-9.25725079 -0.0714667961 -22.848238 
2.58735132 -0.0709411129 20.5068035 
4.06492901 0.126535401 23.8174858 
-3.53951621 -0.231392011 21.1468315 
-6.35955334 0.200188577 25.1013527 
1.97012234 0.112313874 -19.7888489 
-15.5217733 -0.26423344 -23.3748074 
-11.4081907 0.40514487 21.3006172 
-17.3809891 0.067741923 -23.2297459 
0.522538185 0.197585806 -21.5277138 
-2.47605968 0.535975456 -23.5766201 
-8.14252853 0.179820031 22.3136368 
12.6662245 0.000789623358 -19.756012 
4.70276594 0.0695179701 22.3819485 
13.3273668 0.302975625 24.2556973 
-6.14588928 0.603000879 -21.9848328 
20.0882378 -0.433514059 24.3124332 
-0.546236992 -0.206890687 0.577454686 
-12.249424 0.265713841 9.14054298 
2.57456636 -0.135817453 22.7328758 
7.4319458 -0.387636721 -21.7041836 
2.09170985 -0.020951787 -20.2854271 
-5.51579857 0.466897458 -20.6125584 
6.11360979 -0.169772699 -23.0659084 
25.1820316 -0.235378444 23.4884377 
1.83276212 -0.0665523559 20.6167068 
-6.38915062 0.211264789 22.2165203 
1.65425611 0.238651186 -22.3287201 
-20.8123589 0.71874398 -19.443821 
-6.75554848 0.120817974 -24.6385021 
-6.73214531 0.248461336 21.820797 
-9.02529812 -0.213774949 -20.4699345 
-7.08187056 0.0356515869 -23.9579086 
12.8391294 0.180863082 24.7004871 
0.0869409591 0.21048753 -21.4901047 
-11.7841778 0.0387988761 -0.904116869 
1.81645465 0.285397261 -22.9265366 
-7.64111233 -0.042331975 24.9899464 
10.0235882 -0.0782356411 -20.5714264 
3.86060524 -0.0683244616 -23.0645618 
2.21570373 -0.0613659769 21.3588181 
-9.73704529 0.593353033 20.9305382 
-7.65512753 0.189292535 22.3901081 
-0.0281131864 -0.1696188 -23.374979 
9.95207596 0.0886015594 14.2610464 
4.86111975 0.120577589 20.2920895 
-5.87191868 0.386891693 23.7520103 
-10.0413504 0.337267905 22.3921661 
12.698473 -0.0437786691 20.1611691 
2.34505272 -0.0685548559 -20.2303314 
-1.69509423 0.68805933 -21.7675648 
-8.85102654 0.319863319 19.6187572 
-4.72623825 0.177066252 23.5075665 
5.37261915 -0.200902894 -22.5597668 
-7.82816648 0.201051071 22.4511986 
11.1670771 -0.0485973284 -24.2507782 
-11.6301451 0.416359097 17.8657284 
-2.89634418 0.520376444 -24.041008 
7.77230549 -0.429305345 -21.8469124 
-5.23809195 -0.00619167183 21.568819 
-3.99089622 0.710225821 -21.6410542 
14.4824047 0.366119146 20.0084438 
-1.46979976 0.12668255 24.6399841 
6.70427418 -0.262433231 -22.0892487 
-2.45943666 -0.39697203 19.7725449 
-6.38073063 0.337706029 22.9347477 
6.18252039 0.152079627 21.9255905 
11.7463961 -0.0894920602 21.9495945 
2.32769608 -0.183839142 22.112524 
-6.10805559 0.62794137 -22.0905228 
-7.09384203 0.169785783 21.9682713 
3.78758764 -0.084006846 21.5791454 
3.036901 0.0216685999 -20.4042606 
-6.27253246 0.391892403 23.6290951 
-17.6593246 0.313826621 -19.8674126 
-6.01675272 0.28357935 22.9670639 
-2.88665891 0.557584763 -19.9163551 
-1.72146702 -0.462548494 21.7491894 
10.0232639 -0.0228780881 24.9223423 
-11.3298607 0.490271777 19.6282501 
4.07721472 -0.0221555755 20.247776 
-0.428279281 -0.140984029 0.736407816 
-7.19839382 -0.363620073 6.09508371 
9.69065762 -0.0538144633 -24.9383545 
5.42864561 -0.138593227 -23.543663 
8.96895885 -0.186135069 -20.2416058 
-1.68286967 0.419568419 -19.9836483 
-9.51422596 -0.296585947 -20.5674076 
-18.0723114 0.309699535 24.3622761 
-13.6156321 -0.780539453 -22.1786594 
11.2137365 -0.209832609 -19.5979633 
11.3221149 -0.0477096513 19.5508652 
-18.5457363 0.184217215 -23.6623211 
-6.79216528 0.0903291255 24.6296368 
11.1697006 -0.152272895 -20.3754292 
-1.59157646 0.650382221 -21.1745071 
-15.569109 -0.427491337 -20.5967121 
6.70342875 -0.266007304 -20.9338188 
-1.54823482 0.453966886 -20.2363949 
-1.14767098 -0.00585807161 23.5119019 
6.43946791 -0.0568788722 24.7106533 
-2.55448413 -0.359210521 20.6079578 
-12.5088062 -0.414602101 -24.6211815 
5.28936481 -0.184388474 -23.0413609 
-12.9106922 -0.0596851967 22.1645393 
13.8853855 0.637403369 21.2374287 
-2.43824434 0.439798266 -23.860342 
-9.0439415 -0.32483083 -7.24545813 
-0.166458383 -0.356975704 22.0626984 
14.9517965 0.379357964 19.7140408 
-3.75287342 -0.201658249 21.1050739 
7.11585379 0.228992999 20.6894379 
-4.21432495 0.335451365 24.0376034 
5.3283782 0.0617018454 24.3923512 
0.11613445 -0.354728788 21.2164326 
1.94671357 0.171899736 -19.3905449 
1.64271796 0.0950290933 -21.5193176 
3.1456821 -0.0625191927 19.5017433 
7.23815584 -0.45126164 -22.2264328 
-3.56997967 -0.207939774 21.3150043 
13.7794342 0.204429924 20.1589222 
-2.45561934 0.714131594 -21.9649372 
-1.92857206 0.568632424 -20.2723808 
13.1006012 0.326496094 23.9014568 
6.55849457 -0.23916167 -23.9151211 
-15.6746845 -0.328825474 -24.8410873 
-14.3441858 -0.590743899 -24.044714 
7.97540331 -0.409122318 -24.5498219 
-3.32124448 0.0132251019 23.2418995 
20.581831 -0.52982527 24.5247135 
-22.8429375 0.0489114411 -24.9899883 
-19.5174217 -0.253926873 13.7477798 
-10.3340902 0.0321460515 -24.5044594 
-17.7926731 -0.135144651 16.4183865 
-13.3702497 -0.863497913 -20.8064346 
-3.86638713 0.41666168 24.8487091 
-1.06275892 -0.0452339277 25.2343121 
1.677827 -0.2190115 20.263031 
-7.45657253 0.106170803 23.3600197 
-5.2245326 0.650301874 -21.4133759 
-2.52576065 0.395171493 -24.1132965 
2.09058452 -0.0557129458 20.6260204 
18.0748367 -0.310741633 24.1858158 
-4.99308205 0.701888442 -24.6451569 
3.96312499 -0.0220641699 19.9318733 
12.4084024 -0.0208882298 -19.6173134 
-4.78274393 0.799428463 -21.3988705 
-1.93863451 0.669684947 -22.6202755 
-13.4739609 -0.116118342 20.2513084 
7.69823122 -0.397930294 -24.863987 
-0.12677303 0.165743783 -21.9762135 
-5.69048405 0.680881977 -21.7503204 
3.96490765 -0.254082203 -19.5454807 
4.28942204 0.0459631681 24.8129234 
4.18702364 0.0662421063 22.8064137 
11.437089 -0.113928281 19.9511776 
-1.86074221 0.574118972 -22.8504734 
1.46793342 0.110296108 -21.5183067 
3.455163 -0.105839357 22.4021416 
6.33066463 -0.215909615 -22.4638691 
-11.3653517 0.0119973272 23.5457993 
-4.89698792 0.0522111766 22.7368927 
5.36038113 0.0768771023 2.27773786 
-3.31268334 0.0525406078 23.39048 
-12.4404879 -0.160804152 22.9097233 
10.1057692 -0.079102084 20.6664639 
4.30520582 0.0917418227 20.23069 
8.9635334 -0.146560252 23.3569164 
-5.79747629 0.773989916 -21.9997292 
-6.29147911 0.517784178 -22.2711048 
4.11757994 0.0878665522 22.4340439 
-10.1220379 -0.461608887 -20.5576248 
-15.7265778 -0.211936325 -24.0620193 
-8.40471458 0.102213666 -20.1623707 
-6.88491964 0.0592670031 -23.9417076 
2.48595691 -0.0614481382 20.7978249 
1.78041303 0.216968447 -22.0772552 
2.23987174 -0.178204998 22.685936 
12.1999998 0.110917874 24.8669395 
0.979408979 -0.375583947 20.7173061 
-3.99429464 -0.15792875 21.205267 
8.2761507 0.272839963 21.3835068 
3.82844901 0.0588191487 23.243227 
-11.25492 -0.413252831 -22.0926723 
-0.95803386 0.0109720025 8.67922211 
3.55617929 -0.112970397 -22.3199902 
10.9797688 -0.103849828 20.9563313 
12.0704527 -0.066791214 -21.7063541 
1.18009603 -0.0322983749 -24.8026352 
5.43468666 -0.0194368921 20.5904083 
5.19801474 -0.0858312249 -20.6672554 
13.7486944 0.679797769 21.9805889 
13.4515038 0.55505228 23.6872349 
-19.1834278 0.368022889 -24.3669701 
13.3207817 0.0122219734 -19.561058 
6.34209776 0.145496622 20.0400753 
9.72894382 -0.0343674421 -22.2987194 
8.23659992 -0.444018751 -23.6050282 
-6.17690277 0.308667272 22.8573856 
6.96394253 -0.239548013 -20.3822193 
-5.63251066 0.765634477 -23.1250172 
15.4418077 0.333678752 21.1466026 
-8.5776968 -0.0508257002 -22.32617 
3.17440653 -0.0884188861 -19.7369537 
-1.69814885 -0.0459373593 23.3081245 
1.92823815 -0.0220943987 24.8189392 
2.74078989 -0.0156094916 -20.7811146 
2.45014548 -0.0473104455 19.9147854 
13.7157183 -0.130519256 -23.0429955 
3.56391191 -0.0862399191 20.2734509 
5.96277809 -0.170821667 -22.9896412 
3.36873436 -0.019912973 19.5043144 
-2.76695991 0.687977195 -22.0554333 
-18.1582813 0.443932682 -21.7536125 
-2.66328049 0.475290805 -19.7703571 
-3.3674047 0.617671072 -22.4205647 
-12.5197916 0.0966137275 19.6581802 
2.73218584 0.0815139636 -22.6025734 
-3.80430341 0.658128917 -21.7740002 
-10.0009375 0.200564101 23.6606827 
0.758563757 -0.36105302 21.2908382 
-3.98682904 0.796758294 -20.4561405 
-16.8032188 0.497875631 -1.06181335 
4.47758627 -0.206686586 -19.613287 
-4.69047165 0.300618857 23.9712563 
1.36839437 0.279876113 -19.8675385 
-10.7885962 -0.144813925 -23.767683 
-12.306263 -0.25327149 23.5616207 
4.51423264 0.146580368 19.6559048 
-1.89732361 0.664795101 -20.6207466 
-8.43215275 0.108235978 22.7592907 
4.854249 0.140123755 20.022171 
-0.724245906 -0.198269904 24.0349274 
-9.46733379 0.44936952 21.7398434 
7.76439714 -0.228547707 -20.2030487 
-18.0220318 0.453758627 -21.4683151 
4.97718096 0.101242393 19.8166981 
-15.0684099 0.140517429 10.9514599 
-2.95035696 0.596871972 -20.0418129 
-6.89517736 0.157345846 21.605978 
16.9648952 0.0112857502 23.8958874 
-6.21752453 0.0975840986 21.5423164 
-4.99426746 0.744994879 -24.2730331 
11.8036222 -0.0881982222 16.6644154 
-6.23760557 0.337998718 24.3863583 
-10.7192965 0.570049524 20.6060143 
3.66242838 0.0386211835 24.0699482 
5.5276227 0.065301083 -24.9156036 
9.91518593 -0.0930530056 21.7615719 
-4.71856689 0.683393002 -19.8818245 
-3.36701131 0.657737792 -22.9441624 
-5.71054316 0.14658685 22.2871895 
-21.3499031 0.582684278 -21.5779018 
-7.42682981 0.155340239 22.8670502 
-4.57630634 0.847396255 -21.7217064 
12.81388 0.230643824 22.3537445 
-6.83884907 0.0858298987 24.8749027 
1.08880925 0.373398274 -19.6237469 
-2.30903554 -0.396914452 21.2676926 
0.6939888 0.114609689 -22.2500458 
-0.0522150323 0.388574153 -20.0655632 
3.32125902 -0.00153952325 -23.6686783 
-1.98138237 -0.328410923 12.1088305 
14.5872936 0.131667852 24.3359909 
6.98105812 -0.273334712 -24.1667538 
-0.771283627 -0.522534847 20.9675617 
16.592968 -0.000113425776 22.4425545 
-11.3313236 -0.548687279 -19.8527069 
2.06405807 0.182868108 2.05546594 
-12.5772467 -0.444216311 -24.5019283 
-3.79754448 0.640075803 -22.2264004 
3.22137833 0.0674852058 24.5056286 
8.38853264 -0.349591196 -21.8045444 
-6.67019939 0.278740853 22.4586239 
-11.6804428 -0.507200658 -20.7107143 
1.33601427 0.120722272 -22.3420525 
-4.08488083 0.141824901 23.0648479 
-4.80126143 0.764171422 -21.1149502 
-1.16324544 0.40539664 -20.9798069 
0.795208752 0.0710610002 -22.3891506 
-17.3581238 -0.067296125 -22.3222866 
7.84591818 -0.52256906 -23.1251068 
19.1829929 -0.534934282 21.689024 
4.17967033 0.0609175339 20.2622356 
2.03644466 0.109183744 -19.5102158 
10.9884319 -0.0973912999 -21.7000694 
12.2310381 -0.0421341769 21.7004948 
-2.37833595 0.073895812 24.0214825 
4.440135 -0.0992650762 -22.5262089 
24.3310986 -0.114306942 21.160408 
-6.96240807 0.426262468 -20.7823868 
-9.05846882 0.183200255 22.3657722 
-6.99860764 0.370770484 -22.53829 
-1.14199543 -0.385475397 21.9751015 
10.8733816 -0.118399784 -21.4160366 
3.95095921 -0.041584976 -21.3985806 
-5.79518795 0.4745754 -20.0029449 
-22.2056236 0.47556296 -21.046093 
0.0662504882 -0.135036424 -23.008213 
-5.00670624 0.415641695 24.1507263 
-21.099184 0.139641404 -0.127134189 
-5.73280334 0.464936107 24.1572933 
-21.2864151 0.707212925 -20.1887932 
-21.2534275 0.669338286 -19.9204292 
-16.0040779 -0.214758635 -24.544939 
2.13426614 -0.15194498 19.5780602 
-2.3344841 -0.415499628 20.8245716 
5.4612546 0.0364094079 24.1526966 
2.18246436 -0.169480473 22.1528702 
-12.6019945 -0.314067334 24.3051357 
-5.3341465 0.0776737407 22.1315346 
-3.95664263 -0.0600495413 22.5179043 
2.07489991 0.099564068 -23.9726944 
-6.81980324 0.00608292595 20.1272488 
1.39893341 0.156935483 -20.2038918 
4.22864771 -0.043642085 -23.3625813 
1.71436191 -0.0544363558 24.549324 
9.29032516 -0.0641553625 -23.7747021 
5.20474243 -0.188499764 -23.2822819 
-6.89473677 0.215886995 22.7588177 
4.66691542 -0.0344544612 -24.3197308 
6.86225891 0.248735622 20.2665691 
-0.493721902 -0.305744141 23.7431278 
-22.589468 0.372866094 -19.9863186 
-12.3977375 0.012201353 0.461161852 
-1.07349622 -0.344334394 19.3599358 
6.4016428 -0.243575871 -23.6484604 
2.02274179 0.132861584 -23.7692585 
-6.74850512 0.0266785938 20.511713 
4.52035904 0.135748386 23.6973324 
4.04999733 -0.133466348 -22.6939583 
-4.19592667 0.795196891 -21.8235359 
4.07833147 -0.0452339388 -21.6540031 
-15.9672728 -0.295813799 -21.2936745 
4.75525713 0.129274651 24.1336937 
-11.4032946 0.402085602 21.0130978 
-0.836739838 -0.0993380472 24.9961319 
-6.61579657 0.470124662 -21.0027122 
1.10854006 0.188934296 -20.4216499 
-14.4878006 -0.539866269 -23.9179745 
5.0173316 -0.0592278689 -21.4036293 
-0.879795194 0.0859856755 -23.0583439 
-6.40177298 0.358923942 23.1517639 
-0.92591697 -0.0562154986 -24.5870171 
2.65316296 0.054283917 -24.5739059 
-2.16039085 -0.399604976 19.5262012 
-9.40801525 0.186712876 24.8180332 
-19.2639122 0.429069638 -24.9411755 
-7.5157795 0.0396475568 20.7255707 
4.29313946 0.0609164611 24.6362305 
-1.71633601 0.738930285 -21.5693951 
13.8915195 0.351319492 24.3717079 
-9.0970459 0.0975392759 -24.3023243 
0.791104972 0.158309236 12.6925631 
-3.03154111 0.26495868 24.5241585 
-11.1683502 -0.361951262 -22.4218388 
0.555796802 -0.0684708506 -23.1641541 
7.08045578 -0.19917132 -19.5242329 
-5.61275339 0.146929175 22.4258442 
-2.05422521 0.740715563 -22.4150505 
15.3400984 0.284832597 21.9410419 
0.634682059 -0.27780813 21.7787743 
-4.22362423 0.533065557 25.2799625 
3.02882862 -0.0779662952 22.0825367 
2.98078322 0.0914087296 24.7635784 
-1.02979708 0.352863491 -21.0583096 
13.1516809 0.228394836 24.4442081 
5.66347504 0.0263213236 19.6020679 
1.56323922 0.231005698 -23.1949444 
-4.60714006 -0.455902964 19.8254108 
2.15626144 0.0255120452 -19.6264019 
4.38820839 0.0253549106 -21.2317524 
-8.38654518 0.179733559 21.853117 
11.0929213 -0.115875416 12.4090757 
18.1058064 -0.384035826 23.9238472 
22.3928757 -0.175214708 19.7273922 
-1.93277931 0.0784186572 24.31534 
-1.6866641 0.535157442 -22.6923428 
10.0270004 -0.0481892563 23.2139015 
5.41546726 -0.0240932293 20.0710278 
0.864044547 -0.430843502 20.3664093 
-6.34395599 0.512086093 -21.3115253 
-6.55399275 0.278618664 24.103159 
-19.3637028 0.396477401 -24.7395611 
5.43525076 -0.166493207 -22.0807133 
22.1172371 0.120060675 11.6319504 
19.0980396 -0.512545109 22.275322 
-2.10358906 0.730945349 -21.6131535 
1.17731428 -0.363889754 19.5944595 
3.83692193 0.136753261 -24.8805313 
9.59959888 -0.0978687555 24.8158569 
-5.04742575 0.0366187468 22.3232651 
3.35037017 -0.00812565256 -23.3581524 
-11.2774248 0.512266755 19.474432 
6.0562458 0.0260661282 20.5493793 
-4.59932184 0.723405838 -20.2126808 
12.2583408 0.0077118231 -23.5817509 
6.08327103 0.0752453953 19.7545242 
2.27071023 -0.0609125979 -20.057909 
-12.8985767 -0.815469265 -21.2834473 
-9.69561577 0.335235715 22.6309566 
-12.7644863 0.0581466071 21.3276749 
13.2925959 0.219193831 -25.1744728 
-15.2172918 -0.468343616 -22.1911602 
-4.98982906 0.852226377 -22.6608334 
22.2196541 0.49187699 -7.14904642 
9.62242699 -0.0356300771 -24.5961876 
5.18755388 -0.155906677 -20.1534996 
-13.9362593 -0.878559887 -21.3101597 
-7.26304007 0.0587041304 -23.8136654 
-9.82233906 -0.168192789 -22.8367157 
3.94722581 -0.0601753518 20.244709 
3.02360797 -0.028632272 -23.4321308 
-15.1927691 0.270228952 4.64314938 
12.517602 -0.0270144194 -23.2835999 
-17.3607731 -0.0197421536 -21.8140335 
7.23270702 -0.517707586 -22.8343239 
12.184617 0.117916904 24.0757885 
-3.48536205 -0.188022554 21.6418228 
-5.30252695 0.404027075 23.7902145 
15.7994375 0.312191457 19.6494045 
0.76431179 -0.05739557 -24.3540039 
15.9506741 0.129868582 21.9636536 
-6.08448505 -0.113153249 20.4150295 
18.0924568 -0.534256518 22.5101299 
-2.24641156 0.0586919412 8.95619965 
-0.0744011849 -0.111857295 10.590826 
-22.7085857 0.458146214 -13.2505875 
-1.46615458 0.560435057 -21.0812664 
12.2147856 -0.802140474 -9.01329899 
7.48396063 -0.071491532 22.344492 
-5.93792915 0.490736425 24.8513451 
13.9983912 0.265660077 24.5499363 
-3.39707351 0.799066424 -20.7829552 
-16.1979218 -0.0249279514 -24.0467854 
-9.64001465 -0.364284396 -20.5448666 
-5.20685291 0.52920872 24.2474365 
-0.000168055296 -0.218564928 24.6990108 
-2.45207286 0.33422333 -24.4438019 
-6.03647041 0.425841391 -20.7961674 
3.67666292 -0.0596219487 -21.241703 
-1.04915929 0.366054386 -20.6380882 
-15.4462433 -0.321686476 -21.5347729 
7.41597319 0.404482782 -5.80045033 
4.72168446 0.0563855097 21.5294571 
3.03708267 -0.0240982343 -22.2095127 
1.37211394 -0.197137982 23.5010185 
-10.9387913 -0.170797259 -23.8176746 
-3.67861772 0.793777347 -20.8492527 
5.18586349 -0.188360929 -19.8442955 
4.29947996 0.0767573267 21.9517822 
1.94740427 -0.0385495797 20.5640011 
-1.9452045 0.0203191377 23.9118233 
6.1839056 -0.22034952 -23.8819466 
1.76572096 -0.125632122 23.7842388 
-13.6958237 -0.836339951 -19.7581329 
-3.58780432 -0.493447453 -1.67477202 
13.4454517 0.611746073 22.6795044 
6.72805214 0.260541797 19.387455 
-0.88706702 0.334615618 -21.3061924 
-4.27463961 0.763902247 -23.089119 
-9.40645981 -0.140590116 -21.8589821 
7.75909281 0.372617543 20.7506905 
18.6917973 -0.24719277 24.9346294 
0.857361078 -0.441216916 20.16996 
3.71583843 -0.10238266 -21.8197403 
-5.93783712 0.407386631 24.0564365 
-5.49175739 0.486520678 -20.4400597 
4.28318453 -0.107738778 -22.551281 
-14.4101114 0.197777823 11.5572157 
0.524295926 -0.441657454 20.1665115 
6.8276844 -0.340096831 -23.7982388 
-7.41569471 0.15453057 19.5095272 
3.47236633 0.105097778 2.39367747 
-2.25140262 0.48966971 -23.6516209 
3.85238552 0.18282111 -13.2133722 
-18.6930885 0.309421629 -3.22767353 
5.99768019 -0.159991056 -21.1094513 
4.75528193 0.118778378 0.149848878 
-12.6643429 -0.450722694 -24.5963955 
13.8458042 0.417168736 20.8398266 
-7.00007725 0.270274401 -23.0888958 
-6.72385263 0.41266948 -21.7060165 
-4.60353661 0.851903141 -22.4263477 
11.8900681 0.107093804 24.0204735 
11.8754177 -0.10602542 22.2838097 
10.4156294 -0.0960514247 -19.1646099 
2.66965866 -0.0611208864 -20.2952919 
5.41941929 0.0383227617 24.2817478 
-2.82025981 0.557022393 -23.5968075 
-1.97757816 0.317063361 -24.2080193 
0.129817188 0.0833163112 -22.3040409 
10.9489288 -0.177406818 21.5718517 
1.93019867 0.0586528182 2.83476329 
-7.06358194 0.023538569 -24.8078346 
-0.0309999287 -0.0755810812 -24.1173096 
7.68837118 -0.389233291 -24.3436813 
-5.04073286 0.86488235 -22.5049934 
15.9232311 0.0201790277 9.2047472 
-11.9194202 -0.304534495 -24.9013004 
-14.2603006 -0.507515132 -24.828825 
-5.07068014 0.773980677 -24.2128735 
2.09749532 0.0436639488 -19.9292793 
5.15267706 -0.125085354 -23.9628735 
-6.96599102 0.396141022 -20.3307343 
-11.0764236 -0.283601314 -21.5202732 
-5.03106356 -0.437709212 7.03303766 
-5.54554272 0.797920346 -21.9746971 
-8.62847996 0.0191634633 -21.1527843 
-21.3257484 0.436395645 -24.858675 
0.153603643 -0.323684305 24.1567478 
6.16723537 0.0931666419 21.298727 
0.805740654 -0.36496672 20.9008865 
-3.33867002 0.563545227 -24.0929775 
-7.04749537 0.132365093 21.6900158 
-6.31505299 0.377208114 23.1022282 
-5.47742128 -0.257275403 20.2721443 
-1.66307199 0.0458301194 23.9471474 
-19.7257195 0.500371993 -23.2742786 
1.49471951 0.153155401 -22.2620296 
5.98397493 0.150702804 21.9157219 
-10.1779308 -0.013042802 -23.3316116 
15.1604309 0.361802131 19.6893616 
-7.55501842 0.0153044462 -23.9251022 
19.9032459 -0.177504092 19.928112 
6.65061188 0.244790226 22.8846378 
4.36245871 -0.041254241 -21.7145214 
1.87607884 0.286630869 -22.4863167 
1.5925833 0.0643664002 -21.103693 
5.84878874 -0.116908133 -24.1667919 
3.64431238 -0.174461275 -19.9432335 
1.45416141 -0.11855945 24.0100708 
0.776000738 -0.334310114 22.5254841 
8.27030945 -0.258599579 -19.5176716 
-6.9625206 0.106183171 20.5286217 
-4.25740623 0.609945059 -24.3474083 
6.93531847 -0.334970266 -21.2678089 
-3.52434444 -0.0423850678 22.7607994 
-20.2917099 0.654512465 -24.260376 
8.25873566 -0.371470273 -24.1432629 
15.0526581 -0.0731068924 1.02830648 
-3.04929614 -0.355300099 19.8301754 
2.17970252 -0.0586138181 20.5034847 
6.40301466 0.128933296 23.7278519 
18.2825508 -0.280964851 19.9071999 
1.58732772 0.328286886 -19.5544586 
-5.39594316 0.687300861 -21.6778965 
2.27828693 -0.056781251 19.784977 
-9.29682541 -0.0610931925 -22.4058704 
8.40472126 -0.368761688 -22.6021996 
10.1483574 -0.0333838351 19.7371616 
20.7410927 -0.340640813 21.0398979 
-24.241375 -0.366525531 -24.4226646 
0.271617234 0.402505666 -19.7699165 
3.4523139 -0.055067528 19.8510036 
6.27872086 -0.196987092 -22.7097702 
6.22204256 -0.234229311 -21.5259914 
0.484116971 -0.39458102 21.1854267 
-12.8864708 -0.782744169 -20.907486 
4.50519562 -0.00389601011 -24.3138294 
11.814971 -0.119483113 20.1936626 
0.692059636 -0.434624523 19.9930515 
-13.5517321 -0.151295304 19.7841377 
7.05514956 -0.257174015 -20.2649403 
-15.6356421 -0.132195055 -22.3668003 
0.690688848 0.371003628 -20.0041618 
9.37605095 -0.0596852042 22.7835045 
3.00668526 -0.103390753 20.5149918 
-11.5561714 -0.467401862 -20.8592758 
4.79873323 -0.175195307 -19.648571 
-4.24349308 0.00110444403 22.4612522 
9.01446629 0.192508206 4.88009214 
14.086668 -0.120430745 -13.7468405 
8.56866837 -0.356051505 -24.8402729 
1.97245932 0.0578211248 -21.8887806 
-10.5682716 -0.148939371 -22.0994625 
3.44846201 0.0897590593 -23.9159088 
1.25191128 -0.181994185 23.9735775 
-14.6488495 0.25497815 16.5258656 
-7.15958071 0.128635153 20.2997265 
3.93505287 0.0569902621 23.1819592 
-9.86795044 0.104674578 -24.5431957 
2.96357346 -0.0397759639 -21.1879082 
10.7960129 -0.0987853929 23.4358597 
10.1694889 -0.00824450701 -24.3988991 
12.544754 0.0816157535 -23.5592003 
6.44463348 -0.142057359 -19.6702919 
3.09476781 0.0981547982 25.0625191 
-2.60523248 0.686619461 -22.0656528 
-7.63691521 -0.0532775708 -24.3434448 
-4.21913004 0.782036424 -22.374279 
15.5015545 0.306619972 21.3884335 
3.95112681 -0.0728747323 -20.4436779 
-7.34103632 0.12032897 23.0909691 
-6.95459652 0.32074514 -22.7688713 
7.49456692 -0.494143426 -23.4134007 
-7.21114874 0.145531148 23.7135391 
12.9352207 0.209334031 24.0337696 
-4.71271896 0.736353219 -24.1967564 
-1.18317103 0.0973727629 8.30326653 
8.00911999 -0.33124581 -21.1142139 
0.612180114 0.400887132 -19.5814342 
4.7012248 -0.170570031 -19.8333912 
4.45692825 0.0137978252 -24.0674114 
-3.88034892 -0.295626253 20.5182762 
-4.99124861 0.0512633324 22.4718933 
-1.97362328 -0.308899581 22.0713577 
3.49785423 -0.220134541 -19.5866547 
2.14390683 -0.0696480125 20.1910896 
16.5964718 0.0423970968 23.6954651 
-16.5646133 -0.255673766 12.8937311 
-8.3899498 0.0460235178 -21.2482948 
-13.0937691 -0.61442399 -24.3419838 
10.3491011 -0.146747261 22.7201176 
3.13319826 0.0200275518 -20.5322475 
9.68735886 -0.0554479398 24.9401073 
0.61257869 -0.0207556169 -23.9336662 
2.38202763 -0.0833554938 21.0991592 
18.6556644 0.352361202 2.31117725 
13.6004763 0.39861992 24.152565 
-2.05653667 0.408774078 -23.7475586 
13.9370298 0.471138507 23.9145145 
8.88658142 0.397807658 -2.09226179 
1.87064779 0.310744584 -22.6792717 
5.28778028 0.0976900235 22.198307 
-16.1363449 -0.248329505 -20.3125629 
-13.8711271 -0.736836791 -23.6172771 
4.75524712 0.0942731947 20.9553871 
-1.78988886 -0.111156054 22.9983025 
18.0674343 -0.288266867 24.3661194 
7.3809433 -0.226249531 -19.7496223 
24.3133392 -0.200408623 21.7144184 
6.72093153 0.228779525 20.2181091 
3.07263994 -0.0244069528 -19.9606667 
8.19631481 -0.356229424 -20.945467 
8.45482254 0.245947421 20.3884087 
-3.68182063 0.323777676 24.2596817 
20.400341 -0.275900155 20.2045879 
-3.62260914 -0.0847112015 22.3625755 
-0.935745955 0.371473253 -20.4867916 
-2.83843184 0.673749268 -21.030323 
-8.48842144 0.0665526092 -20.077795 
-1.38891292 -0.344890684 -0.514170527 
22.6809425 0.434584886 -7.40556192 
3.46105075 -0.12054199 22.0620708 
-1.32122266 0.0236807466 23.5431576 
-1.69974267 0.726235211 -21.2358322 
7.57764244 0.00769799529 22.005188 
2.30651546 0.193726256 -23.5354366 
3.05848646 -0.0845382437 -19.6317921 
-4.85005188 -0.201569885 21.0287323 
-4.17394257 -0.0261394251 22.1929798 
-7.2154398 0.131183177 21.7749996 
2.90111589 -0.107987523 19.6077442 
8.10372639 -0.276949912 23.2661686 
1.98496461 -0.115256965 22.9508038 
-3.4676435 -0.283733517 20.0948067 
4.8424387 0.0523719527 -0.669922233 
19.9459419 0.201103345 -0.126124769 
-5.868855 0.177210599 22.7590542 
4.14942884 0.0135638127 -20.6967316 
-5.93472099 -0.193074375 19.9385109 
-5.3719182 0.294080913 23.3572884 
14.2924633 -0.702390969 -6.58338594 
-1.98391211 0.748264253 -22.080862 
3.30008936 0.0363141298 -23.8426094 
-2.01148868 0.764000416 -21.7300167 
-5.19813919 -0.0782720819 21.2698498 
11.3053398 -0.104322277 22.5953655 
-11.8567743 -0.510304809 -20.9614162 
-3.99214244 0.724916875 -22.6136665 
13.6078663 0.0982649103 5.51334 
24.9524746 -0.0542158782 20.153511 
5.0253396 0.0929186195 23.1366501 
-7.3301301 0.083793655 20.2899895 
5.08042717 -0.195932284 -22.6731358 
-0.567150235 -0.034977857 -23.4140205 
-1.44982171 -0.424830198 22.1205254 
6.3069458 0.437474251 10.4248867 
6.18933821 -0.207356736 -23.7314892 
-3.10381317 0.681159914 -21.7274036 
-9.92788315 0.190499172 23.4394951 
-2.4085145 -0.0396382175 23.4204597 
2.20170093 -0.112044863 23.4711208 
5.02042818 -0.151870102 -20.0951118 
-5.86463594 0.00358245708 21.4408646 
18.1187229 -0.309296727 20.4055576 
8.09801197 -0.347877234 -20.6572876 
7.87506723 0.375055403 21.0354347 
-0.677579463 -0.151171222 24.3884869 
1.58590508 0.194162086 -20.1176605 
6.44074965 0.291448534 22.6023808 
-11.3786469 -0.308176011 -24.1323433 
16.3402348 0.215487748 20.0525303 
-8.57385731 0.0457036085 -20.6779938 
-1.82419646 -0.463130981 21.5892086 
-3.70793819 0.412023544 24.7874203 
-2.05398226 0.332114786 -24.5241203 
-8.54803848 0.285345435 20.2553177 
7.05852222 -0.260646135 -24.4679756 
1.96344459 0.226777598 -23.2620544 
4.9313283 -0.0833572373 -21.0982685 
5.46477032 -0.145418927 -23.3720322 
7.08545732 -0.441206127 -23.6306992 
5.21522713 0.066638045 23.4737015 
5.95782948 0.177461669 22.3095455 
-10.9805908 -0.223201483 -23.4332199 
-3.66204405 -0.0931136161 22.2040844 
-0.416639566 -0.579232335 20.6940689 
-8.45857143 0.287136316 20.4417439 
20.9081001 -0.331239134 20.7407513 
2.7439754 -0.0733892918 20.2404518 
-12.8686886 -0.807734311 -21.7684383 
-7.88092995 0.081314981 -23.2862873 
-14.1549568 -0.685197949 -23.1084137 
-4.96590233 0.754760444 -21.6406937 
0.530601561 -0.126671374 25.1366291 
16.6732731 -0.16168189 -2.57776546 
-13.1939096 -0.83202672 -20.39925 
-5.03616762 0.86002475 -23.275177 
12.0245047 -0.0735478178 20.5562057 
-23.4968834 -0.075523138 -20.6718292 
13.0065403 0.343470186 22.7117252 
-3.75662827 0.296617866 24.1276245 
-2.40528417 -0.344938815 20.1184731 
-21.6836605 0.681290746 -19.410078 
4.72460175 0.0922886059 22.1164398 
9.23719501 -0.233186752 24.6782207 
17.4080334 -0.279111862 21.0720062 
5.87478447 -0.169931799 -21.3849487 
1.78153777 0.0314371735 -21.0691986 
-0.520594954 -0.520748377 21.1477528 
-6.90411568 0.0364393666 -24.579237 
-5.23094702 0.200648069 23.0818501 
2.37349129 -0.107363574 21.250576 
2.07619715 0.0343549848 4.31498528 
-5.57417488 0.624037027 24.9638882 
-0.296929747 -0.338326126 22.9359245 
8.02675629 -0.256201565 -19.8178806 
2.34883332 0.15481092 -22.5112743 
5.14028263 0.0382687598 19.5600185 
-1.03632522 0.18773903 -23.1407089 
-1.07934475 -0.00811006874 -24.4623375 
12.9385433 0.202934369 21.5002766 
-7.4538126 -0.00330837071 24.7621288 
-6.06199932 0.366741031 24.8682232 
8.47000599 -0.329652429 24.5361748 
-6.73125601 0.222743437 21.6686573 
6.69846964 0.210170045 22.7344093 
-1.07347846 0.156607434 -22.9361973 
-4.38758612 0.849339128 -22.1542339 
-0.90926832 -0.457777351 20.1768532 
-4.2078414 0.462727368 25.0129147 
17.4654922 -0.0413120575 -1.85103035 
7.34526348 -0.0648690388 23.8096294 
5.83483887 -0.139229983 -20.15168 
-4.40542841 0.887409389 -21.884861 
-3.28707814 -0.244560286 20.6514912 
-2.98146343 0.383070379 25.1726303 
1.34315526 -0.0929707661 24.5154381 
9.9482069 0.00283701159 19.8104095 
-2.99784589 0.685976982 -22.604269 
-20.9234123 0.695723772 -22.9871864 
1.68893111 0.0096129952 25.1653709 
-18.2401485 0.213486359 -23.2826996 
5.87921095 -0.161552295 -20.8098907 
4.08314562 0.0536240004 19.5283737 
4.73412132 0.164644629 23.8654461 
-6.47527742 0.240591988 -24.2731037 
2.79402995 -0.102404408 22.1864204 
-1.19375253 0.00757448468 25.0478401 
-3.79348302 -0.55989027 -3.7416122 
8.33943558 -0.349941909 -21.068367 
-1.65729725 -0.276012123 22.4178486 
8.11926174 0.0206755344 22.2560883 
-3.33590722 0.120386101 23.8912945 
-1.6500833 0.304717064 -23.6052208 
-20.2070332 0.667663634 -23.3257351 
7.0278964 0.270163983 19.4592552 
4.93021631 -0.132640168 -23.740551 
7.49474525 0.206252009 20.9623852 
-5.8935833 0.458903372 -20.422842 
-3.61985898 -0.27714017 20.296133 
-8.07720184 0.209397271 21.8486786 
-13.8084526 -0.755675673 -22.33321 
4.76538467 -0.0598142073 -21.1612511 
-16.5994759 0.0979998484 -23.6335793 
-16.6436672 -0.0027180016 -24.6172371 
5.53978157 -0.130927235 -20.2935696 
-2.32815504 -0.4215267 21.0761204 
3.96191072 0.0865407065 -24.6964092 
18.472599 -0.421056777 24.1367779 
3.65168858 -0.188520283 -19.7719021 
-4.17237806 -0.453230381 13.6910372 
-0.00622814894 0.333988011 -20.7984791 
-2.19889522 0.580085158 -20.1454334 
24.9824123 -0.362610519 24.5310154 
17.2231255 -0.440518498 -12.0895452 
-16.0838165 -0.000796957873 -22.8537483 
-9.19060516 -0.300489277 -19.8111801 
-3.67202806 0.419391125 25.2625046 
-20.518364 0.123013049 -7.52045918 
2.31374907 0.421051919 -12.8591347 
-7.17027283 0.102082074 -23.65242 
12.5482292 0.103945866 24.2665119 
-3.24399114 0.567195117 -23.9618816 
5.37238884 -0.0173419788 20.9533424 
11.1180153 0.458419681 7.68409872 
-10.1393661 -0.459762484 -20.0047035 
12.598752 -0.0068283244 20.8109455 
1.37250674 -0.178790197 22.8632317 
18.9886265 -0.40759021 24.4066334 
1.28946912 0.144695282 -23.2731972 
24.9957066 0.00217392552 22.2371387 
-6.54162073 -0.313218921 0.898466706 
-1.81042147 0.780833423 -21.6091423 
-11.3907156 -0.299966514 -24.9122086 
0.374366164 -0.353897005 21.3289795 
4.31930733 -0.0821229592 -21.9473228 
5.64525032 0.178766102 22.6523914 
-5.27837372 0.469511837 24.0631733 
10.8196287 0.10232237 16.6251431 
7.24070263 -0.108927496 24.0903244 
-15.3694496 -0.466411263 -19.9924774 
7.75984716 -0.265962362 -19.8318443 
24.3232994 -0.180190906 20.022419 
6.08479977 0.128847465 19.4606419 
6.33321762 0.237666145 7.57319546 
14.2648115 0.189556912 24.7401924 
1.03304899 -0.183387876 24.5702267 
-2.02801132 0.480793655 -23.4846611 
-1.18696225 0.278744251 -22.3093033 
5.22186661 -0.18205741 -22.1022701 
13.2081108 0.424706042 21.9634113 
-6.55937243 0.422178447 -22.5518456 
-6.48366165 0.141991913 21.3529339 
-7.42388391 0.0354371034 24.4116631 
14.2597427 0.24873963 19.9249611 
-2.74283123 -0.151825726 22.5181217 
2.66947532 -0.0446935035 23.9026146 
-18.8145714 0.61426425 -21.6229134 
5.39637184 -0.174635872 -20.0576782 
-6.77850676 0.384978682 -19.8278675 
-5.27332544 0.781182826 -22.1234379 
2.3630476 -0.0934038162 19.5229969 
10.0630188 -0.0539889634 24.2391758 
-11.829999 0.314225197 19.9875889 
0.946167946 0.0682000071 -23.5049 
-5.52502918 0.724905372 -24.6062756 
-18.3601875 0.511558831 -21.1893311 
3.22464895 -0.00285959011 24.0213566 
-3.98823404 0.659368098 -23.6928349 
2.62314463 -0.168943554 22.4396572 
23.0741634 -0.084225215 19.7750854 
-18.1287594 0.248629063 -24.3157482 
4.72942066 -0.0949586928 -22.004179 
11.1391897 0.0078400597 23.9083805 
1.69524848 -0.125534654 22.5440807 
3.28659964 0.0278172474 23.8479004 
-10.9895439 -0.281184465 -22.3940239 
6.20977116 -0.0938605294 -19.5386372 
-21.0948582 0.309109986 -12.7340021 
-0.0411495343 -0.364535958 21.9624043 
3.92202044 -0.0929262489 20.3819218 
-6.1200099 0.545382977 -21.3668003 
15.8443251 0.0310954899 24.2726898 
-1.20399714 0.290282875 -23.1142864 
1.62245047 0.0635967702 -21.3264618 
0.464708745 -0.433932275 20.9823265 
-0.646889806 -1.80809293e-05 -23.5586929 
-9.34062004 -0.0599004626 -23.3790417 
-12.6105452 -0.66787529 -20.0078583 
-4.51891375 0.813669205 -22.5393391 
5.44335318 -0.101241425 -20.902792 
4.26874161 0.00162226753 -20.7090321 
12.2437744 0.136052221 24.4729671 
7.88853645 0.0700136796 22.0313873 
-3.32506633 0.720522046 -21.3591614 
-7.32408094 0.0862055048 21.5808926 
1.3473146 -0.353335977 20.4044762 
6.65937328 -0.220874473 -24.2052345 
-3.20103979 -0.339933753 19.914835 
-4.72782898 0.78081429 -23.9325047 
-2.82205749 -0.313468456 21.468996 
8.18620586 -0.465957075 -23.1881866 
16.1463165 0.0310292207 23.7718124 
5.65222073 0.0491965152 24.7636337 
5.06045485 -0.00814897381 24.9105129 
-11.2894821 -0.252436519 -22.905756 
-2.57948422 0.678501725 -21.5617218 
-0.595129311 -0.0296636112 -23.2149239 
0.613512635 -0.265629858 24.2189064 
7.57175589 -0.250787288 -19.8393555 
-6.42518568 0.437140614 -20.7030926 
7.8307848 -0.270978212 23.6856651 
-0.367479503 -0.23773621 6.44609594 
-0.498411775 0.382953286 -19.9975262 
-3.52053833 -0.117895067 22.0318298 
-7.06003904 0.368161887 -19.7355118 
-5.39883041 0.867747962 -22.817276 
5.10475016 -0.15873985 -23.6278973 
-1.79167902 0.654206634 -22.3093815 
-8.49114895 0.034696769 -19.7455597 
-20.913393 0.693466723 -24.0989685 
2.92655039 -0.0608410127 -21.4939651 
-19.5880146 0.413475066 -24.3267765 
-1.85614491 0.726968765 -21.1545639 
12.8387556 0.122955509 21.2460899 
6.48242378 0.137793422 21.3283806 
-5.20659161 0.385139018 23.8564701 
0.516109228 0.321338475 -21.1426411 
-2.1208446 0.505713165 -19.9287682 
-14.996233 -0.603572428 -20.8011398 
-5.00569534 0.721429169 -24.5164871 
7.60492325 -0.538399994 -22.8528175 
-0.870366395 -0.465064794 21.6815548 
11.3329334 0.056807857 24.1103363 
-5.58717346 -0.244766504 20.133852 
-2.27110124 -0.377902985 20.1333046 
-6.66777802 0.113522977 21.0800667 
11.0869236 -0.176070139 22.205904 
5.73122358 -0.0398380533 20.6002216 
-3.8635807 -0.104160056 21.9104786 
-0.40909946 0.3625108 -20.3332424 
-2.23339653 -0.386784077 21.4455242 
8.22687626 0.22337006 20.0443954 
6.75606632 0.310251415 -12.7796621 
-0.215853795 -0.073299706 -24.0035267 
11.8695774 0.153395534 24.3023968 
1.92905426 -0.118975982 5.58210135 
-2.31648779 0.610457838 -20.661253 
-6.85229301 0.355067581 -21.63871 
-0.170439303 -0.392968118 23.8243122 
-12.3855047 -0.678560615 -21.7306461 
-2.21859741 0.406321317 -23.9904118 
6.82865429 -0.20506753 -19.8579998 
0.32948333 -0.300214201 23.9416618 
-5.04783297 0.853481174 -22.9605389 
-5.10982466 0.834665418 -23.7690277 
11.1383142 -0.0765445381 24.563427 
2.21106052 0.0344469175 -24.3079948 
4.72567368 0.117032282 20.1742287 
13.6136131 0.0920535997 19.9782734 
14.3968582 0.49968341 21.379324 
-8.39487839 0.174526066 20.234745 
17.4640026 -0.301517129 21.2335129 
-3.33843803 -0.276658475 20.3687267 
-15.9752512 -0.271583587 -20.085022 
16.8812904 -0.06792254 21.2410545 
4.93375444 -0.148085073 -20.0042057 
-5.06170177 0.760820985 -21.9149418 
-4.26685524 0.75944221 -23.2910423 
9.16971684 0.157381073 20.1173935 
12.2499304 -0.0336656049 20.9007435 
24.4052792 -0.0389877819 -2.96194863 
-8.58395863 0.353620827 20.8365974 
5.79852962 -0.141793132 -20.9696598 
-13.2190495 -0.834962666 -23.2049446 
-9.76590347 0.0538963005 -23.8087463 
1.55484605 0.0765512213 -24.0763187 
-16.9032345 -0.066414915 -21.5696239 
-0.729004264 -0.463140756 21.5940857 
-5.64734411 0.467742741 -19.6431198 
-4.45269203 0.64926219 -24.0635643 
8.47844028 0.301201224 16.9395943 
-7.79814816 0.0968517587 20.2510815 
6.50802946 0.268729985 22.237566 
-2.67815566 0.248473689 24.5937061 
-6.91314554 0.195729077 -23.4667301 
-1.00626612 -0.0647490323 25.0393829 
-3.35761762 -0.088948153 22.8394642 
11.5761051 0.0539783426 24.0411377 
3.39255261 -0.12175037 20.2851791 
-18.9293938 0.424143165 24.7387733 
-3.00521493 -0.244283468 21.4758682 
-5.02398157 0.533112526 -19.6151295 
3.65063119 -0.100542732 -20.3788738 
-6.550313 0.302453697 23.8095531 
-8.90898514 -0.039377369 -23.0701561 
-1.34406018 0.353203058 -23.0637722 
3.59038591 -0.14254497 -20.1021862 
6.83435965 0.178034499 21.8485298 
6.98780394 0.113354713 21.7884407 
6.99946547 0.101792306 22.0378914 
5.37993526 0.061727453 24.0293064 
-3.64976048 -0.161758885 21.5012875 
-5.32643032 0.516244352 24.299242 
-4.63633204 -0.240543053 20.7479038 
-0.759354651 -0.493738621 19.8067818 
-6.46724892 0.17934978 21.6524239 
17.6768112 -0.28688997 23.9037018 
-5.51535416 0.477127999 -20.9968758 
-0.699381232 -0.541246057 21.1526794 
-0.490220368 -0.0482956395 -23.5917568 
11.5510473 0.118993163 24.6408195 
