ply
format ascii 1.0
comment created by gply, a Houdini tool.
comment converted from .[b]geo
comment for more information about Houdini, try:
comment www.sidefx.com
element vertex 1271
property float x
property float y
property float z
element face 0
property list uchar int vertex_indices
end_header
-12.3220482 0.0185189974 1.8958993 
-10.6776066 0.0425082482 3.34570837 
15.4165325 0.251516193 5.0705843 
-15.4804325 0.107081652 -4.82246447 
8.76425266 0.244764864 3.98495388 
-2.05464387 -0.15750882 14.1069622 
-7.1868186 -0.141289443 5.6417284 
-14.2524395 -0.413904339 -12.144742 
10.7543192 -0.195571586 1.12022388 
-16.5985661 0.551359773 0.693676829 
14.7570791 -0.0478524566 0.104190037 
18.2087612 0.021877205 12.4882374 
-15.8263369 0.280792803 -0.178642139 
-8.64531326 -0.334309757 5.56342173 
-2.64000583 -0.0525984354 13.3291674 
5.26303244 0.338728428 -12.4339676 
-17.7162857 -0.149731994 19.7300777 
0.0894774944 0.338613749 13.814889 
-6.68703938 -0.321754187 -8.79131985 
8.36505985 0.340550959 -2.73367381 
6.62522221 0.50135529 20.0047874 
-17.6549034 -0.177866086 15.3400211 
12.5886784 -0.666338444 -6.9659934 
6.89414692 0.135210738 3.68124866 
16.2001152 -0.393635362 -12.0810022 
4.03635979 -0.0204685163 3.07672858 
-10.4558754 -0.18027021 0.75897336 
8.78289413 0.49613753 7.13283205 
-12.1250238 -0.083204478 -3.34325075 
-21.4206619 0.076804325 1.44081151 
-15.9838152 0.114715323 -5.90036726 
-15.7237282 0.417202801 -1.6783644 
1.94508517 0.185251087 -13.5401688 
20.6901646 0.0123215914 -3.02174401 
-22.9133835 0.106685616 21.6298981 
-0.4291206 -0.14816843 3.16936779 
19.5788136 -0.125720456 6.22274637 
-16.8273048 -0.0522651598 17.9228306 
14.6083984 -0.249685109 -15.5750151 
-1.1732167 -0.248839259 -4.49648094 
-23.5331936 0.369136155 -18.0902748 
17.6637535 -0.126930311 -4.54834414 
7.94251299 0.1920176 -12.4631424 
17.0826912 0.076011844 -9.13162231 
13.6685677 0.390439212 4.94726563 
-11.4165516 0.111961856 -4.53542757 
-5.18932915 -0.194139421 0.871251345 
-5.75955725 0.0471957512 -11.0960617 
10.1092806 -0.076140672 -0.492971778 
-7.38126278 -0.534566045 -6.92102051 
12.3130178 0.119178034 -17.3255138 
-13.5293999 0.309456497 18.2809582 
5.51567793 -0.151110172 -14.935914 
-14.249321 0.37784484 9.29786015 
6.47972918 0.196361646 -0.622211635 
-4.89483881 -0.212220162 1.06072247 
6.98084879 0.444310516 11.4072208 
24.9180794 -0.406648874 8.80986404 
23.5928612 -0.196362972 11.7637014 
17.5141773 0.0250831973 10.0808668 
15.1703377 0.304920375 5.88607597 
-23.1088772 0.438961059 25.0752239 
23.3135853 0.137361005 18.6105957 
19.4780216 0.115163811 0.346478462 
-21.6198978 0.558373809 -18.0049152 
-17.2393856 0.252125859 6.76956749 
-17.4771118 0.215004966 8.55771637 
15.9810953 0.101260558 10.6346636 
8.36108303 0.240315631 -11.5374966 
20.0404301 0.498817325 -11.008132 
-5.55365324 -0.570400238 -2.99746108 
-4.01220751 0.428101033 -15.8552399 
5.65219736 -0.128154412 0.353307754 
-19.5161591 0.091042608 4.41859055 
24.6840611 0.445874304 -13.8970299 
20.1622791 0.487129182 14.8121243 
8.85070419 -0.011686706 -6.78274345 
-10.0559015 -0.118509866 9.69118977 
11.4203796 -0.209824309 -4.09531593 
-15.2399673 0.390085131 14.176775 
-20.0689144 0.404403508 1.52596605 
-9.13029671 -0.507918358 -13.4240742 
15.2744589 -0.356816798 -16.4385605 
13.333416 -0.119235024 14.748807 
-21.3748913 -0.0836096108 -10.9660492 
5.19740295 0.296017349 20.8098164 
17.1681976 0.0247515533 8.83308125 
21.653492 0.520382822 -11.8636894 
-8.17340946 -0.196133897 15.5256758 
0.960354388 0.347778052 -10.1628075 
-1.7516607 -0.0902607217 0.157712907 
1.85645294 0.0552799441 -8.41355419 
9.39737606 0.0105862077 17.6596794 
-1.38155413 0.426202059 -12.9781485 
-22.88064 0.652756751 -17.6486092 
3.24578071 -0.101956107 9.00872993 
5.25371122 0.374132305 -11.8412132 
17.858881 -0.0354254134 -5.02297831 
-12.7993288 0.212001696 -4.99454451 
-8.05789471 -0.513749063 11.6831141 
-23.4764786 -0.533953965 13.011879 
18.8605862 0.0461364537 1.68541098 
-18.6667118 0.608824134 0.715722084 
-7.59344673 -0.468437195 0.922701836 
-19.2420197 0.129662082 5.42022991 
2.34966707 0.181187421 12.1608419 
11.2611361 -0.113254495 0.62917918 
4.57203674 0.178285122 14.7982645 
-3.1957314 -0.446488708 -8.04498768 
-17.603672 0.163239226 -5.41294575 
6.17051458 0.507676661 -7.42711592 
14.6680737 -0.0724734664 -0.0859467387 
-20.2006378 0.131197959 2.52068281 
11.0470924 -0.495121062 -6.1584444 
-20.7005329 0.102481022 20.4141979 
-18.478117 0.226837963 24.0739594 
22.8133736 -0.428910255 3.32024932 
-13.56672 -0.132313445 2.40474987 
3.36490917 0.252950609 -5.98826599 
-22.063385 0.0725987926 -4.93190813 
17.0964737 0.0332419723 6.22491932 
20.9536228 0.223703027 12.0888023 
13.9208851 0.0471538045 17.0157032 
3.72612762 0.0566543527 -3.33279657 
-0.038436871 -0.165176213 10.7255087 
0.648888826 -0.0174227785 -1.70679355 
-10.5970716 0.102028131 11.4809818 
18.1581516 -0.0220061615 -5.59869337 
5.84250307 -0.151296586 1.60621452 
-17.3103733 -0.0574856326 -15.9592562 
-13.7518253 0.194781691 6.11067343 
-13.1274252 -0.0961350277 0.286393583 
-17.476059 -0.51189357 -11.1244535 
-23.0461788 -0.531048 12.3955994 
1.40562177 -0.0606299341 -7.14170027 
12.2910891 -0.0941781029 1.32030416 
8.82957172 -0.0795615911 -16.8842964 
-1.94063401 -0.284290671 -0.86177361 
-0.570509911 0.0158953331 13.0980539 
-17.8640289 0.620777547 -3.79118943 
22.3885536 0.590936065 -8.00120068 
18.38307 -0.0934453011 0.16383405 
2.19048715 0.124762848 -8.00664902 
10.7781563 -0.19066301 -15.4635897 
22.9486485 0.474124342 -12.8917665 
7.98317194 0.26731196 -3.73965311 
-15.7038879 0.218004197 0.412555158 
-20.3739738 0.164691687 22.1686726 
-22.869194 -0.301240861 5.62351751 
9.25817394 -0.0935447589 -6.75108862 
-14.8734531 0.0806246921 3.34788537 
-19.2493591 0.671978295 0.763341546 
-1.65374792 -0.167193085 1.40676379 
-7.03424263 -0.123470016 4.67241573 
8.15677357 0.141814098 1.60850537 
-15.3173218 0.234576955 10.1393509 
-0.939814329 -0.0808564499 -7.37811565 
2.34033751 0.190335453 13.7689562 
-21.7944088 -0.161900476 19.2589512 
-5.4711771 -0.389647394 8.04097176 
8.20210457 0.573728204 10.4508095 
-1.36021483 -0.0150207188 10.2972679 
-10.7492456 0.204742298 6.07057381 
-17.2788086 -0.287961245 -12.4461451 
-22.6428413 0.240321442 -12.8172884 
22.5346661 0.0716175735 -5.23024607 
13.0958958 -0.146937519 -0.765347898 
-19.9818573 -0.349432468 12.806201 
9.68024731 0.0243914016 2.628438 
-22.9939785 -0.471143723 8.42854786 
12.5686159 -0.229467124 -0.571181536 
22.9605503 0.441372067 -12.3783388 
-14.5278921 0.0768267885 3.39494491 
15.8598137 -0.279883921 -11.1563005 
-4.43230677 -0.151295915 0.398932844 
11.6946707 0.152112797 9.34700775 
20.6804581 0.500840783 -9.25940704 
5.68061161 0.174750805 -2.32806802 
-0.0474477671 -0.0701886341 0.691181481 
-9.26785374 -0.344908744 -8.05494308 
-15.0309515 0.0488261208 -6.85904884 
6.70985031 0.266340971 18.7421112 
-8.69317341 -0.252974242 -2.85916972 
18.6993465 0.129874885 5.39887333 
-9.09134007 -0.361291885 0.265386492 
-12.2849512 -0.577106357 -17.9174461 
2.38588381 0.359517038 -12.6686707 
21.1756496 0.335186392 -14.0193939 
-23.756897 -0.346924484 4.823596 
22.8186245 -0.395478606 2.73862457 
8.20021915 0.0358814038 12.7002125 
2.56799674 0.125482202 16.3308525 
-9.78319836 -0.212595537 -2.52128673 
23.6097279 0.194634408 15.4471474 
22.3885174 -0.468015701 2.23272324 
-5.79050493 -0.43125847 10.0444422 
-19.3262444 0.245088011 2.86103249 
-20.7248325 0.0585969761 1.93946743 
21.9010353 0.124303333 -15.7937574 
-22.9897423 -0.507853568 12.5615215 
-8.15044975 0.287325948 -19.1440773 
11.1865892 -0.11290279 -4.05140209 
-15.8990259 0.389323175 2.38228631 
6.94995356 0.318859041 -5.49859524 
9.51969147 -0.396510571 -8.70717812 
15.2395782 -0.184654117 -4.71516943 
-3.98729634 -0.42889297 -3.45669866 
-16.5402241 0.132864177 10.7137804 
-9.20055294 -0.201255992 9.8268013 
15.698698 -0.180154398 -4.40391684 
2.47782803 -0.0733676702 3.66574669 
-13.9261513 0.200814903 12.7000999 
2.94160295 -0.114750579 9.44374466 
-17.7308922 -0.138586313 18.5502644 
-7.0946188 -0.65211761 -4.21934843 
11.0846691 0.0528467111 5.15535116 
7.56245661 0.0637253597 2.72445393 
8.15904999 0.0997638479 -14.3870134 
-10.9637985 0.126959309 2.90713024 
18.4793625 0.208516046 -10.6700087 
-3.97735763 -0.221158981 12.2722883 
-9.47342968 -0.216158152 6.86003971 
24.1233501 -0.426303715 3.40639067 
6.21851635 0.197267026 -13.0061369 
-9.15895176 -0.522424936 -12.0366602 
12.4621964 0.254402786 6.89498472 
9.11866951 0.275787324 4.90496254 
7.46486855 -0.00319514587 2.16696787 
-4.49297142 -0.328809917 12.5953436 
-11.4651556 0.426080257 4.23877048 
18.9122753 -0.0923695937 -16.7067204 
-3.35368633 -0.439204425 -4.37221909 
1.7355628 0.153255954 13.7580261 
2.13106084 -0.0451744124 2.79717684 
18.8831635 0.178031757 -5.63764668 
2.00448847 0.358236879 -12.0693226 
20.3607159 0.121093698 0.188735232 
13.7690563 0.291971624 2.29147196 
19.0865326 0.169377252 3.77935243 
20.4100151 -0.096024856 -16.643549 
3.68121696 -0.122328714 1.93077087 
23.8847733 -0.144504964 -19.0105267 
-9.91135025 -0.178175971 -1.63690972 
15.1425018 -0.121641286 -3.59792066 
12.1622601 -0.0316211134 -20.2589989 
9.38407707 0.139968887 2.73684692 
-15.0608273 0.124644153 -1.03471208 
11.4816818 -0.103216745 3.45891237 
21.1780262 0.142444789 11.4019852 
-21.8058186 -0.0455434956 1.54624295 
0.382530481 0.301338851 -12.3564053 
3.14079499 0.241756499 -6.32347727 
-9.69586563 -0.264395267 -1.97873294 
-11.0531769 0.152296096 -5.10635281 
13.9580116 -0.576890349 -11.1739025 
12.4516897 0.163784921 8.51598167 
-2.6203773 -0.032523822 4.71885824 
-2.36832905 0.268966109 -19.2194061 
-20.8393574 0.25415957 1.23155808 
11.484581 -0.051681757 -17.1393547 
21.1666451 0.506902874 -9.31938171 
5.27802944 0.234644413 -13.0646019 
9.35268116 -0.181711257 -7.72968864 
-3.36144757 -0.225439906 12.1856985 
5.35790443 0.46578145 9.04810238 
5.39322281 0.234875128 16.5871258 
3.10752773 -0.158004269 0.874725997 
19.0091801 -0.0530039184 5.86941481 
24.7102566 0.264554739 -7.49900961 
-19.4604301 0.686743081 0.484630793 
0.303336859 -0.197001636 2.89952278 
-13.2958326 -0.0614131615 -4.33914661 
5.4371829 0.052071359 4.96915007 
24.9202061 0.365998417 -13.2054319 
22.66255 -0.0272654276 12.1738653 
13.2662182 -0.118465453 12.155448 
0.708160222 -0.512908518 9.36786842 
-23.0859432 -0.0845463499 0.842399955 
24.434082 -0.425598174 4.28711176 
-16.0233936 0.00805337541 14.6673727 
10.5439701 -0.117218174 13.205946 
20.5834942 0.175759032 1.05976629 
-24.3996658 -0.278080493 4.30418348 
-18.3979282 0.514736295 2.33712459 
1.86640584 0.0113105075 -4.58286953 
-6.90166807 -0.179606438 -14.9956808 
-11.5165873 0.165530875 13.9329081 
-14.3049316 0.307637215 13.0303612 
-16.6555748 0.519648075 2.33439207 
-0.405522406 0.0397736132 0.715272665 
22.7023144 0.577319622 -8.17047787 
18.623148 -0.154977664 -22.0288773 
-8.375741 -0.253956527 13.6594505 
3.33016396 -0.0452635922 9.14276791 
-19.1035614 0.722182989 0.417954266 
20.552124 0.25434202 -5.85227156 
-16.3166084 -0.234857351 -11.2259932 
17.9870205 0.103200585 7.07974911 
12.73211 -0.257705122 -2.8332386 
13.7191153 0.192823276 1.45885396 
24.3295326 0.0699140504 -4.86814213 
18.5930061 0.115287311 -4.61119318 
9.88098621 0.04765293 -1.67687583 
11.9436741 0.0234542675 -19.1234131 
-5.32132959 -0.155718252 -8.13931561 
-22.6064281 -0.372407079 3.57918763 
5.25056124 -0.201109678 0.658911645 
16.0301933 -0.230161816 -10.4165735 
22.2328701 -0.508807719 -23.6399498 
9.31290054 -0.400171816 -11.4708328 
9.87374401 -0.0320366696 13.2907314 
-19.6270866 0.0979690477 5.15829611 
-4.62972403 -0.400833309 -2.22199059 
24.3424301 -0.218180984 1.24407589 
-13.6392851 0.0140473451 -5.31276083 
-23.7439709 -0.425760806 9.62862206 
10.9248381 -0.535523295 -13.5304546 
-9.70793629 -0.152777344 14.2740259 
-9.78434181 -0.121780999 7.05878639 
-5.97713089 -0.359161764 7.82899523 
0.44201681 0.290059865 -10.3573484 
12.2465963 -0.755198061 -11.4040403 
-19.294733 -0.0551007688 -7.38818312 
-20.8460922 -0.00499125151 -4.5623703 
9.2004528 0.476989686 8.90520096 
16.4093971 -0.0122851469 8.14588165 
-15.7034435 0.238660231 10.9775963 
20.6866417 0.00453051785 -1.01447809 
-5.27510929 -0.318163753 -0.575063646 
5.86739016 0.192294806 -1.78818929 
24.5549297 0.000370496651 -1.00212395 
-11.1422853 0.34557873 22.2245255 
-23.8643265 -0.375809193 7.28473806 
13.9173937 -0.348043203 -4.24315262 
20.7717419 0.511236608 -9.35663509 
15.0932331 0.327032417 5.0743618 
15.4939165 0.228815004 6.4366045 
-23.8121872 0.0187080186 -10.895854 
14.5572996 -0.315500587 11.2675505 
4.01843452 0.147752866 -3.46423864 
21.4476509 0.0892378539 -2.55562425 
-1.34298265 -0.0501507781 -8.77359295 
-6.29445124 -0.363511235 12.0854225 
8.140378 0.554869056 8.97440434 
-20.2054882 0.464127958 -1.46482766 
9.3832283 -0.181674808 -15.358902 
0.249769062 -0.100151919 17.0599174 
-11.0497684 0.274909019 3.56366873 
-9.84489727 -0.56614536 -15.4306927 
-5.21436262 -0.0619936958 -8.64337444 
-14.7332745 0.1880887 -3.19611883 
-13.8066015 -0.13898018 -3.33997393 
-2.22447538 -0.191562265 6.77302742 
-12.5748682 0.229896054 -5.17498398 
-16.7360744 0.552847385 2.51981521 
-18.9287758 0.790279388 -1.19155276 
-24.824398 -0.435022444 7.78340435 
8.86769009 0.049886521 12.6684389 
-8.68171024 -0.250775903 -4.1686573 
22.7707672 -0.0459223613 -17.9710312 
11.8221302 -0.350188047 -5.00802517 
0.421389252 0.25568831 -9.52904415 
13.212925 -0.424214423 -4.08612919 
4.56731367 0.112382285 13.3439426 
15.1825819 -0.407899559 -10.1368732 
-7.00244951 -0.438729525 16.9850025 
-11.9489021 -0.1092664 -1.73013091 
15.9195147 -0.373304218 -12.0157194 
7.10149193 -0.00555764837 0.423319012 
-6.46346235 -0.704924583 -4.81018686 
-11.6855764 -0.663514614 -16.774498 
-9.97527981 0.0240417998 12.5457325 
5.14298296 0.351896495 11.0046701 
7.23755646 0.149688959 -4.1694479 
3.02583075 -0.108774573 -2.67056179 
-1.93918276 -0.241119802 4.80472517 
2.43355441 -0.0627368167 -3.18245935 
-15.1364574 0.121415943 -4.54594851 
20.3972549 -0.330975652 -18.293478 
-5.96591187 -0.627702713 -4.36888027 
5.8925457 0.246680871 5.42323923 
-16.2764206 0.30523172 6.15580463 
-2.92158937 0.180936769 -17.7824955 
13.1344767 -0.0927882195 -13.5717821 
17.6498108 0.196282223 -9.48247147 
7.38242102 0.325400651 -10.4133511 
-19.859911 0.0231937207 9.28975677 
-1.03773904 -0.185144395 3.51850724 
-22.6241627 -0.295512617 10.8611116 
9.90063286 -0.0434914045 0.957975984 
-15.4650145 0.250945896 16.308012 
-2.00245214 -0.100505136 7.88358784 
-17.4701347 -0.489890873 -11.3156319 
12.4643383 -0.5123294 -12.5043373 
-21.4874325 0.00190312555 21.2675476 
-20.283865 -0.0800045803 -7.36932278 
-9.64572525 -0.364331663 -9.51931381 
22.3518505 0.0742782727 -5.14412498 
-20.7823486 -0.0108235646 -4.2954073 
-19.1352367 0.302113414 3.06210136 
-9.95158863 -0.0473919436 6.45738316 
-23.0230255 0.45349744 -4.03354836 
-16.8488064 0.437773794 -0.385427326 
5.93892336 0.0852824226 -13.8081064 
-2.46982503 0.395820558 -13.5681562 
19.4905205 0.381063133 -10.7759619 
16.8415756 -0.0729850978 -9.43334866 
20.9539623 0.115641579 -16.0643539 
23.6882763 0.333139658 -15.0707674 
-2.17162776 -0.0357366428 11.1646233 
5.13459778 0.20718956 14.1212921 
9.45458698 -0.253203005 -12.7514601 
-6.60585213 -0.655744255 -5.3256712 
-5.45137978 -0.573544681 13.7955542 
17.9628925 0.037210539 -7.00598764 
0.0720372498 0.287320614 -15.8949757 
-0.97944051 -0.328899145 -5.04767132 
-9.19196701 0.327136874 19.5741291 
21.3785114 0.481563836 -8.54652691 
-4.35907221 0.0619773306 -9.80681896 
10.3747587 -0.0344644189 -1.88623524 
-3.11924863 -0.0956874713 11.3090239 
-22.2735004 -0.410072237 4.21515465 
14.214263 -0.512837768 -5.80447721 
-21.2665577 0.0228352919 -12.3794422 
9.46725273 0.392558455 9.52772903 
12.588275 -0.148884296 13.8226233 
-12.4508343 0.17271626 4.12182903 
2.27826405 -0.0272462387 -3.96969533 
-7.83018208 -0.402574331 -12.8466635 
-3.74617743 -0.151524439 1.6203047 
2.8577652 0.272479683 -9.81632519 
-6.65391111 -0.210245252 6.71259117 
-14.6130419 -0.500545144 -13.3940725 
20.7176437 -0.543639541 -22.7291203 
23.3728828 -0.213132977 10.5639687 
-21.804678 -0.406355232 11.2433624 
23.124115 0.602229476 -8.55636787 
16.8761749 0.0825729892 1.12993956 
4.86053276 -0.141404256 5.0260725 
11.6649418 -0.467592597 -13.3619289 
-10.3344765 0.0677066669 10.7087774 
18.8345833 0.282165647 -11.7332726 
1.54072332 0.0893966407 -15.4003019 
3.00216484 0.218870789 11.8048058 
-5.03010559 0.087682128 -11.175127 
-13.4576445 0.230106518 12.1210365 
-24.2099361 0.388012975 -5.39979792 
-11.9927282 0.227520689 -7.90051794 
-21.7366695 0.472994238 -15.8782816 
-23.7757282 -0.289768487 2.86881638 
-19.5070457 -0.336687863 15.0286407 
-8.45376492 -0.301012605 -8.37299728 
2.01280808 0.0197987799 11.345314 
-20.6836605 0.307392627 0.962801993 
12.2927485 0.125771895 -24.6696072 
-8.10824776 0.0507904142 -18.1805687 
14.1986122 -0.0409469306 -0.547337055 
-2.12585831 0.0891527683 -11.265605 
-23.8614635 -0.343205899 2.03420758 
2.37450957 -0.0295326617 -16.0159187 
3.44743776 -0.287165463 -0.284772247 
-12.8163786 0.129638761 -6.5352087 
20.5398273 -0.422735363 5.91061783 
7.62549639 0.436035752 -2.05137253 
-0.0208765268 0.21601285 13.1643486 
-1.76806784 0.00197399384 10.7858868 
-20.5686684 0.49291265 -1.19512498 
13.1514902 0.003094343 -15.1812496 
-16.1985645 -0.482089132 22.166008 
17.8776188 0.0874417946 6.94558048 
8.03575897 0.249964729 15.3751764 
-9.42346382 -0.415385216 -13.7186556 
-1.65202272 -0.0177569538 7.91512203 
21.6743851 -0.285290182 2.22066665 
0.526940763 -0.592869997 8.02995682 
-21.7551861 0.618363202 -16.7184238 
14.5338049 -0.488395721 -22.5026665 
3.16582632 -0.389529943 -0.744815052 
-11.300334 0.208910808 -6.35186243 
-10.1179399 0.04148091 -6.07687712 
19.2547588 0.338464469 -9.10744286 
-14.0672894 -0.133849651 2.5476048 
8.91953754 -0.235557944 -10.7836189 
4.64562178 0.187392592 10.8325186 
-17.4987526 -0.0630666539 -6.99396515 
10.3123541 -0.070020318 -18.8123112 
-0.24488534 -0.560750127 6.76771927 
-25.2213612 0.115461715 -8.82036209 
4.82811308 0.117951401 15.1303225 
-20.19277 0.157408059 -15.7621441 
4.81186008 0.049880866 5.8180151 
14.6833496 -0.245834947 -13.1326771 
-7.29257774 -0.398196578 13.865283 
22.4241333 0.405030787 -13.3537159 
17.548914 0.243798032 4.29454374 
-18.1576195 -0.275275886 -12.9992428 
-4.9015975 -0.559434593 -3.82068443 
11.4166803 -0.737073839 -6.67622614 
11.0173426 -0.211053342 2.91639566 
-5.13021946 -0.434723079 13.0421228 
2.11011195 0.093920663 -6.90432739 
24.2369862 0.479471087 -12.4005899 
5.54385853 0.432153165 -4.41892004 
11.9507456 -0.81697011 -10.3588238 
-17.2214909 0.708105862 1.70400405 
-17.8204937 0.486738622 -4.35062599 
23.9841805 -0.0944848731 -18.2543163 
-22.6234627 -0.352726102 6.29679537 
17.500351 0.0546041578 -10.3788853 
-6.10879278 -0.475688577 -7.1836791 
2.49923396 -0.24431318 0.269480348 
4.2369523 0.237659022 -5.06260109 
2.63541627 0.139329866 -6.04568481 
22.6519051 -0.435870171 4.53549957 
15.0719099 -0.452618062 -11.1659336 
5.66011953 0.39029479 -3.08545041 
23.9779472 0.0385677218 -3.45923448 
20.4939766 0.0353422984 -2.0692625 
8.93701267 -0.0576363355 -12.6364765 
-4.79894114 -0.505414307 -3.64098382 
-20.2496548 0.403541356 -1.94593275 
15.8061466 -0.0684885085 8.62476063 
21.3298092 0.528651237 -9.52557659 
10.8395548 -0.219599053 -15.0241928 
-3.50821924 -0.431139201 -6.51191807 
4.64450216 0.408007801 -6.52604914 
16.0442924 -0.161210716 -23.9650555 
12.9190836 0.256112695 7.34307098 
20.188797 0.243725106 -7.84681749 
-8.84281254 -0.204966664 -6.48967695 
-22.4122257 -0.288295537 2.69417 
-8.98278522 -0.311140567 -7.94834566 
10.4046183 -0.66175133 -8.21234226 
-10.322855 0.192489237 4.94363022 
-3.0253489 -0.279913694 -6.8821516 
-9.49350452 -0.251319587 6.57813692 
6.81676865 0.445836276 13.2543983 
11.2612314 -0.458058059 -14.0087557 
0.67470628 0.00051177782 -1.13273966 
-18.7031231 0.332837641 -4.05206251 
10.8985252 -0.17641817 -3.83787632 
13.9552774 -0.527749062 -10.4664345 
-3.67506361 -0.0642591715 10.6476812 
22.7354546 0.0916574821 -5.27770805 
19.7718983 0.410764962 15.4225063 
-22.6493301 -0.447441995 6.7795167 
21.5583401 -0.116829641 -0.824462295 
-18.3271713 -0.178542525 13.980854 
7.86992073 0.596647263 5.07663345 
15.7637262 0.166600719 3.71403885 
-16.8363228 0.561038435 0.40191564 
-17.2584705 -0.0828647614 11.9359674 
17.3808861 -0.128946573 -2.01345611 
11.2564907 -0.300011337 -2.72554731 
-3.82866144 -0.113720432 10.7190323 
-6.161448 -0.641964793 14.3096685 
-12.7622728 0.208769768 10.3454161 
7.27085543 0.270304322 -0.631814182 
12.7950964 -0.0305711068 20.3453827 
-18.0013657 -0.0751250461 22.6917114 
-16.7782822 -0.324824214 -12.3935051 
12.6898041 -0.213076398 14.8586321 
5.49685335 0.74694401 -8.1384697 
-9.94317245 0.276956052 -5.21746588 
11.6707811 -0.590158641 -12.2755289 
-13.7481623 0.28510496 17.960146 
21.756712 0.518426895 -8.05059719 
15.6513205 -0.597110391 -16.7180367 
-7.06603003 -0.577716172 -5.31362867 
8.1300354 0.336964667 -11.4932604 
-13.708147 0.395546257 8.47003555 
-20.3496513 0.212465763 -14.5327501 
-21.9362164 -0.434065491 14.8577204 
-6.37499762 -0.139844745 2.7442112 
5.2420783 0.428184003 9.10137177 
11.0283079 -0.00888389908 4.53201008 
19.240984 0.509530604 13.4043913 
15.062253 -0.153507948 -2.99285936 
9.40869999 -0.335543305 -8.19289303 
-8.93120098 -0.104958929 15.5585995 
22.2939568 0.577548862 -10.4478798 
-5.99393988 -0.473980457 12.6381578 
-15.2302084 -0.394448966 -12.9361305 
-7.49810982 -0.272503734 6.60447741 
16.7938766 0.0329405032 6.40692091 
-18.231842 0.255575538 5.15504789 
22.1352329 -0.0856132656 -2.79525757 
-0.198156029 0.303314269 -11.716526 
-23.3377399 -0.278549969 6.84715128 
-20.1302204 -0.0373023078 5.85045004 
-24.1531067 -0.20904839 2.93189192 
5.86703348 0.263042063 7.09356833 
19.5512409 0.260926664 10.5109882 
-1.46227229 0.283462256 -12.0053024 
22.8668041 -0.377155811 7.81924486 
-15.3179388 -0.607270598 23.1897392 
-1.75230932 -0.0621067882 7.91236544 
-7.41525269 -0.569557607 -3.71124339 
15.4200878 -0.345106959 -6.91474104 
-23.4576817 -0.102713913 0.0793092698 
7.85873556 -0.158128574 -22.3170662 
11.6385231 0.166107774 9.21546841 
12.9483767 -0.464622855 -3.73576951 
-3.50623846 -0.0543786772 7.28615379 
-18.9017868 0.241159931 7.93135548 
-0.453513503 0.0560302585 12.9793749 
7.33114338 -0.305349499 -23.6923256 
3.1712451 0.257704645 -6.86290789 
-7.30334425 -0.247895002 3.94231439 
5.93044806 0.137552559 -13.4503517 
-17.6735992 0.504123569 5.92084789 
22.3208694 0.30398196 17.591526 
-5.50107098 -0.4079898 10.6769857 
4.71138382 0.411174744 -6.13062811 
3.38512087 0.003999996 9.97229099 
-5.92976332 0.529660702 -23.8306694 
-16.4383736 0.379800379 -2.86783433 
-9.62810898 0.224078596 -5.59039307 
7.20910263 0.6156919 6.01772308 
-14.5559244 -0.0852793157 1.85939169 
-13.5081072 0.409851193 7.64020061 
-6.32457399 -0.15659301 3.9986546 
-14.9608622 0.180470437 -1.63984013 
1.21413898 0.226475954 -23.0627136 
-11.5857172 0.355057031 4.59088993 
19.6216602 0.589733243 12.2333374 
-3.50162888 -0.425577611 -4.20911026 
-8.4254818 0.122658551 18.9090767 
-21.5039482 -0.0625540763 -7.83242846 
21.4152012 0.582477152 -11.4479837 
-10.2185745 -0.535780787 -10.5261116 
-7.71560669 -0.524781764 -13.8712959 
-11.2792826 -0.0092265103 -2.90068913 
-10.5926847 -0.0012063547 -7.31602907 
23.3063564 0.371244699 16.4490833 
-23.8052311 0.314642131 -5.67854977 
-10.0627642 -0.0834838897 -6.50860119 
3.49881387 -0.156311169 4.14026833 
-13.8156729 0.0922753736 10.7147846 
14.0464725 -0.454411834 -19.7608299 
-3.68815899 0.165701255 -11.2296648 
14.511878 0.32068938 1.58021593 
20.769783 -0.131155327 3.02046299 
9.14067078 -0.105355002 -13.1092615 
22.3803539 0.0100494679 -15.7591314 
-12.9740372 -0.178966016 -10.4344177 
18.8454704 0.0970398411 -3.44757318 
-10.6827431 0.324506253 4.48864222 
-14.396843 -0.518004358 21.7058353 
24.300539 -0.0912408009 -0.721703529 
10.821991 -0.17228584 1.83782792 
17.4619923 0.28346175 3.65113759 
0.53721416 -0.00760628609 16.9209023 
19.3574524 0.177616373 3.06332183 
22.6748352 0.162355572 -5.70277023 
-7.72606707 -0.256723285 -12.1684961 
2.53700829 -0.120947987 -3.07626247 
1.38773966 -0.594161034 8.27720737 
-7.46471357 -0.465591758 -0.384746194 
14.942359 -0.144865349 -3.5509572 
-0.437782019 0.0908892378 -0.424963057 
5.93769312 0.439817607 18.9464417 
-14.5933933 -0.366003633 19.9948349 
18.8829346 -0.000174115412 5.51264477 
15.9939222 -0.132971197 -7.38261318 
-6.90065336 -0.0876588821 5.28115797 
-16.9785519 -0.128944844 -17.004961 
5.83722019 0.371006042 -3.31487799 
-11.2891998 -0.188083008 -1.77192652 
-19.5912628 0.0501252972 -10.6492023 
8.44678116 0.361180604 -1.58027375 
9.64563465 -0.481230259 -11.0470057 
12.5849476 0.22554794 7.63935328 
-14.4945068 0.0209320523 -7.94107676 
-19.4890175 0.0004578433 -13.4272499 
-6.31145811 -0.496687025 -7.79840803 
10.1201544 -0.492197633 -7.68057251 
18.3051949 0.315785915 -9.50170326 
10.1151876 -0.147008523 2.22547626 
-22.6757774 -0.33955726 11.5559359 
21.6988087 0.637045801 -9.87386608 
-9.18114281 -0.189985052 8.18506241 
-19.0909939 -0.15083988 18.6342049 
-1.3935051 -0.302050412 -5.37830353 
6.00029039 0.327009052 -2.57928109 
19.7461529 0.114861175 -0.564911067 
5.0163331 0.297542274 8.00389862 
-17.2044296 0.659927487 2.26124001 
-18.6270542 -0.0964713544 -6.9032011 
15.4167995 -0.399816602 -11.7226419 
21.8804035 -0.253738552 0.504949749 
-17.7652721 0.6129933 -3.78190994 
-2.63730502 -0.457534611 -8.60023308 
4.49792957 -0.137470469 -19.1882324 
3.18836379 0.0404445305 17.2681084 
11.7868242 0.0539644472 -18.8797245 
18.310318 0.0738157928 -3.6880548 
1.57810426 -0.00832169224 2.49232721 
-9.02105808 -0.111368515 4.14926243 
1.78895009 -0.200450644 -2.21962023 
-7.99422169 -0.413999796 -13.3045321 
20.3433838 0.571281135 13.624464 
14.4160938 -0.458140343 -11.3167295 
-2.56963658 -0.291853994 -7.36441898 
9.40788555 0.154553011 0.767066181 
6.67640543 0.274782926 -2.098701 
-0.695786178 0.115782298 0.900481761 
11.7916679 -0.0764360428 1.34417403 
0.829345167 -0.287791669 4.45470285 
-12.6642656 -0.696870744 -18.0962601 
-20.2001266 -0.3139247 13.5926418 
15.5356245 0.198039114 19.825016 
-6.81964731 -0.470650554 16.0248203 
20.9168663 -0.400340229 5.3486495 
-0.728171289 -0.452453285 5.71730709 
-3.72131968 0.00752539095 9.64324665 
-20.0327625 0.221229017 2.49832463 
-8.14358711 -0.0339101404 20.1369667 
-12.2936974 0.115372561 9.79412079 
4.80623627 0.228477418 10.8384085 
17.0053825 -0.240829095 -5.24094868 
18.5391674 -0.265980452 17.19631 
10.866662 -0.262300611 2.39615822 
17.1058826 0.0493992269 -9.26950455 
1.6422869 -0.165706694 0.554842532 
-21.3976135 0.437345922 -1.70783329 
18.2765999 0.0133539876 -4.6886301 
-14.5577784 0.334028959 8.03241539 
-3.46038222 0.340774149 -19.784483 
14.0711575 -0.562712729 -11.3143215 
-19.5129185 -0.0305825938 9.6474514 
1.61887765 0.337379515 15.4093771 
-13.7966194 0.239847124 11.9609928 
-21.6364002 -0.266551763 13.346488 
-11.2435646 0.28106451 9.03282738 
-18.3547115 0.359360665 3.23661876 
0.664669037 -0.0917701498 -4.37720251 
16.4319916 0.24149479 1.39517212 
4.86072683 0.377621859 -4.6105504 
-14.581337 -0.199328363 0.937485099 
11.3535624 -0.790903389 -10.9395962 
15.6897659 -0.380318612 -11.7553148 
-14.3641558 0.19424136 11.2535915 
3.17339373 0.211223051 13.4984722 
10.5596409 -0.56561327 -12.7820349 
9.54609394 -0.468137115 -11.9253101 
20.6820335 0.0319269076 -1.20222676 
11.5421553 -0.463305205 -5.36607361 
10.3810301 -0.791921437 -10.3779898 
-5.00348186 -0.268384278 -7.00310802 
13.2831602 -0.107928708 12.6422014 
-7.26804399 -0.381474108 -1.04192567 
9.85713959 0.370366454 6.11057949 
17.535038 0.146655977 8.86938286 
-5.00149202 0.0563181564 -9.25842857 
-6.4163003 -0.163173169 3.31171846 
17.1052971 0.197741389 2.52821922 
-1.85146272 0.308856368 -19.4718781 
24.2697334 0.0735693872 -3.86845517 
-23.4041424 -0.180145234 18.3629704 
6.44575262 0.370844275 -6.99918938 
4.70632553 0.187223434 16.7976799 
8.06142616 0.314727247 -11.6992607 
16.5572147 0.231638163 3.6181469 
4.61749268 -0.120711334 0.0523300767 
-2.0446105 -0.214091912 -6.9080987 
11.3445349 0.0426274687 4.68494797 
-15.1648073 0.203344211 6.6559062 
18.8662014 -0.0378720053 -2.48530078 
-10.5165501 0.307760268 -5.41082907 
14.8671274 0.350656599 2.3527329 
-4.06769514 -0.429788232 -4.50580931 
2.34645128 0.422872812 -12.3293018 
23.1816998 -0.472304165 -22.9827156 
-3.1287334 -0.0531831868 7.19586897 
19.778532 -0.226964906 -17.0415974 
7.46768236 0.632796705 7.68398666 
6.06783867 0.198055595 -1.23155785 
-20.1568146 -0.0905255899 -7.48431301 
10.4918127 0.274442881 6.36849833 
0.981731296 -0.262812823 4.86746311 
0.287175059 -0.397031426 4.757689 
-21.2734413 0.327866137 -2.71856689 
-15.91399 0.30878973 7.42577791 
-14.9411316 -0.77534765 -16.4226055 
7.91954851 0.408300191 -2.5842123 
17.538805 -0.162356749 -2.6734283 
-15.6549902 0.209338546 9.40101624 
20.9098244 0.589885712 -11.0637474 
-15.8585663 0.388598889 12.9305582 
-18.5485916 -0.226738513 -11.0767469 
18.0412197 -0.138904631 0.125498712 
-8.25858974 -0.454225004 -5.38828373 
14.4424524 -0.292248219 13.0668087 
17.0111008 -0.586150467 -17.2417507 
6.22586536 0.46920988 12.8133936 
21.3253479 0.444390327 -7.6361599 
-19.2646294 -0.0699356347 -9.85833549 
25.1178703 0.0719551966 -4.04066086 
11.7411079 0.148598567 6.52110958 
23.4983826 0.382529229 -7.410182 
-9.66510582 -0.255163521 1.14132297 
8.76258755 0.0392848253 13.0228214 
3.12471342 -0.287804008 -16.8791676 
-4.56967211 -0.309987158 12.0141611 
13.8693991 -0.139385104 11.7436447 
0.157569274 -0.132535189 -4.63259602 
-21.8114014 -0.463604391 7.5623517 
-20.9636192 0.457848638 -1.99211895 
-11.066637 0.0994939208 8.4640007 
7.21049976 0.23768045 14.2989397 
12.6490927 -0.0261274055 1.2562958 
-21.4946022 0.252820015 0.816697001 
13.3176126 -0.274487287 -1.87464833 
-1.50767457 -0.180264249 1.02858138 
-16.5974636 0.152569667 8.20785999 
-18.8896408 0.198886231 4.09548855 
-2.49810672 -0.104676351 7.39914227 
22.6301498 0.564145029 -9.13001442 
5.45106649 0.332375765 -12.7628984 
-13.0798044 -0.0776442513 0.0243678391 
13.4388342 0.0851732939 1.24813819 
8.6534729 -0.0120341964 -21.0439873 
6.45151281 0.616098344 -9.72692585 
-22.9884853 -0.337277204 17.9158497 
9.20512676 -0.184176475 -14.7919502 
3.67409611 0.0386362262 -2.88680601 
4.07166433 0.247910306 21.0221348 
11.0001621 0.311795086 8.19146633 
10.4489975 -0.107297644 3.83631134 
-2.40474153 -0.199958503 2.53069377 
-20.7859306 -0.00984048005 -9.77990532 
13.309535 -0.269730002 -1.42827475 
-2.11512542 0.361199886 -12.6726656 
-23.6844063 -0.0241258927 -7.81342554 
23.7687569 0.278363794 -9.8608799 
12.769907 0.173638672 3.49868846 
-14.8861828 0.36291784 7.85037231 
-10.2650776 -0.145048425 -8.05299568 
-5.47427893 -0.336940616 4.92286539 
3.38326621 -0.106239527 1.48203337 
-10.4191685 -0.60209626 -15.4000025 
5.0468998 0.384019315 -5.82429409 
17.7584686 0.0830736756 5.46768618 
24.4824448 0.224576458 -11.0544138 
-23.2411747 -0.255776882 5.84090233 
-22.9776802 -0.428902239 7.38685322 
21.4502773 0.362747878 -6.5864315 
13.2406597 -0.121555403 -0.696943641 
-11.3358116 0.0227942038 2.15928435 
-22.3612652 0.347495288 -3.64109278 
-9.97491455 0.241258502 -5.50828362 
17.698679 0.321042329 -8.52536964 
0.940303266 -0.522059321 6.68912792 
1.63184178 0.0587700643 17.4468594 
6.29487467 0.390797406 -4.02355003 
19.9149685 0.0341732129 8.44920921 
21.5618382 0.082234703 -1.78300512 
-12.0364161 0.275085211 4.96145868 
10.5264645 -0.207360357 14.7311001 
-0.637027979 -0.164859697 -3.21727347 
-22.7329197 -0.450714886 8.15849972 
-21.9665356 -0.0778407976 -11.2511597 
-15.2594748 -0.731944919 -17.0828876 
-9.86887074 0.452289641 18.0282478 
5.21453047 0.282066762 -3.33580732 
24.5184937 -0.474231899 8.59277916 
24.2066383 -0.214408159 13.3718834 
-4.04294968 0.131595373 -10.9594221 
17.7776489 -0.18168208 0.484747469 
5.81964111 0.292807698 16.1195812 
-11.6014662 0.105258957 -5.26101732 
-18.193512 -0.0636314973 10.9364567 
7.82243586 0.348464131 -2.89720702 
-21.8971577 -0.295125812 4.13424635 
-8.07021141 -0.374241501 6.0114398 
-6.64221334 -0.312615216 0.802833319 
18.8346958 -0.130532205 -15.8380585 
-6.28499031 -0.641026139 14.4998236 
-4.19874811 -0.121960387 10.5252094 
16.2837067 -0.196775958 -10.3556662 
0.697635412 0.0865255594 1.91121328 
-11.3018208 -0.115643695 -9.42938519 
7.39043379 0.62744683 8.34628391 
20.3806973 0.0461609401 -1.43593764 
24.4886322 -0.166214824 0.194852352 
23.4648838 -0.0172902178 -2.91228676 
-7.08062935 -0.610550284 -3.65799022 
3.85359931 0.0491342805 -3.86347294 
-9.19729614 -0.158917099 -3.71843863 
-12.6769762 -0.0362611786 1.57430935 
-1.86331046 -0.156331882 0.711914599 
17.1525059 0.183739454 4.68337202 
-10.7232466 0.23962754 4.22902918 
11.4919519 -0.223188266 -4.62041616 
-9.98294067 -0.137212321 -2.48356509 
-10.8444757 0.101379082 -2.77896476 
-2.55858898 -0.279230982 0.0928012133 
-3.37278271 -0.455730408 19.396389 
-16.9354572 -0.288211435 -13.0648842 
13.6912336 -0.500843048 -5.49086142 
11.3571253 -0.2030911 -3.47431946 
21.3667221 -0.304165244 2.97330022 
-10.0948858 -0.51412189 -11.0837488 
-0.299243569 -0.0912569091 2.4352026 
16.8603497 0.175216034 1.57780647 
10.0320826 0.0953978673 17.5884933 
-12.58531 0.390167117 18.7465801 
19.3064423 0.623789608 13.8374853 
-22.3387318 -0.334487915 5.47115707 
3.69523787 0.135931179 -5.07197857 
25.0510597 -0.45865342 7.7248764 
21.6330261 -0.295879722 7.04477119 
-22.7858067 0.218027651 22.2961826 
22.2824383 -0.00622385228 -4.44639206 
-17.6148548 0.475324929 6.12976217 
8.98017788 0.289849877 -2.15151048 
8.11000538 0.292003274 -11.8022242 
20.5841446 0.17849429 1.55308044 
-5.11696386 0.529930472 -16.1152382 
-4.10818195 -0.0339014158 7.62931585 
-22.4670506 -0.0616573244 0.628760636 
-2.36580396 -0.288658708 0.44435969 
-16.5809021 0.137583137 10.8471613 
-21.5167694 -0.66721487 15.9506025 
-8.935709 -0.141485751 4.30264711 
5.30757809 -0.140905246 3.50820017 
-21.9949551 -0.332366973 9.62333775 
-4.23456192 -0.0475778766 7.33943224 
9.866292 -0.128492981 -4.37731934 
20.818346 0.307035297 -6.62417984 
20.8022308 0.0903036594 1.60108316 
-22.6687489 -0.119682759 0.907747984 
16.7042007 -0.252237648 22.7714424 
-14.5619164 -0.191486195 1.30338621 
5.48669672 -0.173732698 3.22165537 
-7.40506935 -0.466007262 9.66036224 
7.76910782 0.0542401187 1.76729906 
-15.6275463 0.31490621 12.115324 
15.2521467 -0.534439862 -20.3815556 
2.30743909 0.19261983 -7.09089899 
-24.0888596 0.355823636 -5.49323797 
-7.28140163 -0.594835997 11.6249323 
-21.8473663 -0.171642646 2.04674745 
-4.20650959 -0.00829181634 7.02845001 
-6.90743971 -0.648694396 -4.99271488 
15.9243317 -0.0215693805 -0.168541357 
-1.59554994 -0.288613528 7.00114727 
5.95618105 0.250232846 16.1565647 
8.38028049 0.263821185 3.81499147 
5.98206091 -0.0632075369 -17.2351494 
-7.77843094 -0.270315915 3.87569594 
-19.4700298 0.644641519 1.25926423 
-16.1455536 0.39329955 -3.16499639 
24.0614033 -0.421507388 2.08538151 
-22.3111439 0.48175016 -17.4619026 
-14.4952278 -0.0061537521 -1.90456474 
16.2915573 0.0894402862 10.1800604 
-6.67732763 -0.308169484 7.47926283 
-24.470541 0.254805654 -13.0018883 
19.1946316 -0.0432142206 -3.28341961 
-17.6055088 -0.200536847 -13.1985826 
16.7898064 0.140522137 1.24767756 
-9.11610222 -0.214542836 4.73289251 
-10.3752747 0.136885032 4.39766407 
13.8097925 0.0968509614 0.424171507 
21.2914963 -0.288542837 -18.6928253 
24.7847233 0.0982364938 -18.1603069 
20.647295 0.0100013185 -3.82693911 
7.75088596 0.284744173 -3.1900773 
22.5273457 0.521881342 -7.81154108 
10.4313879 -0.573843777 -7.45149851 
-21.7103462 -0.165456221 -9.47502422 
-4.45839643 0.624530494 -18.9238873 
21.9592171 0.375199199 -14.1343126 
-2.16594291 0.451581687 -20.7699299 
-2.44444132 -0.361982584 -5.81454992 
5.11230373 0.326032311 11.2516222 
12.149621 0.119062454 6.43898153 
-21.8588047 -0.413863003 10.4567413 
0.119207516 -0.176335096 -3.98721385 
-8.45708561 -0.25832805 7.72434378 
23.9233208 0.277237713 -6.18464851 
-10.0816851 -0.269958764 -8.690588 
15.0139818 -0.186033547 -4.47817564 
-0.685507178 -0.378364921 7.33116245 
24.2172146 0.488094002 -12.1030645 
-22.7269306 0.124121197 -2.28324413 
17.9094467 0.0609098859 6.60984612 
-21.6422462 0.361033201 -2.48000765 
-13.140625 0.143488809 4.32980537 
6.09063196 0.391020626 -5.11908674 
14.7729511 -0.662154555 -7.48570967 
-3.28745055 0.150986761 9.36244392 
5.69962406 0.667838871 -7.2614603 
-3.38926744 -0.243282974 3.99059129 
21.0713425 0.127952099 -3.66480589 
-14.7516079 0.088214606 -7.46899366 
-14.5616026 0.109612957 -3.75010681 
2.4421587 -0.381122917 7.89639282 
-18.4877434 0.847455621 -1.00522625 
9.83307838 -0.0292315427 3.01598954 
19.3832073 -0.0191651732 -3.96204567 
-13.3523312 -0.0784350559 0.715304613 
-7.15637112 -0.394058853 -13.0623865 
9.27587986 -0.168857053 -5.84317255 
5.47793722 0.339197308 18.9207706 
10.5150652 -0.00188922975 18.5480556 
22.1650314 0.647861958 -8.93395901 
22.4491272 0.316435516 16.4774837 
-0.691045165 0.122972704 -8.96682167 
-18.9981899 0.256094486 23.4856262 
-7.20109415 -0.14813225 5.31175613 
12.8647423 -0.131150916 -13.3174238 
11.8408499 -0.335043401 -4.70869541 
-13.309104 0.365333319 12.5488691 
3.90424848 0.228541449 22.0635223 
1.12558568 0.0633371174 19.2801285 
8.01057339 0.24018614 -4.37099218 
-13.4738731 -0.13528049 0.286080152 
-2.51276088 -0.188628107 2.07334542 
-0.485141426 -0.226143271 -3.86079097 
15.5740004 -0.596930146 -16.8827267 
-8.95823669 -0.299711794 2.12542176 
13.6511221 -0.252542287 -2.3839035 
23.9870281 0.599395096 -12.1440859 
-9.38791943 -0.206425563 4.66555262 
-16.9294491 -0.23335056 16.1797867 
20.3862305 0.241044164 -7.82001305 
23.8435154 0.362399042 -8.14380741 
14.3495607 -0.13092719 -17.0463848 
14.0884476 0.48584044 4.44693995 
5.05502844 0.158245504 12.3165035 
-24.4232349 0.270177573 -4.51335526 
-20.8074207 -0.0435921401 19.4569817 
-13.6062927 0.0751823261 10.4046125 
-3.38701081 -0.299436778 3.65224242 
17.7418556 -0.10271953 12.374774 
-25.0576229 0.0850166008 -9.28946972 
13.3094778 -0.139004067 -12.8177509 
15.4463644 -0.44713366 -16.4163647 
-6.70333576 -0.147167563 -9.93186474 
-22.2404327 0.150871858 -12.5243816 
4.66109753 0.210946009 10.6293621 
-11.7572994 0.187226579 12.9995623 
22.2601414 -0.315891892 5.91684008 
16.6875038 -0.0342288017 -2.50812078 
2.71293116 0.30652979 -7.84618807 
-5.33109474 -0.0130229238 -12.5448647 
-10.193037 -0.320959419 0.0826444328 
7.90202951 0.47331363 4.31834364 
2.79591227 -0.109331042 3.1990068 
22.4193897 0.188407972 -6.05067015 
14.9642458 -0.149612769 -1.88524759 
-20.2946835 0.0634715185 7.79104424 
20.1944618 0.0775122643 -0.0183792841 
-19.9105644 -0.0279161818 -7.85093355 
-9.67243862 -0.279732406 0.32040143 
-8.58410072 0.194154695 -22.8273735 
0.680398524 -0.343245655 4.82574797 
-1.52302647 -0.208395034 13.0086489 
-16.0727768 0.243992761 4.27485704 
-11.6991606 0.0800989568 -5.0229702 
-11.254693 -0.0107996101 -22.5513344 
-19.9983025 0.269435853 -3.38053083 
17.9239521 -0.112243302 -0.828814507 
-7.14212036 -0.386682212 -13.8543224 
16.2151165 -0.101647727 -7.72724724 
5.2858839 -0.218520328 1.53557694 
-15.3925667 0.263753146 16.1595688 
-15.7638922 0.229259402 0.251923621 
21.9797783 -0.18818596 8.17252636 
7.63791227 0.407050252 -1.72333348 
5.83464956 0.621404707 -7.1515398 
4.82889366 0.060344018 -1.55391717 
14.7312441 -0.290690243 -4.26730824 
-21.1712666 -0.0546197444 -10.6086626 
-11.3099289 -0.199226081 0.864512503 
-3.15014839 -0.419898301 -4.99859524 
13.6222973 -0.13854754 15.2728634 
11.3322496 -0.158296749 2.81633234 
17.9174023 0.272280991 -8.77390957 
-19.7025585 0.232987106 -3.78614998 
-21.8157959 -0.459661454 8.3707056 
-2.15281487 -0.159972757 12.6793051 
-13.8441076 -0.239197806 -0.519135594 
-22.553854 -0.304570854 12.734621 
15.4607649 -0.046891734 -5.87078047 
-21.8623066 -0.265180826 12.2270565 
21.8665218 0.686665952 -10.253933 
19.0521374 0.30168131 -9.79176617 
-3.48295712 -0.290295124 -0.908846855 
-4.45442867 -0.498423338 -4.08666468 
15.5279264 -0.412179083 -12.328125 
-14.8858767 0.213159174 -2.30776596 
1.13590908 0.171847358 13.9050179 
7.2144208 0.255684137 18.0836792 
-12.8229456 0.462426811 14.8820848 
18.0173931 -0.0449157432 12.4637365 
2.53499579 -0.131238282 1.61055732 
-13.879755 -0.00143312139 -5.2457118 
-1.7028265 -0.229840964 -7.87353802 
-18.2408981 0.346888304 6.91568899 
16.4141731 -0.646636188 -16.5771084 
17.4853706 0.037457075 2.22815251 
-18.1725998 0.389768928 6.49033689 
-21.6342621 -0.270965159 11.7145224 
4.43229294 0.4920201 -11.0395594 
19.8941193 0.27362588 2.45673394 
4.74669456 0.229475483 11.3724966 
-10.608799 -0.501861811 -16.4452496 
-6.65538597 -0.498817712 8.62852383 
-23.9090614 -0.46280095 7.93314028 
17.1734333 0.200983405 5.26490307 
-19.3694458 0.696381927 0.716013491 
20.1656437 0.209015101 -6.98435307 
-17.468771 0.414271981 -4.4009285 
-20.9970036 -0.540065646 14.6300964 
-13.9297476 -1.05511308 -17.0743484 
-4.77471113 -0.378013432 -1.56868148 
-21.4349403 -0.2635355 6.84020901 
-16.655386 0.390651107 -3.24672699 
-11.0496969 -0.462859035 -10.4907227 
-8.13533688 -0.265153259 -3.04427981 
2.22602844 0.244600162 13.22262 
14.9246197 -0.253760755 -13.9745007 
3.01963902 0.138615966 -13.1128721 
-10.7304325 -0.273683757 -0.0210891664 
19.9402122 0.369057059 -10.2195778 
12.6180849 -0.215390667 17.3069782 
5.7916193 -0.0760054737 -17.3077602 
-3.09926486 -0.203046292 12.3201256 
8.46165657 0.0785422027 -5.311656 
20.3557549 0.177106306 -15.1851406 
-4.35599804 0.00684022158 23.0845089 
9.77655983 0.0334096216 0.647509038 
-23.4791298 0.162542164 -2.53416204 
-18.5403824 0.00135999708 -6.04209089 
-24.7545547 0.344283074 -5.37645102 
7.10383511 0.0722004175 -18.2161846 
-11.3334932 -0.190652743 1.03144085 
5.56268311 0.22226496 24.7841702 
18.3010654 -0.0584920086 -2.49377799 
7.36849499 0.604655564 6.09498358 
-20.6386623 0.481709331 -1.01825809 
14.8124981 -0.434524775 -6.67849159 
19.8556004 0.442649961 -11.9021568 
21.93643 0.0572690815 18.2125053 
1.93535984 -0.116935134 2.5336256 
9.69821548 0.0194838122 0.950007856 
7.46417904 0.55613029 5.1143322 
1.19550705 -0.0386284217 -2.34208226 
17.008419 -0.318894386 -11.5859184 
-16.3033581 0.338094622 -1.22677422 
-19.9749813 -0.349020511 12.6155872 
-0.436715037 0.377268732 -16.2527428 
11.1851816 -0.225561768 -1.75534558 
-10.7593479 0.111784689 3.54338622 
-1.98439062 -0.189563692 0.550327718 
-9.19251537 -0.268147618 8.85010719 
2.87096572 -0.203656629 -17.3636723 
-18.2383823 0.0764043704 -15.8758526 
-9.07071686 0.135966644 16.7019844 
20.8599644 -0.505329072 -23.6813812 
11.171813 -0.766393065 -8.90603352 
-8.42583942 -0.0720787048 16.60112 
-3.38953853 -0.138526008 11.2405825 
-4.18160248 -0.254595339 4.71854258 
-14.6912737 -0.444999784 23.4484081 
-7.5986166 -0.101244621 -11.3091021 
4.07989168 -0.228216529 -15.7496634 
15.7064743 -0.295434892 -10.7299299 
8.06434536 0.246118456 -6.34420872 
8.41109753 0.0807602927 -6.14730072 
-8.64440918 -0.15963836 15.4375858 
14.5668154 -0.203313619 15.6645432 
13.81602 -0.327014595 10.3136034 
-17.765583 0.404067606 -4.63943672 
-22.1398354 -0.305711776 9.59814453 
3.6147542 0.196772143 -12.2783251 
22.2923565 -0.327315807 5.53279066 
19.2161598 0.210494295 -13.3957882 
-13.2958517 -0.0195933878 2.84314704 
13.4291868 -0.246781915 -1.23495758 
23.4307575 0.491726607 -8.18438816 
-18.4087944 0.363137126 6.41574287 
-9.53850937 -0.221986458 2.51212883 
17.7298012 -0.13892518 -1.72839451 
14.8368683 0.316192329 6.21419477 
7.92346668 0.437983871 -1.468503 
-9.77472973 0.0117737185 -4.23962116 
-19.6607227 0.137974203 3.1833303 
7.63333607 0.381443113 3.91119003 
-3.47707558 -0.334993839 -8.63212872 
-19.0744228 -0.0711295232 -8.08688736 
-23.0208988 0.35580495 -4.90064812 
-9.73063087 -0.0698280782 5.24113894 
18.4318485 -0.0982407406 0.350203276 
17.3530884 0.259474754 4.62442398 
24.8214455 0.0488121659 -3.99654198 
23.9941845 0.121653177 -5.2243309 
23.2390785 -0.198346943 10.6701212 
-2.36216521 0.112804323 -11.5482492 
-23.4282265 0.0883165374 19.5527763 
-6.76161146 -0.0900470987 4.82436466 
7.28160238 0.380220175 -7.34370422 
4.65864086 0.266394258 -4.17378139 
-21.6917648 -0.150498644 -9.30766392 
15.3356972 -0.128334492 -5.46572638 
-12.4242783 -0.016423028 -1.27815652 
3.93212128 0.0270752162 9.58787155 
-2.05121231 -0.331336081 -4.60611153 
-1.69832397 -0.134487703 2.40788984 
6.3407259 0.0472131968 -15.558403 
14.3519135 -0.503416836 -10.7050714 
-13.7209492 0.229583859 12.6760569 
-3.53385568 -0.128293708 1.41346669 
7.77686691 0.591866076 5.13882732 
-15.3766003 0.0862512514 17.1738243 
17.0179253 0.0133792982 8.7731266 
8.74213123 -0.0244845487 -12.9576998 
0.950327694 0.0953755528 16.1955433 
18.8614006 0.514852166 14.4328089 
8.58792973 0.191358104 -4.15837049 
14.6050758 0.3385337 2.46258116 
17.1824627 0.192189589 4.83542252 
2.82912397 -0.185471341 0.936528862 
-4.90833473 -0.201760873 3.0560174 
1.40915191 -0.0351671278 -3.21995282 
-1.59914851 0.443410456 -12.8106308 
-22.0159588 -0.403835297 6.71840191 
-10.6494179 -0.158230469 0.855490267 
7.17045259 -0.0644107908 1.45728219 
5.05915546 -0.236187965 2.90466094 
13.7129641 -0.186861336 13.1649075 
-19.6024189 0.0795558095 -15.2402811 
2.82218885 -0.0512561873 -15.0970354 
14.3019772 0.285172313 6.41199112 
23.7492619 -0.123914652 -2.10176063 
6.24831343 0.444366634 -6.81561184 
4.0329237 -0.0738293901 7.99354887 
-2.06885552 -0.361272871 -3.46780205 
-18.907711 -0.105393879 -6.46708059 
-4.77259636 -0.226001292 2.62398243 
-2.74427795 -0.338662446 16.7591496 
-10.1226234 -0.371546417 -9.53610706 
-17.3512192 0.416716725 6.16375351 
13.4355478 -0.193554923 -19.7510681 
15.3012848 -0.165142104 -6.13956547 
11.5587473 0.104831979 -24.4634361 
21.4171047 0.617916584 -11.1770353 
24.7094574 0.377667785 -13.4362879 
9.59610271 0.543846965 6.6150589 
2.22022033 0.21825175 13.5428543 
7.36728859 0.557333946 9.51715755 
5.2644062 0.234138668 -3.06185961 
17.5509892 -0.158562854 0.508111119 
10.3433323 0.0332517102 16.9800129 
-11.3441019 -0.197099924 0.438836247 
-12.6817598 0.0625542104 2.97603607 
18.9352074 0.233437508 11.1755323 
2.17685533 0.0596637875 -5.05010557 
4.49858809 0.37071988 -5.94893265 
24.9923229 -0.0419852026 -2.63168097 
-21.440403 0.691894352 -21.7400837 
13.7005911 -0.345516503 -3.04578662 
-15.7500954 0.159569502 -5.12010574 
-11.6975489 0.131587341 2.68612766 
15.0714102 -0.48370257 -21.4541893 
-6.48836803 -0.582922041 -2.62802601 
