ply
format ascii 1.0
comment created by gply, a Houdini tool.
comment converted from .[b]geo
comment for more information about Houdini, try:
comment www.sidefx.com
element vertex 1270
property float x
property float y
property float z
element face 0
property list uchar int vertex_indices
end_header
-17.7865715 -0.153725967 -4.40324354 
11.4429865 0.0523230396 5.31819725 
22.5076466 -0.280620068 -5.5336175 
-1.9521116 0.0200974178 4.95405483 
-3.16852164 0.504118979 14.1208258 
8.00399113 -0.411311418 8.5141983 
-20.7599392 0.548501968 4.50103188 
17.0896225 0.156859487 -2.80371189 
3.05547023 -0.0211607944 -2.03663206 
-8.56400394 -0.264380991 2.03576756 
-22.2521267 0.415191859 0.195367977 
-17.4945717 -0.492535561 -2.32746196 
21.9610233 -0.458828539 13.553195 
10.3593187 0.0444924235 -5.50499153 
-18.309269 -0.0433245115 -2.91637468 
-5.09008312 0.360633582 12.7716255 
24.1515942 0.552579343 7.25752401 
-15.2116766 0.600308478 -11.4782372 
-15.2829676 0.493716896 -17.461792 
-1.61766183 -0.555994332 -18.5310497 
6.28495455 -0.601902306 -7.19930696 
-18.5549355 -0.0473499745 -1.34499753 
-8.30862427 -0.223210782 -6.36471415 
-14.8891983 -0.422830254 3.06249547 
18.9855843 0.0452840999 -1.49277341 
11.7719107 0.211978167 -6.72944117 
-2.70817208 -0.135569021 6.76266956 
12.8075991 -0.0612261854 15.3735352 
13.0186272 0.24742502 2.81049275 
10.8912916 -0.23240599 8.29679966 
2.46353722 0.283403397 24.3184528 
1.13125205 0.163625136 -0.635434985 
12.074728 0.0394480228 9.74293709 
18.0486965 -0.0879001915 -6.71485376 
2.15197873 0.127284527 -18.8157806 
-1.31906605 0.276451945 14.9102459 
-21.7996483 -0.424650967 -15.6011162 
-18.5311184 0.373019606 -7.72287846 
10.9309778 0.175241753 5.05919695 
-2.53261542 0.0437552817 3.75889349 
-23.7789173 0.450408727 -1.778898 
14.3648853 0.153160423 -13.5119944 
18.1341 -0.0159132835 -10.1297541 
-15.6206884 0.428703636 22.2072773 
12.3191662 0.336780787 2.99915028 
22.5871964 0.0236249715 -4.46146822 
-3.24700165 0.0698983595 -0.408030808 
-9.09811687 -0.251042336 0.299067885 
-21.5925312 -0.107632346 -12.2946205 
14.9137592 0.0999839306 -1.31502485 
-7.40781879 -0.191393167 4.7686615 
19.3251171 -0.57597965 14.6328011 
-23.4486446 0.488273412 0.178807929 
-23.6069469 0.707296193 2.8726697 
-3.0474956 -0.160468474 -8.08652973 
-2.37685323 -0.119708084 8.48246098 
-5.25072193 0.165161699 -7.19536829 
-19.3174934 0.566282094 13.1292686 
-21.9914303 0.588245451 3.72301936 
6.32949781 0.459499538 24.1128445 
-23.3637333 0.915471792 9.50359917 
12.744257 0.776150823 -7.4065094 
-11.2048397 -0.595972896 16.0723209 
24.432621 0.242403373 -19.3408203 
12.9677925 0.395441473 1.91844201 
-15.8544149 0.0124283601 11.3715353 
-14.527483 -0.0623580627 15.681531 
19.9320183 -0.340324163 -21.4411793 
-0.687293589 0.0209919829 6.47319889 
-18.9066219 0.186531723 5.8712225 
-24.5405312 0.0635382533 24.1395531 
-10.6663809 -0.560095608 12.9466076 
-12.7110434 0.172521368 23.4773235 
23.5913849 -0.368608296 -15.639492 
-9.84550571 0.305465847 -17.4514427 
-19.7331524 0.402851552 5.77469015 
16.7620831 0.294216573 -5.85001516 
17.6567039 -0.209329605 17.6000652 
-1.03981304 0.177289739 12.2931213 
-15.7519131 0.0986126587 -7.68576097 
-5.78886318 0.0509304665 -6.19349861 
10.5768518 0.341732442 -11.955842 
-1.81856513 -0.00806413684 3.91786623 
-0.0986084938 -0.0507941917 -1.15456808 
-22.3629475 -0.156092837 -16.8176022 
13.1217098 -0.18969053 -15.2353163 
-2.39504528 0.0485557988 1.89683783 
-5.82446289 0.00527239405 -7.04564285 
-16.7845898 0.158944815 -9.78742313 
11.9137869 0.022424778 12.7280664 
14.0845661 0.291047662 1.48717999 
-13.7007113 -0.485122055 16.4249229 
17.064558 -0.127620324 -14.4702196 
6.61486673 0.0421899632 13.1220045 
17.9739571 -0.323599994 9.29256821 
21.852026 -0.026556382 -18.3425217 
15.8210468 0.119419925 0.771680772 
12.7797108 -0.167066067 10.0568123 
-12.2709398 -0.266401172 1.87189734 
-9.20955849 -0.500714302 22.5727348 
-9.2983551 -0.342500538 7.65552378 
-6.79356956 0.357406497 9.55584145 
18.9789181 0.0171039421 -1.1163969 
-1.04784739 0.388239503 15.7814484 
-6.40252113 0.0658816695 5.68518734 
14.0976028 -0.247934952 -22.3111935 
-23.4666996 0.25630179 -2.66955161 
16.1311207 -0.222697318 15.8222485 
-2.59616017 0.0713998377 0.594566107 
17.2269001 -0.108049057 9.00785446 
-11.2136707 0.546382546 -18.1955776 
-13.3745661 -0.54046911 16.7239685 
-0.48622781 0.187844545 8.34610176 
-16.5876236 0.263555408 -10.6835604 
-8.44852924 -0.15233621 -17.8521423 
-7.02013206 -0.00183892844 -0.782705903 
-18.5681496 0.189082608 17.8503132 
-21.9555702 0.317814678 -0.623161435 
-21.0740833 0.474641711 11.1160526 
-6.19995451 -0.0940788761 -13.9690571 
6.80187464 0.103331715 -15.7433128 
-6.32806587 0.137826383 12.2470083 
-8.14945793 -0.0475071594 -4.3743248 
21.3070412 -0.235151693 5.96770477 
-12.8098345 -0.59306705 15.4067888 
-23.4668903 -0.055094026 -10.0913811 
-0.716309547 -0.506332815 -15.9120884 
-8.34789753 -0.316037863 2.30123854 
-9.28780937 -0.176482946 2.20878196 
3.22798491 0.226539388 8.82508755 
15.5062914 -0.394485503 16.9473629 
-8.83316231 -0.215629444 10.1554613 
18.9510593 0.0443503633 -1.37238979 
-18.3643532 0.430689782 -8.49472809 
-3.34256101 0.0194023252 9.68430519 
22.9917393 -0.248231724 -5.42200041 
17.8696709 -0.205428094 17.8407326 
19.2559757 -0.421170205 18.0593987 
-6.75389385 0.328373671 8.20303631 
-17.786253 -0.0747999102 -4.86630392 
20.1578426 -0.129209563 -18.9756584 
15.4076138 -0.300115347 8.9771595 
-5.61946297 -0.040200185 4.82568979 
18.282156 -0.105660684 -22.8376026 
-22.4517498 0.517408967 11.43293 
4.97418547 -0.0136892982 -3.62600732 
9.54660511 0.0514312834 11.9451342 
-9.36614227 -0.333380282 -1.07756853 
16.9193783 -0.0188663565 12.5613279 
-19.689621 0.711995602 12.8966446 
-1.06679666 -0.000985621009 -3.39025855 
-23.9535561 0.690711856 2.55361819 
4.04503441 0.348553598 8.17522049 
-21.6470222 0.76960659 7.13598347 
21.8328228 0.165825009 1.0813421 
-8.26188278 0.515963674 -13.4834023 
-15.4670143 -0.54463613 7.58468819 
7.65083981 -0.0824483112 2.96700525 
14.9694605 -0.288077503 6.13791895 
-19.2002087 -0.144202158 1.60483372 
-12.5823545 -0.274122685 0.987302721 
11.3733568 0.268978477 18.3918839 
-12.2521219 -0.11945378 -7.83731031 
-21.0246487 0.585083663 13.9064178 
-11.4480963 -0.023442708 -0.0210151523 
-7.2112422 0.494085848 -10.6975956 
5.92244959 -0.12374565 5.93536234 
18.755167 0.116104521 -15.6950741 
-15.4963627 -0.034504693 16.6753998 
18.4772167 -0.128232509 -22.7069778 
3.12692165 0.311299503 5.87423897 
-0.891097188 -0.0239999145 2.96078205 
17.3203697 -0.147809491 0.458972156 
-0.242379397 0.298434168 14.2972736 
-8.29125309 0.582874656 -13.2308083 
-2.82518411 -0.170029119 -12.0534048 
25.2139778 0.608661711 11.0258818 
1.14429951 0.0871923491 -19.9295044 
24.011898 0.393928885 1.24407804 
3.57579565 0.315489709 5.88028002 
-19.2138405 0.265979201 -11.8491011 
12.9195414 0.704282105 -8.59877872 
-2.50042486 -0.37445274 -14.3101568 
-22.1745472 0.726575375 5.62155867 
-11.0681696 -0.421616584 14.3770819 
-0.939275086 -0.445859045 -14.2359905 
-11.5602846 -0.38752529 -2.75393724 
-19.8400116 0.44012183 15.0936785 
-24.7328835 0.530765057 9.73889732 
12.3089933 -0.337057739 -17.5177383 
20.902565 0.0438448191 -2.34778619 
-8.36499977 -0.374757409 4.57149982 
24.0442257 0.293948859 22.8543072 
-0.420694202 -0.129987612 3.79913855 
13.9833965 0.362354606 -5.02111578 
-11.0163431 -0.63176173 5.79879856 
-16.5866795 -0.362243384 6.08187532 
8.99682713 0.203200191 -19.2544403 
-12.5373507 -0.330960691 -4.71489191 
-20.3578339 0.190683663 17.9844227 
23.5450363 -0.516891778 -14.7789268 
-21.2236176 -0.26077643 23.254858 
-12.207943 -0.354315072 -2.08180356 
-7.52388334 -0.286651909 2.34965658 
-8.92353249 -0.335293025 9.09379959 
7.65209293 -0.549817204 -6.6931653 
12.5333128 -0.0696343035 9.85469341 
21.8629761 -0.216320798 19.460289 
-15.6977463 -0.650549173 -2.37301588 
-18.9759026 -0.127920762 -14.3021917 
-20.5446434 0.641324818 7.00149679 
23.721262 -0.207914829 12.3866653 
-16.2254333 -0.0979644582 14.3425179 
-11.9859447 0.403672308 -13.1278391 
-3.53471017 0.355170697 -2.99469709 
11.1238194 0.383771211 -12.0952759 
-7.26539183 -0.290053278 2.96428657 
-12.4457808 -0.602443457 6.79396677 
-10.8317013 -0.621077478 6.22921705 
-24.4838409 0.13951987 21.8223209 
-16.0230083 -0.146601319 10.1286507 
-10.3128662 -0.53530103 7.16794014 
-2.70252371 -0.176683068 -9.83285522 
-8.05396175 -0.0637350604 -4.99583817 
5.63290977 -0.0300495625 -14.4813251 
-23.2442417 0.177800372 -3.52091122 
-15.9601116 0.379268467 -10.7892532 
2.02279949 0.0638573244 -3.49156857 
8.91951942 -0.130505055 19.4548779 
-0.302113384 -0.181574523 -20.5660629 
18.9638844 -0.252032518 4.5692625 
-7.99287796 -0.490730852 20.7731075 
-5.25628328 0.195845202 18.3891373 
22.7245007 -0.659471571 -8.83444405 
13.2946033 -0.170925409 8.03733635 
22.2279339 0.430690825 -23.880106 
1.19108868 0.144243568 12.691576 
0.451777756 0.179026052 10.3236284 
4.65960073 -0.175192475 -4.00398445 
4.93941784 0.0809429884 0.885015905 
7.24233437 0.0753605291 -14.1396484 
15.0745964 -0.0553516373 -20.2189198 
3.36899567 -0.0147219654 14.8924513 
-23.8794041 0.554372489 -1.08682919 
-23.9959011 0.0184662081 17.763876 
6.28837872 0.4747383 -20.1618919 
-0.833232522 -0.304593474 -11.782773 
22.2892704 0.352354169 -22.9139271 
-3.86887908 -0.0305620879 -8.43818855 
10.1439047 0.00343917264 19.0613251 
-1.15479958 0.592049718 18.387888 
10.0363455 -0.0859278962 11.1644392 
14.7558317 0.122240596 1.52592862 
-23.6034412 0.776143432 6.90097761 
-5.8451767 -0.0944315717 7.31864691 
23.8117809 -0.182566941 -5.13018751 
7.59412193 -0.166511774 -0.562979519 
-0.361410856 0.170658723 -8.29701519 
17.2934017 -0.325393736 5.58527231 
24.0479298 0.82284832 -22.966053 
24.9181862 -0.110448599 -16.4952564 
-11.6500988 -0.0422287807 -0.480270803 
13.1691999 0.0753596276 -14.381465 
-9.47377586 -0.474258751 -3.87924194 
1.82909989 0.574756801 21.2683067 
-14.3932648 0.166371897 -7.59993839 
9.25603676 -0.184770554 -3.83586216 
9.03426075 -0.411889344 7.07578135 
12.0832977 -0.150262997 -15.8315411 
19.462019 -0.0542422757 -2.2373507 
16.4354248 0.0842155069 -0.394936264 
16.3525677 -0.345290631 17.2945232 
-19.4121704 0.414024979 11.5296726 
-13.9654694 -0.232543737 13.9006271 
10.5720387 -0.0284431782 6.01321173 
-7.31631994 0.250266641 8.60101414 
16.7289867 -0.112351134 -21.6203423 
23.2631073 0.446323484 4.09139061 
-2.05319834 -0.04445149 -7.69624424 
13.4260168 0.340931177 -13.5616369 
3.44346094 0.132001147 4.56868124 
-8.45065308 -0.555032909 20.0244083 
4.12842274 0.339180171 -16.7641602 
-22.6943378 0.955716431 6.58290052 
-7.74320173 0.0782822669 7.70567274 
24.7539749 -0.502500653 -12.2851038 
-14.0970325 -0.235200137 1.04347563 
-9.22345829 -0.217569888 4.12220764 
-9.02803802 -0.328871131 5.42576599 
-1.70042253 -0.371571332 -10.0951929 
11.0523815 0.0792691335 10.9595718 
25.0189304 -0.115935564 -6.4792285 
20.6835251 -0.338089705 -21.6683388 
-12.2645607 -0.242550343 -1.52042055 
-16.1367474 -0.0413307846 16.2230988 
20.7884808 -0.136004657 4.92259312 
10.8467207 0.0756168887 -3.23626637 
9.74486256 -0.267380923 -5.48027611 
9.13519573 -0.298660517 -9.32191372 
-16.2797565 0.0679148659 12.1062889 
-0.864460766 0.336372167 -5.79747915 
18.019022 -0.104739353 -0.261496693 
6.05328846 0.0775991306 18.802 
0.404278696 0.152726457 10.4935789 
22.5396729 -0.980443656 -10.90236 
11.5280056 0.0916049108 -14.9837055 
-17.0077591 -0.290692061 4.68878746 
22.8076591 -0.345593005 12.1282034 
-16.0790863 -0.374301553 3.05268478 
-23.2994652 0.924899578 5.23978996 
-19.8120766 -0.475181967 22.3162823 
-18.0977001 -0.22913523 6.37547016 
-6.89380169 -0.0893146247 4.94009352 
18.9103851 -0.53335309 2.29783201 
3.64850807 -0.42981866 -12.1884909 
12.5220776 -0.335632861 -17.4187832 
18.154768 0.038079761 -10.791482 
16.878994 -0.0295160245 12.6915398 
23.3968487 0.635367036 -23.1265392 
14.8094406 -0.323052555 16.7280273 
-22.2596779 0.481438428 11.7240553 
9.7370348 0.132203996 23.5247726 
-12.7979641 -0.583566904 5.73262596 
13.267664 -0.452049941 19.1484432 
3.11966705 -0.120892443 -14.0500841 
10.0680971 0.100658976 17.130394 
2.65294027 0.0348701552 14.4628763 
4.01597643 -0.302619666 -6.53761435 
15.7552643 -0.00851606578 -19.0195007 
-8.67591381 -0.107696429 -18.7374783 
12.2257738 0.0427982397 12.7687616 
4.37382078 0.388342738 -16.68433 
-23.6085796 0.0319826864 -4.28922701 
13.1281977 -0.0615974031 14.8522673 
10.8686066 0.0488636978 -5.45226955 
-0.2891137 -0.515060008 -14.8908768 
-0.748131394 0.196151659 9.1970768 
-1.80473971 -0.384486139 -9.95369339 
5.39972639 0.0299227778 0.741039217 
-7.07056093 0.0639712363 6.95358467 
-14.1515436 -0.408537477 2.05673456 
-14.4916191 0.494957536 -18.2832451 
10.8484011 0.267278016 -13.1471891 
-7.20363188 0.352301002 -12.3482609 
16.072876 -0.202321216 -16.7008991 
-2.71650863 -0.0415403023 5.55816317 
24.9507084 0.357969254 -1.12904215 
23.0523777 0.289015085 7.55931473 
-23.3266563 0.926213205 8.59941387 
23.4874153 0.32057488 -1.13497853 
2.66377592 -0.201733425 -15.2552671 
7.50177717 0.127353758 -14.5532837 
13.2776995 -0.0979491696 6.26832151 
-13.641573 -0.305254787 0.685479462 
4.19513273 0.224232286 -18.2031059 
-9.57237339 -0.419535428 11.3530579 
7.61116266 -0.395275772 -12.4034824 
-8.68227291 -0.356227726 -5.07963181 
4.17077017 0.0708274245 -0.377573788 
-7.19007158 -0.233436525 16.906702 
-2.56559134 0.0866505802 -1.47567022 
17.218998 -0.151909217 -14.6667604 
8.03211403 -0.236520573 -13.0043411 
3.46079564 0.598475397 19.0540447 
21.2295208 0.247599781 -24.9008999 
-20.7884922 0.0113101844 -7.60553312 
12.1640654 -0.0291898549 6.43895197 
7.05935812 0.17888087 -14.7881966 
12.9713507 0.786610365 -7.40200233 
0.625741839 -0.444663227 -16.5822372 
21.7467041 -0.0870636404 -16.3932209 
15.9564753 0.017221339 -13.7012434 
8.18323898 0.312562555 -19.3813133 
-23.3001347 0.293483526 -1.29507172 
20.0058823 -0.477171749 -21.8082314 
1.05182934 0.0155002801 1.63606668 
-2.34757495 0.28737995 -4.81115341 
-23.7682724 0.787543178 4.59349012 
1.71675837 -0.28973648 -9.91602325 
-20.1936646 -0.186827481 -14.0030584 
-12.0575743 -0.0461437628 0.218131572 
9.23399448 0.148536369 13.7139835 
-2.53519654 0.0798237324 -1.71408343 
-2.03399086 -0.270648986 -12.2043591 
20.9917679 -0.532962859 8.53574657 
24.6756306 0.449252456 10.7528992 
-5.19556713 0.176455304 18.6524944 
4.62371254 0.227018774 -18.8741531 
-5.62319326 -0.201267704 -16.0912914 
-8.68328857 -0.601326942 18.1045361 
8.73162079 -0.106303841 16.0067883 
18.8879623 0.0925610289 -3.42076802 
22.323473 0.0134795438 5.64250851 
-17.1490021 0.122188665 19.3332863 
10.3360128 0.203101054 13.8669357 
-13.1560602 -0.238597155 -4.19414997 
21.5024319 -0.126320496 4.84375811 
17.768013 0.104954749 -1.69924974 
10.5665808 -0.162142172 6.64596653 
17.9803543 0.206309959 -2.02871895 
-6.0699544 0.054476101 7.2489152 
-3.16875792 0.146137506 10.0339632 
-24.191988 0.105900317 -19.1678276 
16.6344242 0.394406736 -7.62143993 
-16.7626247 -0.0323532633 12.8243008 
-6.43752241 -0.609212339 -18.6929493 
-5.29682541 -0.122604065 6.25313282 
25.0804768 -0.219273701 -8.17441177 
-24.8091469 0.734822571 2.13506722 
-21.0752888 0.0874383152 -2.90255046 
-23.1162357 0.874299943 6.12410927 
-4.48451805 -0.127549887 5.56293774 
-13.0549688 0.663130343 -17.6828918 
13.9486513 0.296427518 1.64755392 
3.71635151 -0.294071823 -10.8516922 
-15.8339825 0.413680911 -10.7293682 
5.87321615 0.38512975 23.8015347 
1.80093694 0.0706771463 -3.63197279 
-24.1873283 0.117521711 14.4484739 
-11.0728149 -0.228781715 -0.493709385 
-8.76932621 -0.422758073 12.7240992 
-7.37000704 -0.0818587393 12.9386883 
-14.3511553 -0.108841278 7.93796062 
-19.1154823 0.0142527055 -4.70753717 
16.7436619 -0.285292745 7.51663589 
18.4894295 -0.521015525 9.85034847 
-7.486166 -0.0606726706 6.53406048 
-22.174036 0.000564986491 -8.09545612 
9.94708538 -0.344167769 9.24608612 
2.54037786 0.305462509 16.4364853 
0.504585683 -0.0200998336 -4.205019 
16.7360344 0.324534982 -6.67360544 
-21.5756626 -0.0221887585 -6.79522562 
-4.84384775 -0.14221479 2.71302795 
-18.9948063 -0.171037704 2.77904582 
25.3340626 -0.351816416 -10.6018591 
-16.4617157 -0.0237343404 14.1310472 
13.9186907 0.857435107 -9.12261009 
-0.20274204 -0.0874219239 0.830353379 
21.9842701 -0.855660379 -8.48348808 
13.464818 0.82009846 -9.78110409 
-3.82938743 0.0703990012 -9.59422302 
-10.35361 -0.193905935 2.23114395 
-3.75204706 0.12398959 18.5318851 
14.3210468 0.2461171 1.40774918 
15.848547 -0.0311424863 -19.1375332 
-4.58158636 -0.103464149 5.5109458 
12.1456957 0.0714683309 16.1127567 
11.502327 -0.0687279925 -17.5180759 
-8.36159134 -0.166897833 -18.4109898 
4.10250187 0.36385572 8.7602005 
-19.0200214 0.52469784 15.0646753 
15.6069374 -0.0566209331 -15.7404919 
-13.7904301 -0.362446576 15.8150635 
13.3341236 0.390930116 0.893414259 
19.2960663 -0.208584115 -9.0894556 
-19.4476509 0.243480936 -5.68105316 
-12.3465614 0.655492902 -14.8798151 
-9.19365978 -0.232064977 -0.412824124 
-14.1463728 -0.20951201 -3.15381193 
9.49015903 -0.0516813546 -11.6865044 
-16.9259548 0.0258017909 15.7679176 
-11.3314495 -0.085646674 1.08361435 
7.94825888 -0.0240013003 3.65087152 
10.2852678 0.28945455 1.84042227 
16.243433 -0.267773211 3.96418285 
-6.50638676 0.0468311757 5.74376059 
19.3272686 -0.227793589 4.65371084 
-0.252785593 -0.114086628 3.55975294 
3.98503613 0.164363697 -15.5386171 
16.4588375 0.33617124 -5.57015181 
-22.4731998 0.320113003 15.9605093 
17.2365627 -0.153649583 -13.5856342 
-18.245472 -0.245765805 -1.47531486 
13.4467735 0.338305831 -3.41911149 
-0.181184947 -0.0787012428 -1.59843361 
-20.9622002 0.4929685 15.1272192 
1.54897881 -0.263606369 -16.8883591 
20.7728825 -0.208995 18.61549 
3.01898932 -0.0162035935 0.242691264 
-22.5287704 0.151080996 -6.42414761 
15.425683 0.0939285979 -1.23125327 
8.12607193 -0.319346398 -11.7277946 
-9.2683897 -0.347100228 -1.30442107 
-8.64936733 -0.32160908 -4.67245007 
-11.8917522 -0.496997982 3.80096889 
-10.9184418 -0.635653198 11.4443598 
7.24304104 -0.588417411 -11.0148697 
-12.8574095 -0.439930409 13.8345613 
-0.935543239 0.191157833 12.18892 
-15.3857937 -0.286283463 9.24439335 
13.3580599 -0.121448949 6.44048786 
-20.0776196 0.14914459 -5.25136328 
17.0208111 0.0910639241 -11.0434856 
11.1021891 -0.0107240975 -17.1914997 
13.3487015 0.602854133 -11.3383417 
-6.40790224 -0.17731148 1.84925354 
13.1312208 0.376068056 0.620036602 
4.14349079 -0.0193859488 12.4284754 
17.5576954 -0.174894035 -23.1327724 
0.334277004 -0.0543975011 -2.84430909 
-8.84085083 0.0709779933 -16.8127193 
9.83633995 -0.160894617 10.969059 
-3.40751314 0.47939384 17.0255489 
15.8959856 0.273163378 -3.62393951 
-14.9215603 0.477242857 -16.8672123 
10.1276684 0.00420179404 4.71230316 
-24.7527466 0.0845898986 -19.3489838 
-20.8284283 0.557798147 13.0034657 
-6.75994015 -0.0809258372 -0.835061431 
-11.4612713 -0.675261319 18.9931355 
24.6095352 -0.255343884 -7.96258307 
8.97398376 -0.335530818 -9.43899155 
-3.55047822 -0.176523805 -12.3906422 
-18.3474846 0.00934832916 8.21488953 
11.1133137 0.018172998 -17.4327087 
-3.05718279 -0.184121013 7.06641817 
10.0391912 0.0989230797 -11.3143215 
-9.01328754 0.223596513 -10.5203838 
15.9858065 0.215418532 -2.21589994 
18.4906368 0.0777652636 -16.3023071 
-16.0940514 -0.34840712 5.90709591 
-21.8246746 0.133849025 19.1450138 
-20.1288185 -0.00631313585 -11.9975748 
-12.3446846 -0.177816212 21.6113434 
13.3146896 0.0776201785 4.98133564 
-21.8573895 0.3378537 14.0296221 
-7.07226324 0.0567891076 6.78399515 
-22.3826065 0.808292687 8.51262856 
-4.78699446 0.216400534 -7.69476318 
-22.8053684 -0.23152855 -18.1005936 
0.653214157 0.199134693 9.87311649 
-23.3576565 0.0312353671 -7.92115974 
-15.6153803 0.535891593 -11.9007511 
13.2159653 -0.285465211 -17.8589783 
23.6461887 0.835142791 -21.4302101 
3.39013314 -0.36871019 -8.39778233 
12.606514 0.553840935 -10.87815 
22.006876 -0.0611710809 6.04300785 
11.9042778 0.0542146452 10.7796268 
-12.7205153 -0.467728734 13.6386013 
9.64348602 0.236735955 3.88691759 
17.9420071 -0.0385076888 -1.13930964 
17.4285469 0.0454458296 -1.31019306 
-8.66696644 -0.127215818 11.3210497 
17.7668171 -0.470842183 4.64057922 
5.28978395 0.0456866808 20.7200146 
11.1702919 -0.182258755 7.32387352 
-2.92626143 0.250288129 -2.21156383 
14.773097 -0.247109875 11.7408772 
18.8204632 0.0144463144 -13.5868092 
-16.9210548 0.0727990717 -15.5134859 
23.6240673 -0.246881634 12.6123571 
-20.3131256 0.395293087 8.50333595 
7.85628557 -0.540694356 -7.79400682 
-22.8139954 -0.285136223 -11.8555355 
22.0653553 0.0346442796 -2.79043412 
-21.5541172 -0.28334111 -17.040369 
5.06783819 0.0598366223 3.29623652 
-10.8944035 -0.28148827 -0.418441832 
3.59547091 -0.0739121512 13.5207129 
-7.68796444 -0.0956835151 -15.9399958 
-15.7562323 0.301525444 -9.49677467 
3.18800807 -0.0380584672 -2.12849784 
-20.3112507 0.589401901 13.1384535 
7.593225 -0.11740391 17.3262024 
19.5257206 -0.314709097 -23.3949718 
-20.1112499 0.122248493 9.45969868 
13.6076803 0.415095598 -1.89327288 
-7.68408442 -0.081272535 12.7448778 
4.3644762 0.165998846 15.3364 
-15.4028683 0.33322832 24.4844093 
-10.8124762 0.363509595 -12.7076731 
-1.17026091 0.0539795272 -3.87390161 
-12.0481663 0.0825947225 -10.8731623 
17.1862679 -0.138885319 10.2298079 
-0.408085108 0.231171355 -7.29394007 
21.8339806 -0.106606886 -16.5182095 
-2.27332067 0.66552192 19.6694927 
18.1073799 -0.362477928 9.36722279 
21.865118 -0.213570535 8.68067455 
23.2305393 0.0645191297 1.3266871 
-18.8412266 0.393399209 13.8533888 
6.55706406 -0.23678115 -13.1663618 
-13.8090754 -0.378448188 6.04661512 
-4.93432283 -0.189075291 5.00832415 
-0.553384006 -0.168515816 -21.5442085 
-7.4780798 0.26351878 9.52303791 
-20.8352833 0.473775029 3.72733521 
11.0224562 0.057017561 -2.97958159 
-7.74627209 -0.301407158 1.95987928 
6.25496244 -0.132673398 5.08613777 
6.74011612 -0.476431668 -9.34075165 
5.12927055 0.0509938262 -1.05897963 
2.5197556 -0.1474213 0.93384397 
-16.1082535 0.433325797 -12.436245 
8.86701202 0.18087405 -17.4960384 
-7.65038681 -0.443454325 3.46812749 
-18.3720913 -0.0985909477 6.79445028 
-4.36168051 0.257934451 11.5745792 
14.5313997 -0.124780573 12.380619 
-5.93391657 0.156203121 -10.2776852 
-22.1283112 -0.248425275 24.3543301 
-21.524168 -0.327507436 -17.6075535 
-24.674984 0.0511362702 -3.40899181 
12.5083542 0.162831143 3.40658236 
-15.3163271 -0.20355089 9.38916779 
-15.3334875 0.297804624 -7.30935287 
-10.0523014 -0.103998832 -9.85658169 
-15.9102879 0.286407977 -13.4125195 
-5.14334679 0.177048966 17.0388565 
3.04429173 0.0719615296 3.43257093 
14.1793308 -0.0116081983 11.8908234 
23.963747 0.887080371 -21.9938679 
14.3117342 -0.301171124 8.72442627 
22.7852974 0.156432405 -18.9912167 
-14.5505352 -0.13392359 10.540019 
1.28944314 0.0947908834 12.264123 
12.6531878 0.407118708 -12.3023291 
21.0362778 -0.68901062 11.2673712 
24.3069458 -0.107669331 -4.65946388 
13.3721457 -0.0643003285 -22.1685963 
15.2704725 -0.0322852954 13.2202587 
21.5884628 -0.0989635363 3.98419785 
17.6440487 0.17186965 -9.73920727 
9.2619648 0.0838323608 -17.4627132 
5.78658581 0.03671683 13.833849 
3.87172842 0.237173289 -16.3239346 
16.9521122 -0.0494944714 10.8218527 
-19.3843346 -0.0673853084 -0.179221824 
-0.702980578 -0.0629327372 -1.73338389 
23.0418568 0.159389809 -0.581179976 
17.8081493 0.118873075 -5.32384253 
13.6897755 0.203555852 2.36923885 
-7.0180912 0.103204004 -7.7233963 
4.1079545 0.150528818 5.07306814 
16.3454609 -0.371610999 6.20819187 
6.78062677 0.485088229 -18.2953529 
-5.72563648 0.0630065203 -6.85852289 
-19.1438084 0.427240491 -10.4651518 
20.1267662 -0.32392332 -21.4161205 
-10.8393354 -0.614319921 9.51025009 
5.05013895 -0.0214742627 2.14063478 
-3.54066682 -0.547060966 -17.1478443 
9.17543125 0.130427152 22.6632118 
7.50535774 -0.367579013 -3.09823012 
-12.4018412 -0.148371562 -7.5787878 
5.02798653 -0.40823856 -10.9896574 
-16.7274418 -0.0904359147 10.3189411 
-13.760355 -0.207803994 8.29131985 
-6.86049032 -0.0932668447 -4.85176086 
18.5114937 -0.119855203 -9.95514107 
8.07017326 0.202090427 -14.7601604 
-8.44949627 -0.191937536 -1.46080661 
-3.14433074 0.194988906 10.7459679 
-10.1594944 -0.517641723 -2.46939635 
-6.85296059 0.0739648268 -7.56101799 
7.47224569 -0.162498534 0.293242216 
23.4644775 -0.719050527 -9.54308605 
6.46164513 -0.522192061 -9.03135586 
-15.087451 -0.391364485 4.63270092 
-21.5042744 -0.0759544745 -8.70957279 
14.8279943 0.134266183 1.23760867 
4.81687927 0.457313925 16.3557167 
-7.30465269 -0.256369472 4.0710454 
-1.55795586 0.532623649 16.7876873 
4.97693348 0.0698398128 -0.431830585 
21.0706272 -0.186669618 18.8582916 
-11.1058493 0.263663113 -12.0963278 
4.85985088 0.105293587 4.78970146 
14.3258123 -0.020323813 -18.190897 
13.1518326 0.0590468831 13.6026764 
21.9358044 0.0337909311 3.30917406 
0.880868733 0.267924994 18.6125984 
-7.01416445 0.390342146 8.53642559 
2.74516606 0.12214037 9.67570019 
-1.00780201 0.0826847851 6.51257658 
-18.3805542 -0.0660180673 4.82922363 
4.80350733 -0.19143109 -13.1370373 
-15.859952 0.167981073 -6.63125086 
-20.9032459 0.0139126433 -3.43548274 
13.3712463 -0.32288748 -17.5728645 
-18.1569538 -0.016008338 12.7117758 
12.8266697 -0.300721616 -16.4736347 
9.69516277 0.137915745 -12.904726 
5.07448721 0.386145055 -17.5393753 
6.29110241 -0.135843888 8.30691814 
6.06748676 0.104680367 2.15612864 
11.4052496 0.00328574772 -16.4062614 
-9.59485912 -0.555815518 9.83844185 
-21.1209106 0.62225014 8.28322697 
12.0974665 -0.254467338 -18.1169395 
12.2278862 0.383970737 -7.2967186 
14.9638138 -0.235631078 11.9849958 
-6.63193226 0.0536125042 5.98144722 
7.02435637 -0.420430571 -3.43172956 
-16.3697567 -0.315428764 5.6309576 
-23.9191341 0.097815901 16.5119286 
1.3352747 0.187271535 5.59619522 
-8.76385975 0.288835645 -15.3426409 
-14.3901768 -0.209885076 -3.07116747 
-9.6274662 -0.496613622 -5.10768366 
12.4087639 0.0454147644 11.7825985 
-12.0563202 -0.77580303 10.0531769 
3.7668848 0.0170830935 -14.6309023 
15.5939293 -0.0901528299 11.2650719 
-13.0534458 -0.442904025 15.0537786 
4.60276031 0.189285949 10.2136717 
22.2245922 0.105256245 -3.80819035 
15.8593235 -0.273244083 6.91857672 
-3.77997947 -0.256278574 -15.3253937 
-24.0598698 -0.0473126732 18.4626522 
-16.5495052 -0.383456379 2.63624954 
19.7504692 -0.165954605 -14.1916122 
16.9183464 -0.0151809072 9.47002125 
-5.56866217 -0.461050272 -18.2627068 
23.4374981 -0.209710732 18.087574 
-23.5232601 0.221674904 14.2288446 
22.6535931 -0.677978277 -8.9564352 
15.1415796 0.520129085 -7.2529068 
23.9010487 0.422623426 6.86052513 
-17.4951 -0.230536222 4.61225605 
-3.16803789 0.250020027 -1.1498338 
15.5532551 0.15578334 0.182177275 
-11.378273 -0.172832847 1.37265527 
9.85501671 0.272172987 2.04435396 
-13.4351263 -0.293995589 9.3337059 
-12.0563173 -0.421741337 2.84039092 
16.390852 -0.163801417 -15.5553389 
-8.96383953 -0.234199181 -0.785541236 
-19.1251698 0.234324038 10.5177155 
-8.20066833 0.191057652 -15.4515982 
15.571907 0.0662211329 -0.668939173 
-13.475666 -0.433693618 3.82495975 
-11.1487007 -0.600314498 9.01200962 
-5.37394285 0.195162609 -6.03380823 
-19.0364418 -0.0702310503 -1.39129102 
-22.5629158 0.896552563 7.09914923 
18.811594 -0.271626443 4.32058334 
22.2278633 -0.0111024482 5.48281193 
-12.0132046 0.138160661 -9.47934628 
-1.08724535 0.131252721 7.74833632 
0.66249299 -0.0761936158 -10.2423248 
-23.7781658 -0.0116176074 17.701376 
9.64613247 0.142225921 -13.067524 
3.42818189 0.12502633 4.19354439 
13.3086395 0.564232349 -0.981375098 
-11.4906225 -0.695803463 11.9393072 
-19.6689358 0.160142317 -5.0937233 
22.4618893 -0.755521774 -13.5749998 
-1.14780903 -0.43696776 -14.386776 
24.5147095 -0.142809242 -5.69792509 
-10.0140352 0.0708703697 -10.4968214 
6.26410532 -0.555799067 -10.3706217 
-19.8304176 0.577934742 6.73995447 
-7.80522346 -0.311960727 1.47752082 
-11.4857073 0.601338148 -18.1907959 
2.94945359 -0.0946034193 -3.41606736 
4.79828501 0.149985477 10.7768593 
4.47315168 0.0254830793 12.0829325 
0.230044603 0.0556441434 -8.98237705 
-15.2223644 -0.31713587 5.00665903 
3.04556441 -0.0988730565 -1.44075155 
4.10160685 -0.103854194 13.4265146 
-13.5565796 -0.512301683 16.2887154 
-12.781929 -0.114045776 -1.67963648 
25.0147552 -0.116520502 -5.36364508 
24.1020565 -0.0753249675 14.3731537 
13.0090122 0.676458299 -6.627491 
-8.11704731 0.61390698 -11.8053417 
-19.3163471 0.326318055 7.39293289 
-5.91826296 -0.0517501011 6.05385113 
-14.5793915 -0.101977088 14.8391428 
6.15582371 -0.595747232 -7.90982676 
2.19985938 -0.260567993 -6.36624432 
10.6580353 0.301559538 -6.8446126 
24.5964909 0.292838752 -19.6457043 
22.5390301 -0.672192931 -8.03713512 
10.5519514 0.248193994 -13.2439642 
-19.4627132 0.316000789 -7.94930172 
-5.83187819 -0.0231049694 4.81089544 
14.0291672 -0.106003098 -18.202858 
1.81070435 0.0602231137 -19.1454964 
16.782259 -0.0124096815 12.4314489 
-13.3338814 0.642333984 -15.5840273 
-9.73596096 -0.103614792 -22.6094875 
-18.0401154 0.472685099 -9.78632927 
12.4456348 0.451275796 2.16603708 
3.30512166 0.332087755 5.99862385 
1.73340857 0.188203901 10.2478037 
23.3493404 -0.52367878 -8.42721462 
-19.090601 0.31254077 12.0464411 
-24.3038464 -0.16357559 -10.1837845 
-18.5569115 -0.414268464 0.768376112 
1.07928276 -0.00370700937 -22.367403 
-8.20795727 -0.51444447 21.345047 
-5.52630329 -0.0808470026 2.99802971 
-15.5660419 0.366927087 23.6556759 
5.21422863 0.0324108154 -3.55442476 
5.31739187 0.092117548 8.73974419 
-24.6212349 -0.287371099 -10.6171827 
-3.35954666 -0.121475793 -11.586318 
-2.90510917 -0.710980952 -18.671423 
-19.9289188 -0.138230294 0.0606568642 
1.22710359 -0.272104591 -10.5021324 
6.72322702 -0.200294673 -0.0679311454 
7.8703351 -0.56855011 -8.04318333 
10.6654224 0.258013904 3.11026287 
-15.095211 -0.35270676 4.98584604 
-1.86389899 -0.0701250806 9.6098547 
5.05559206 0.333802193 -18.1274242 
10.4655638 0.0322471187 -2.15039659 
6.82476425 0.480313241 -17.973999 
9.94602394 0.203165591 -13.458456 
-12.6813974 -0.60194695 10.2384548 
1.22572649 -0.0106200408 -4.78996468 
13.3938217 -0.0647333264 5.95376062 
-24.4768295 -0.0796429366 -17.9345169 
25.0262718 -0.220419884 -8.0179491 
-5.98037052 0.0645899177 -1.39770603 
-18.220108 0.429769546 -9.12436008 
-24.5699463 0.131092399 14.2840471 
19.0609112 0.104301892 -18.9302368 
-4.42974186 0.227455392 -5.72257805 
-23.2682934 0.216078624 -4.01874065 
-1.61304438 -0.0615943074 2.29538894 
6.23680639 -0.00637726393 16.7659512 
-0.456883907 -0.0996089205 4.33998871 
18.1382465 0.185999796 -3.64655519 
15.6416426 -0.0597937964 -15.0091486 
-10.1913519 -0.466447234 4.70053482 
13.1935129 -0.21924071 -18.212698 
-16.1484776 0.357058853 18.883728 
19.995779 -0.674056292 11.8494167 
7.50132656 -0.625379682 -7.97745085 
-4.60240078 0.265156716 -4.38652229 
-18.8737488 0.196069092 -12.5867643 
17.8366852 -0.318795174 10.1619787 
11.2981157 0.208896741 0.518171906 
-2.21813679 0.0139713716 2.79640007 
-14.8337021 -0.148219794 9.47545433 
10.7362976 0.082941547 -5.89188957 
-24.7248363 0.0209447909 -18.7771301 
-7.75229454 0.46147275 -8.75712013 
17.6842079 -0.287725955 16.0500755 
14.5949469 -0.212295964 10.9614544 
3.41209745 0.0278789308 3.10558081 
-24.4227142 -0.0503582545 -5.11664104 
-24.6696129 0.709300041 3.38399625 
-17.5993805 0.290793598 -11.6586571 
17.3416119 -0.261264026 -15.7934446 
-8.6565733 -0.272111416 7.37479639 
-20.9302826 0.74536711 5.25722218 
21.3213634 -0.72277528 14.1880083 
-6.33803988 -0.091085963 -13.8878698 
18.8535156 -0.315656453 7.84055614 
-19.7065887 0.070566155 3.77598262 
-23.2555389 0.0164080672 -5.21220541 
10.2516651 0.0557395108 -9.41238022 
-12.6631355 -0.239934996 1.94851708 
23.5600796 0.0231998321 20.3480606 
-12.5325823 -0.125699595 -9.03923607 
-22.050209 0.348348022 14.7329569 
-13.4152241 0.679781377 -18.7439194 
7.53798342 -0.614444017 -7.54415607 
24.2688122 0.574106336 9.3442421 
-6.78012323 0.0678903013 6.95300579 
12.2296476 0.35769105 -12.2737942 
7.61619759 -0.17291218 0.435044825 
18.7715054 -0.329375058 0.167359874 
20.6282883 -0.0942707211 -0.237657979 
-0.41724059 0.145458385 12.4835606 
-13.574604 0.0644576401 -8.7500124 
-23.913105 0.164286256 -3.51320887 
15.8257637 -0.0182474293 -15.0490961 
-20.0751534 0.0325470828 1.03180146 
22.3241386 -0.237946451 -16.6260796 
-8.46844864 -0.202711642 12.4615145 
16.4786873 -0.267680377 -16.9708462 
-9.13288593 -0.180178836 3.45594716 
-6.96440077 -0.24875091 2.07544327 
3.92949319 -2.3419736e-05 -0.76819557 
13.1236763 -0.0906335264 6.85259151 
-15.9579163 -0.0691331476 10.5677109 
-8.67146492 0.27749303 -10.4836569 
14.7988625 -0.400580764 17.0804558 
15.2604027 0.550350428 -6.91840792 
-2.8388629 -0.689315498 -19.1294651 
9.71226501 0.120746717 -14.2227726 
11.7668819 0.18302168 4.20923233 
25.0482216 0.595987618 10.6609945 
16.3757248 -0.312012404 3.96159124 
15.8802528 -0.0288617257 -14.7302742 
-5.93791676 0.0491441712 -9.02452946 
-14.6339703 -0.111531481 -4.95395565 
15.4826441 -0.137928843 -22.7823658 
20.6347866 -0.603557587 12.8835211 
12.5438948 0.378149122 2.57918763 
7.90837574 -0.0558814704 1.9284246 
21.7449913 -0.113985099 4.90084505 
-12.5012913 -0.628374159 17.3501835 
-14.6766024 -0.408698022 -2.62827229 
-2.32601428 0.0870447904 -2.15749216 
-23.3388977 -0.0227685552 -9.73309135 
23.1379757 -0.312400997 17.1680145 
-22.664732 0.738278747 4.70988417 
19.7125301 -0.746971607 9.01966095 
-0.405471861 0.250718534 -6.7658143 
-24.3629246 0.118659101 21.2740021 
2.43832278 -0.0464753062 12.8513031 
6.39421558 -0.32157892 -5.43279409 
-7.78857517 -0.168176129 6.45381546 
4.91010094 0.522966921 -20.662735 
-5.65403128 -0.135282934 8.05416203 
25.0664425 -0.0490333401 -4.13446331 
-22.3484192 0.772209227 8.35602379 
15.945322 -0.0915358365 -21.574007 
18.6273746 0.0806584656 -18.2147141 
2.96807265 0.387277335 6.32578611 
2.68406963 0.0866362453 -16.9494076 
13.4279423 0.036013633 13.2182312 
11.3354559 0.17375429 4.48980045 
-5.09627056 -0.158493131 5.81410456 
-15.6244888 -0.353128761 2.69675589 
-0.646465659 -0.128428012 0.164790899 
-3.99052405 -0.268164963 -13.7796354 
7.66186047 -0.225726366 17.7664108 
-4.62075615 -0.256362021 9.68206501 
17.2132835 -0.148898497 -17.5483875 
-16.6677265 0.0248233881 12.4328957 
20.9499016 -0.854124606 -9.84794903 
-12.7063246 -0.459593594 4.06869125 
-22.1785755 0.322007567 16.9298153 
-10.0428514 -0.500477552 20.3572865 
-7.6816144 -0.0429286249 -5.80285597 
-24.4004059 0.093048878 17.7614975 
13.9584303 0.054120969 -20.4016972 
7.46684408 0.0533088148 4.27138567 
5.14429522 0.0270136129 7.18867159 
22.9727936 0.126293495 -0.131789491 
-10.2202644 -0.572470784 8.42217731 
-7.14476585 0.115858331 -1.69903326 
-13.2593393 0.512777865 -13.4798784 
-5.76138544 0.00139172177 5.15512991 
-2.05284882 -0.63391763 -18.7308903 
21.4134617 -0.147163853 5.59324455 
24.9439602 0.639594615 5.31138325 
8.59613228 -0.496429354 -8.32637978 
-9.22201729 -0.347340584 11.5165415 
11.3658895 0.138875946 -0.456948102 
9.65303612 -0.025680989 -0.975138783 
-16.7315712 -0.000470755389 13.3506794 
-11.2057991 -0.128075197 0.23806183 
-6.9893055 0.0888468027 -2.71578455 
-8.55056477 -0.27025193 -3.56327701 
-14.8710451 -0.139148012 9.79934502 
-24.2970943 -0.106098428 -9.21251869 
17.7899914 0.141746864 -1.85965276 
9.89628983 0.228556931 3.90389824 
-4.05628824 -0.521443307 24.0867405 
-1.53792346 0.0851340592 1.02107894 
6.60571003 -0.284643978 -2.53740549 
-15.379509 -0.416833639 -3.59641623 
-5.97814989 -0.0112627316 6.23057079 
-0.154940635 -0.0154099753 1.77367985 
-6.89993382 -0.0617393069 12.4660654 
22.8324375 0.150069654 7.18511963 
-16.9077187 -0.215272605 9.79888439 
-18.4504814 0.564147592 -10.3876476 
12.9887762 0.228512868 3.01114678 
1.00208044 -0.313081264 -17.5384941 
-6.5136528 0.0130456509 -7.44385576 
-15.7109699 -0.0441427082 -4.82846022 
-14.0681581 0.0469100922 -7.87151527 
9.7021637 0.0906068459 -18.5329628 
-12.7826462 -0.563133657 6.0923028 
4.45542622 -0.195005015 -3.43614674 
1.71648395 0.0265545566 3.52753139 
-8.73703575 0.140061244 -16.1818333 
13.5665836 -0.172053605 15.6661139 
-9.11749363 -0.309857458 7.62709379 
2.07628846 0.39857465 16.5944691 
-9.3991766 -0.459349126 -3.37258577 
25.3327522 0.623192847 11.0062037 
21.511631 0.0439942107 -2.19584966 
-16.5683784 -0.493095487 2.18685007 
-16.0514679 0.440526009 19.1251259 
-1.62503195 -0.0902191475 7.25621986 
20.52915 -0.321228504 -23.6329155 
-17.407074 0.198269755 14.526206 
15.2597303 0.075310193 -19.0349407 
-9.30785656 0.549236 -14.2854052 
22.1931801 -0.410808444 -15.3413076 
9.48715496 0.226026461 3.63737202 
4.05692053 0.372819126 8.30605888 
15.867835 -0.286727935 7.93363667 
19.0188198 -0.0975405425 -9.71182156 
12.6010065 0.326090813 2.73800731 
-7.63574123 -0.0571602657 12.883975 
-15.8522692 0.290464103 17.9382019 
-8.17092609 -0.209197506 -17.8707104 
-11.8829737 0.513597608 -14.4659557 
12.9660225 -0.169043049 -15.2735109 
20.5288315 -0.254294068 0.747323215 
-4.55792809 -0.27674821 -16.654438 
7.2793417 -0.142769814 -0.329755276 
-17.5338173 -0.0294336528 11.5311155 
-16.9158897 0.0235120635 13.4405184 
19.6298847 -0.235312685 6.92577314 
21.0272179 -0.0683408976 -17.1889191 
13.1566162 -0.053130392 -21.428793 
-1.77307785 -0.202935949 -8.77655888 
-24.5287476 0.380343199 -2.00230575 
-5.11504316 -0.025724601 0.981865585 
-14.8842278 -0.0576263852 15.9012175 
14.9529266 -0.10674949 3.20021629 
-1.45246327 -0.274688184 -9.48778725 
16.0097599 0.254562646 -10.4490843 
1.12104273 -0.134666681 -8.24377155 
4.36940527 -0.0435810611 -1.07527864 
23.876482 0.356779128 -19.3129749 
13.798358 -0.52390784 21.5948238 
8.89718628 0.230046526 4.09934998 
-11.37533 -0.113653369 1.22396171 
-9.82458496 -0.54447037 22.1134834 
-10.7103329 -0.339781225 -0.403164864 
0.0872221738 0.286194146 13.3699007 
15.6098442 -0.108859822 12.1619577 
-7.19836998 -0.303496897 18.1473007 
-17.500164 -0.0745816976 -16.4449806 
12.2923145 0.0240246076 4.92231321 
12.7766619 0.428533286 1.74972928 
10.1592932 0.175205305 -16.077528 
22.3974533 0.240276575 -20.7225685 
23.6860008 -0.400500029 -7.98621416 
-20.967762 -0.30145514 24.1889019 
-24.9639187 -0.220823973 19.8264141 
-17.7782879 0.0122960173 9.49624348 
2.5115447 0.0384978876 -1.89397061 
13.3654213 0.0434673801 5.4409709 
-11.7942982 -0.647813916 18.7725124 
16.1162052 -0.273269624 2.8351779 
-8.61898613 0.167599499 -15.8091421 
-6.27810907 -0.101264387 -5.70718193 
4.95050192 0.233523548 -15.444129 
-1.07314885 -0.412005663 -16.3526859 
-2.57358813 0.136422753 -2.12980342 
-16.0700874 -0.29188624 5.29492521 
-20.0754585 0.582347751 7.6375761 
19.8602276 -0.1074351 -1.70113027 
-7.253613 -0.105807178 5.73079967 
11.4623222 0.120895244 -6.47915888 
5.48135853 0.0756861717 9.2951746 
-15.5599785 0.283166647 19.3345337 
8.90894699 0.139902785 -17.8774414 
-1.28616869 0.261535078 11.5164442 
14.8960705 0.170107469 -16.9441433 
21.3992214 -0.436692774 9.50737667 
-1.54041576 -0.159788668 -8.44126606 
16.7333736 -0.144714922 14.1268482 
10.0718622 0.059490189 -9.95364571 
-18.4171925 0.342686743 16.8840199 
-24.6921959 0.342956185 -1.74924409 
8.27089214 -0.39488548 -10.2877703 
-23.7241173 0.298673719 12.7497873 
0.469816327 0.21995458 17.3322754 
1.66691387 -0.194982365 -15.2401123 
-1.75648367 -0.0311583187 -1.86497486 
-0.394573063 0.538739383 20.3768902 
4.64320803 -0.124109231 13.6220636 
-10.5852833 -0.570098817 16.2865639 
-21.9471722 0.27389881 17.3381844 
-11.0720348 -0.557715535 15.5667009 
11.5792274 0.234980494 15.8259487 
-12.2206326 0.742660105 -15.5729218 
-8.45943356 -0.454423785 14.2968531 
1.86765409 0.0556613505 3.2096858 
0.528952718 0.0884687752 -24.4490204 
-13.0760117 -0.178723514 -1.03176725 
-14.8465281 0.479130208 -12.066617 
10.1895456 0.298458725 3.0698278 
1.02600384 0.272759557 8.32274437 
-18.4726639 0.433296829 16.3588676 
-10.5577726 -0.481096774 4.78506422 
-15.2885361 -0.67358762 -0.435614586 
-12.708765 -0.356340736 -3.52099752 
2.86472559 0.455320895 18.7156048 
-12.2359638 0.91482985 -19.5736904 
19.9318008 -0.496835709 -11.0481071 
-19.2752533 -0.0319914818 4.68686676 
-18.5005836 -0.231246442 -0.496118873 
3.83494377 0.146740451 -18.8559151 
-15.2183514 -0.504410505 7.40170288 
-5.75179958 0.0616343841 9.70034695 
18.8668556 0.00968920253 -19.1339645 
-14.69594 0.0394489206 12.4750242 
-24.4955254 0.716892719 3.98443103 
21.8542862 -0.202230021 8.17519379 
-24.1424217 -0.303781897 -15.5041151 
-10.3897781 0.356414288 -12.7264633 
4.42765665 -0.386163443 -9.94579792 
-5.83319569 0.0897269025 17.5169563 
-8.0334444 0.151144832 -7.95027733 
-0.814484358 -0.183690429 -9.29881096 
1.18866217 -0.362864137 -16.7769737 
8.0174408 -0.28086704 -2.66410398 
-1.67658794 -0.602638602 -19.2385845 
-23.8389473 0.779459119 8.26377296 
-15.4577627 -0.395615906 4.29084873 
13.3532495 0.392149359 0.717500389 
-4.08475828 0.318178177 -2.49944377 
-4.90555239 -0.526800036 -24.891758 
3.57655334 -0.385947078 -9.73780251 
18.4726524 0.0214358103 -12.3442287 
13.908186 -0.11243476 5.99712658 
-16.3139458 -0.443498939 6.68110514 
13.6293449 0.529973865 -6.04119062 
9.16137791 0.230983689 -18.9491253 
-16.9423275 0.0800321475 -16.1003704 
-8.9910717 -0.295332819 7.5616889 
7.82636929 0.279350579 24.5333481 
9.88243484 -0.278016359 7.64001989 
-22.2749252 0.242409751 -1.9357779 
21.8124352 -0.47021085 17.5572186 
-23.5068207 0.499849021 12.069623 
2.05840921 0.0118134506 -3.63039637 
-11.7819176 0.710100234 -19.1046009 
10.981061 0.0983962789 -15.8483772 
20.3203239 0.0565422624 -3.58302641 
-0.872395039 -0.0822681934 4.31360674 
-13.2914963 -0.501270592 17.0523891 
2.70718145 -0.077778399 -1.23013175 
-21.6037464 0.201044604 -2.11284733 
-7.06296873 -0.0772710219 -4.94370413 
-8.18484116 -0.600298703 18.8299484 
-7.74952412 0.00594950654 -15.7333841 
-4.17239332 0.0245158635 -8.53572845 
19.0082302 -0.00472094771 -3.00801229 
-14.1892662 -0.345971882 -1.19807351 
23.4841862 0.721445322 -22.27878 
8.6713028 0.346998125 -16.0075855 
10.0610857 0.125515357 -16.5231209 
-2.15572143 0.336531848 -5.04214811 
-14.4331703 -0.132865593 14.9236336 
16.8113499 -0.349011958 5.17786932 
3.48941255 -0.194150001 -2.709553 
3.78048849 0.19895938 -16.2247505 
11.9383507 0.371096671 -8.87141991 
9.61813259 -0.288817018 -4.72556019 
-23.3666916 0.00770123769 18.9677887 
14.6897106 0.108935453 1.90889299 
-17.5379543 0.292292714 -12.1408644 
18.115078 -0.117631868 -15.783433 
18.9754772 -0.611265123 10.4703093 
1.15169382 -0.194695726 4.13272047 
-10.7470798 -0.537427723 -2.95417738 
-4.61855221 -0.0941015407 -11.0014267 
-12.54953 0.320946157 -12.830719 
-12.7406015 -0.44494611 3.90673256 
24.1456833 0.0932210609 11.0725822 
-13.6503954 -0.479115337 4.09902859 
10.1972418 -0.275245279 9.65290833 
22.9623871 -0.304121733 17.5955353 
8.412714 -0.0473476164 15.1697569 
12.5223942 0.599306703 -6.66625547 
-18.6924572 0.188894838 10.1279039 
-10.7220831 -0.623460054 -3.30930352 
20.8630562 -0.157525584 -17.8560925 
24.7879868 -0.107021369 -4.75902271 
21.4113503 0.0217262916 -23.8668499 
10.0887299 -0.115113012 10.7932072 
2.01616573 0.501737356 19.4165325 
-21.1608276 -0.438240677 -18.1149597 
17.4803696 0.0566123053 -11.677907 
14.8329563 0.0942792296 -1.46588957 
-16.313858 -0.402769625 2.5526464 
3.24565768 -0.140250549 -2.83374834 
7.39679909 -0.385270238 -4.40005016 
17.8316765 -0.0419646464 -12.6056118 
16.5933876 -0.128400087 8.92965031 
4.61497402 0.287634432 -24.6406384 
18.5137901 -0.0518219955 -13.9976721 
18.6902122 -0.169827893 19.5206738 
-22.0721722 0.422384769 1.05734754 
13.7750254 -0.246658936 9.7553854 
-20.5230808 0.559012532 13.9520693 
-0.0926965773 0.171706945 10.8810225 
-0.292436391 0.175688699 -5.65651131 
-6.78698587 -0.078640312 -4.97748947 
-9.86967754 -0.287813336 -8.1423502 
-15.1093769 0.525952697 -17.2753792 
13.4919271 0.844674706 -7.67795563 
-22.8176899 0.235997513 -3.97314644 
3.6370759 -0.331738472 -6.86567068 
-2.41801429 -0.630981803 -23.9618855 
19.2471676 0.120000906 -17.5938663 
14.8398323 0.543342233 -11.311018 
9.37564087 0.351253569 1.86984563 
-23.0577126 -0.0562185682 23.6798229 
-0.389751136 -0.125277609 4.26716137 
19.5656319 -0.783646643 9.94517517 
-13.5170326 -0.0670859143 -7.86028242 
-7.81993437 0.0404433832 11.4361706 
8.97213554 -0.174635723 -3.1605196 
-24.0451756 -0.067351386 -4.71076298 
-20.8510094 0.472919345 16.4373531 
-6.43103123 0.198759779 7.85168028 
5.58670998 0.261337399 -16.5622101 
-14.4085484 -0.12027131 12.0130758 
7.35238743 -0.00224600453 -13.8925562 
-17.2926331 -0.344727427 7.58534098 
23.5736561 0.423152089 -19.0902176 
19.5954323 -0.538005054 12.713975 
-3.83930945 0.0666654035 -6.98967552 
23.7064667 -0.791505992 -10.2862377 
13.3278847 -0.165086567 -18.4317989 
7.02139425 -0.0782436728 12.1598139 
-8.09731865 0.503099799 -10.5419436 
-14.1288719 0.0272552129 -6.47003698 
21.11203 -0.561929584 10.0550737 
-16.5347881 0.178232059 17.6151829 
-14.3352499 -0.129850119 18.835928 
20.7136478 -0.765473485 11.1268272 
0.21946916 0.0541729815 1.5010581 
10.9527979 -0.00889813807 -17.8216743 
15.7260437 0.0518430732 -0.796702623 
-3.79332066 -0.167216972 6.95528603 
4.52661991 0.100403711 21.7990665 
24.4708195 -0.536322653 -11.8443813 
20.1555176 -0.0804119185 -16.6632576 
22.2941303 -0.000171056017 7.78530264 
-22.3466721 0.485444009 1.44940734 
-19.6950169 0.426224262 17.1739388 
19.2115993 -0.0292618219 -15.6861868 
21.485178 -0.0860212818 -15.6894464 
1.36304832 0.108420238 12.4942122 
3.5037086 -0.3586815 -10.9155169 
24.8466015 0.384438068 -0.543030798 
1.66304541 0.437826514 18.92103 
-23.9423656 0.717715085 9.25308132 
-18.4961987 0.0464938134 -5.17045355 
-22.6029758 0.227182329 -2.78034425 
9.32133198 -0.12170279 11.2167387 
-20.1868324 0.229726389 3.80973983 
-20.1367435 -0.0769274384 0.161465406 
4.14575624 0.338948905 8.09949875 
-5.99613333 0.104849964 8.79659462 
-2.55136251 -0.650699794 -20.5233631 
-22.7861443 0.911493361 7.03354836 
-14.9626093 -0.391755849 0.378775328 
14.985527 -0.408647716 17.4804745 
-9.10033989 0.621368349 -12.6372557 
-4.87183571 0.163514286 -4.88387442 
21.4731922 -0.577506661 -13.2894526 
22.038166 -0.7564798 -9.52607536 
21.6931152 -0.106357783 -16.0740376 
-8.598279 -0.394375324 13.1279812 
-20.1980686 0.00110493088 -12.3544884 
-10.1562071 0.590077698 -13.4333811 
21.8956623 -0.271790385 -5.70067549 
0.360876024 0.047655452 15.7335949 
-12.3731012 -0.318301648 2.21077895 
-23.2512474 0.937590301 4.95364571 
11.8108149 0.269949675 -12.688138 
3.46897006 -0.360547751 -9.05033302 
24.5731888 -0.24725014 -15.5175638 
-4.48696756 -0.2868388 -16.3890247 
0.68249476 -0.36886394 -12.0953255 
19.1237183 0.0320263915 -1.41099083 
23.0627708 -0.226467699 18.4720211 
