ply
format ascii 1.0
comment created by gply, a Houdini tool.
comment converted from .[b]geo
comment for more information about Houdini, try:
comment www.sidefx.com
element vertex 1269
property float x
property float y
property float z
element face 0
property list uchar int vertex_indices
end_header
-3.20885491 -0.203686029 6.90613031 
-20.8929462 -0.0424478911 -11.683774 
18.3978443 -0.404285729 1.29028356 
-3.78122091 0.0690070689 -8.77611542 
-19.0742359 0.260652781 -6.12817287 
-13.8494024 0.122725479 -8.41354752 
11.6543465 0.096590586 5.43052197 
13.8178806 0.713729262 -10.6086264 
-3.7722981 0.0656272545 -10.183075 
-17.9812794 0.539448619 14.9192295 
-15.5577717 0.366322428 21.3561039 
-10.127017 0.406583995 -18.2461643 
-21.9289379 -0.229954123 23.6432743 
-6.58358097 0.0687324107 -3.3098042 
-17.9745331 0.0386665352 18.2915897 
-1.80518794 0.106568731 11.2700081 
-5.84711266 -0.140890375 -15.3377638 
20.0810642 -0.151231244 -13.4699125 
-6.49320221 -0.0298300404 -3.81557655 
-11.5253801 -0.65822649 5.56762934 
-4.58493996 -0.125831515 1.43230784 
8.92987823 -0.199929968 -2.9878242 
-4.02427006 -0.25995779 -16.0884609 
-15.9053335 0.238806367 17.570076 
-20.9762592 -0.203629151 24.9654598 
-5.60749102 -0.115265414 0.915858924 
1.27515936 0.104746804 13.1501226 
-2.41779304 0.333981514 -3.08768368 
-14.1447182 -0.414124936 -1.83749247 
-10.403739 -0.558602095 13.0920134 
20.5247478 -0.172416523 18.5773125 
-2.43548083 0.496596754 17.3659153 
0.380032718 0.216639325 13.3630171 
-17.2846966 -0.068361938 19.8959732 
6.73938227 -0.486140519 -8.77286243 
12.4547253 0.0157628655 8.83265591 
14.3762474 0.68266046 -7.87118387 
-7.57582283 -0.347984552 -19.0325317 
-17.6659718 0.0293088183 13.1679258 
-10.1496496 -0.400784105 -0.0390380062 
24.1587601 -0.0164046939 -4.53742647 
9.04042053 0.218523383 -16.545208 
13.9690771 -0.127172858 13.8498659 
0.478435159 0.400632888 8.92921162 
-9.40705776 0.223366097 -17.4122391 
-22.1017303 -0.207449391 -16.68116 
11.9280272 -0.114324227 6.90486145 
18.1059132 0.10126885 -10.3889437 
5.8155117 -0.0589102656 -1.75713742 
-3.44041777 0.40059939 16.5177288 
-20.3916779 -0.0307059325 -7.72465706 
23.8907127 -0.354508221 -15.1904497 
-9.43824291 -0.164763927 2.24334073 
19.5965958 -0.0371418782 -14.8531208 
12.6280689 0.101406574 -14.1795759 
-11.7275543 -0.44809702 -2.38947082 
-24.2848816 0.641079545 4.94628859 
-24.8675861 0.522842705 0.891917944 
2.42053556 0.407678843 5.9980526 
17.7988205 -0.0951388553 -13.0709496 
-3.14881396 0.328735977 17.7644024 
-15.8401804 0.285301208 -13.2683592 
18.4353485 -0.00871595088 -16.1648006 
12.6901054 -0.00395343686 10.43472 
15.4992352 -0.0402728654 13.4272175 
1.03042305 0.588455856 22.7890587 
-16.9718952 -0.517050505 -2.97477388 
20.594389 -0.412148356 3.56364512 
16.613245 -0.317339987 7.32801151 
11.6605721 0.0935974345 19.261797 
6.58473825 -0.543571115 -10.3763523 
-16.1866932 0.104500666 11.7932558 
22.0266838 -0.941019535 -11.1621542 
20.1431465 -0.549988389 12.7428865 
-15.9550734 0.0927280635 13.7603216 
-8.2625351 -0.220894843 -6.56553841 
-21.2093086 -0.446214616 -15.2781096 
24.6017609 0.319606483 -19.3916187 
-19.2521915 0.444506824 -9.87894821 
-7.32277822 0.516347468 -12.8526773 
-9.30792713 -0.457486361 10.3826275 
17.5609589 0.24289234 -9.3625021 
-0.0246191919 -0.0842000246 4.86550426 
5.88070536 0.036170911 -0.161118448 
8.69155693 0.287231773 -22.260643 
-19.2469921 0.207283571 -11.3655863 
16.3132648 0.208259657 -11.194458 
14.1259089 -0.236999124 8.27439499 
-15.774086 0.193669051 -6.30506897 
1.00246096 -0.192355201 4.22972012 
-10.3390427 -0.531226575 7.00981808 
-2.94079304 -0.289110929 -14.5663147 
-2.25279999 -0.117275834 9.30158043 
10.1969633 -0.193027169 6.92504883 
22.5949402 0.215218991 3.27803946 
-1.76535714 -0.13132 7.71190691 
15.3692932 -0.0457042903 13.6747313 
13.1606312 -0.137029052 -15.0179605 
-23.9546223 0.0889361501 -17.7763538 
14.8291073 0.256545752 -3.03933716 
-13.9398003 -0.3498936 -2.3006506 
9.96886921 0.309680134 1.8412329 
5.70291424 -0.593565345 -10.1627865 
-10.3532743 -0.548266768 6.74254179 
9.03652954 -0.342503369 -7.49602652 
7.53494358 0.0198014248 5.76940966 
-4.13397217 0.0117564481 -8.10845947 
14.9523525 0.655867815 -10.4815578 
-0.608608007 0.258262277 -5.33786106 
21.0538673 -0.842386425 -9.98161602 
-16.9094315 -0.351278156 5.88105965 
23.7775021 -0.449521333 -7.57720375 
-21.0734653 0.241358444 -0.845666528 
-22.6588173 0.515274048 1.21551275 
6.1273489 -0.133389145 5.2514019 
11.2192755 0.176788181 11.7518692 
-17.9061108 -0.196735859 20.1005611 
1.1343956 -0.423370689 -11.4140053 
-5.16252041 0.0587672591 -4.47986269 
12.0954466 0.0419948846 14.343462 
-10.5754871 0.126902983 -9.59420395 
1.4649899 -0.10477519 1.81271458 
7.87698412 0.396312118 -18.9510612 
10.4153843 0.328672409 -15.0889139 
-4.92005539 0.150902987 -3.67243075 
9.17393875 -0.0202683508 -12.9114208 
23.940836 -0.756126881 -13.3088465 
-3.99982357 0.295741528 -4.95362377 
-3.77020121 0.193214461 -5.26709318 
-21.2245674 0.177776545 -1.72245407 
-11.8137827 -0.557650447 -5.54616833 
-1.13348508 0.151586697 12.754796 
-13.8307648 -0.221598461 8.86692047 
-12.3387032 -0.426481098 3.98650789 
-19.9090824 -0.0877036154 19.8412189 
-18.3796673 0.456158906 15.3215141 
-5.21917248 0.0655459613 19.1552544 
22.8998165 0.109341256 -0.661643684 
2.89202881 -0.264218092 -14.305274 
14.9889336 -0.0659481883 13.7623577 
25.0325356 0.562084734 3.63176441 
17.40481 0.179689139 -2.91924429 
-15.3637524 -0.768710911 -1.60441732 
-8.3546648 -0.174773395 11.6930485 
-18.3521461 0.400662154 -8.36002064 
3.1391201 -0.401315838 -6.24803257 
-9.7820406 -0.568578362 16.9177074 
-9.22047615 -0.334453225 -7.16866446 
-18.6445713 0.498304129 -8.99243069 
0.944458008 -0.0609403327 -1.7983067 
1.18078947 -0.420449615 -12.7778053 
2.23297572 -0.205004409 -0.201724365 
25.2885017 -0.384762734 -10.1397724 
-15.4018793 -0.0811623782 15.8327684 
-11.4297028 -0.519175231 -5.44695425 
24.1914654 0.533518672 7.08077955 
2.90582132 -0.225527525 -4.97836971 
-23.8157635 0.705020666 2.80907679 
7.00756407 -0.34766978 -12.6328211 
-12.8950167 -0.268711448 -2.71476364 
-21.1052761 -0.349167079 -15.8906794 
-4.08545685 -0.237479806 6.99865103 
-22.4149685 0.181475371 -5.08523464 
15.4140491 0.373346925 -12.2275639 
-13.6527281 0.480887711 -18.9213696 
-3.19847631 -0.119004667 8.89002514 
10.6799622 0.339921445 -12.7458324 
14.8344765 -0.335102051 9.44114685 
17.6122856 0.137419492 -6.81316137 
1.17417967 0.256844968 17.5476017 
0.251507074 -0.494378358 -16.435791 
-7.12157106 0.00787454471 -5.6196022 
-14.0100784 -0.228837296 -3.7068727 
-14.807848 -0.367806882 6.52372503 
-3.48721266 -0.26561591 -13.3068838 
5.28846025 0.199468598 20.19627 
-24.2627831 0.572481275 0.920754135 
12.3101254 0.00658054743 -14.6976519 
-11.0703878 -0.523346007 4.15710163 
13.5440226 0.4037413 -4.77897453 
-13.5942402 0.482465535 -17.6501503 
-16.4118938 0.140707776 -8.14008617 
19.5160675 -0.295540452 18.2198505 
-3.18106008 -0.0456884615 -7.54942179 
-22.512455 0.752458632 3.09329128 
-16.0095367 0.00235057366 10.7255001 
4.32170153 0.335624427 20.2488365 
-21.9532089 0.0326258093 -7.14547396 
21.5478058 -0.0990726724 -14.9501305 
-9.41708088 -0.267353475 3.97660613 
-23.4337673 -0.193783686 -10.4358282 
-15.9535618 0.06959185 -5.45795965 
8.8992939 0.386868149 -22.6733761 
5.4239459 0.308011681 17.8957882 
11.8543568 0.418599665 0.56392473 
-4.76125145 0.160420865 -2.51336694 
-18.2977219 0.134055316 -5.99148607 
-5.94356298 0.175926939 -9.98647213 
-18.0663471 -0.304878861 -0.938890338 
-16.4309616 0.182325065 -15.1176243 
24.7426739 -0.0966782719 17.3484097 
-8.59171963 -0.193041742 7.91140842 
-8.79978943 -0.266923726 -20.967495 
18.1328106 0.0212126058 -1.39479148 
-22.1699238 0.681961894 10.0092554 
4.03344679 -0.0648875833 13.136693 
5.82291889 -0.473236591 -8.35268688 
-23.4474125 0.100264445 -3.93310189 
-13.2059813 -0.487790227 5.90195084 
-24.429636 0.578994989 10.0365105 
-18.6664906 0.00789902732 5.20729399 
-13.7321348 0.211765438 22.0481052 
4.01463413 0.169410318 -24.1405678 
19.2221184 0.076306425 -3.99240875 
7.54104996 -0.0729280338 6.22529602 
9.48703289 -0.0771917328 -1.85398233 
24.2694016 0.106377184 11.1262779 
10.8335085 0.0812556744 -5.04848242 
-22.1963081 0.916081131 6.57153225 
-4.14777279 0.22031343 13.6383953 
15.1622372 0.171787918 -0.0366952643 
-6.42084789 0.121079996 6.87884903 
-22.7004337 0.794950485 5.01625729 
7.25533295 -0.544632733 -10.4935646 
-19.6411896 0.254805624 5.02437639 
13.2316628 -0.00531763863 13.9869957 
23.3332233 0.144441992 -3.9321208 
6.31419992 -0.442260832 -11.2994156 
-5.15270472 0.117077291 -8.03446198 
-14.1687832 -0.278489828 -2.59430027 
-2.77895355 0.171655074 -4.51247215 
8.27042961 -0.363403678 7.37381649 
23.9060841 0.322610676 5.88286829 
4.70208359 -0.0649477094 1.70753646 
-0.393266141 -0.407562554 -17.5693207 
-22.9612751 0.70455724 3.7047472 
0.96871531 -0.0303859096 -9.57118893 
3.28228402 0.11610245 -19.1390381 
23.4506817 0.269539505 9.37106228 
0.86864841 -0.0959609747 -4.69362688 
22.5101643 -0.366709739 11.7677202 
-20.4797421 0.239240378 17.502903 
21.9467735 0.012713871 -1.84027493 
17.9339161 -0.195329964 -15.7015676 
3.58688188 -0.343887001 -9.17132282 
-20.7552948 0.0926751792 -3.09934044 
19.3087559 -0.497479528 14.797739 
11.4301939 0.296793014 -12.3603125 
-24.1823559 -0.187988624 -10.2694273 
-7.78166103 -0.627100766 18.0794449 
3.62762213 0.493109554 6.9150176 
-3.68021059 -0.122127376 9.57223892 
5.03117228 -0.301142424 -5.27052736 
21.4180336 -0.610832989 13.5826426 
-8.47832775 -0.102725208 -7.85242081 
-3.34147525 0.468002468 -2.62782025 
-6.97988701 0.417911351 8.6694088 
-22.455431 0.968514621 6.73145437 
-9.72864532 -0.362257659 -6.74125814 
-11.7081213 0.362807214 -11.7821589 
-11.8550014 0.671334684 -16.9488087 
-0.602261782 0.558662415 19.1439743 
-11.5310926 -0.626338124 12.4937868 
-9.50740623 -0.5238837 8.60122299 
-20.8405113 0.400831133 15.4915419 
-23.1916637 0.593081355 2.64813375 
-13.0456734 -0.485492051 6.26331282 
-5.97174788 0.151075721 -9.85550404 
-18.0512962 0.317320228 -6.95773458 
5.4197588 0.35443157 -19.1253338 
-16.9288235 0.297762662 -12.8477392 
14.0056171 0.32392779 -1.51852524 
15.8923006 0.131169841 0.638644695 
-9.2095356 -0.319514573 -1.12226975 
-11.2228765 -0.23204039 1.58167851 
-19.3984394 0.162525415 -5.06228924 
0.342402995 0.0972485542 -6.31364346 
9.89540386 -0.243817732 6.93365097 
19.0247746 -0.111251518 -5.56864309 
2.58562565 0.341810971 24.6489429 
-22.1820736 -0.303706437 -17.8912697 
-6.0680995 -0.0281462874 -4.79021883 
5.41352367 0.0638406053 7.72244978 
-16.583128 0.00726537313 13.0130081 
6.8668251 0.168789744 13.7511282 
8.28713036 0.38877663 -24.5076809 
-22.2535381 0.250381023 17.5097446 
3.80720496 0.0431881398 0.544567704 
17.9076786 -0.284770548 6.83268404 
7.50213861 -0.512502253 -11.7652588 
25.2066517 -0.0529392995 -7.23760462 
17.2708473 0.290373266 -9.44485474 
-7.40069628 -0.0332280956 -5.23021841 
0.218405023 0.0381501764 1.35680616 
-12.9160738 -0.214491367 1.6826911 
-15.0173922 0.301684439 -15.1514778 
16.3371029 0.273862958 -8.98487282 
-11.3548565 -0.104707018 0.731834173 
23.1500473 -0.235280186 17.5188484 
-22.9618149 0.20795539 -3.50707841 
0.108861305 -0.138326123 4.03246117 
19.8733521 -0.160862684 -14.3224096 
14.3376379 0.761004865 -10.3655806 
25.2854691 0.104029402 15.109148 
25.1715946 0.65511024 6.80187941 
24.4641171 0.337721497 -0.165930957 
7.01453495 -0.500457346 -9.23256588 
4.58626461 0.0676589012 5.24741983 
-8.49233532 -0.26350227 -2.82391191 
15.4440823 0.450922787 -11.6659241 
-5.39647198 0.140552029 -1.79249501 
-15.4152069 0.236653894 -7.01865768 
1.43725824 0.0796638355 13.1038542 
-20.0156956 0.107749552 -10.5056152 
2.24654436 0.416982651 17.6322823 
-21.7386856 -0.24437508 -9.62758732 
24.8770752 -0.069537133 -16.7002411 
15.322032 0.561813354 -5.18632555 
-11.1356287 -0.333114356 22.2455578 
19.1944122 -0.545420527 1.81166255 
-23.4014435 -0.0398217589 -17.9776497 
8.62746811 -0.344748944 -10.3797417 
-13.7264729 -0.216837361 7.85977888 
-18.8692646 0.192302674 5.75467825 
-1.23579073 0.0591764487 0.0674700439 
1.98315263 -0.365240067 -8.23605537 
-19.7466583 0.381554842 15.207799 
12.2683878 -0.0727145001 7.01575518 
-13.0139551 -0.320680946 3.18211126 
20.23843 -0.0637554154 -15.3170919 
-20.9888248 0.17480585 1.85629547 
-1.47529852 0.123809621 10.8511267 
14.7821388 0.175049126 1.37960649 
-6.53745699 -0.0555781014 -4.5315547 
23.3953056 0.63446337 -23.2422657 
-4.69033241 0.0211129487 -10.7626734 
21.7103424 0.0261401553 -2.48735142 
-12.2629585 -0.710189044 10.5972834 
-15.5401869 0.125653684 12.9480543 
2.37657094 0.343318522 7.62025547 
-22.5782223 0.170670763 -5.75005341 
13.3807669 0.0290083997 5.62859344 
-12.9009523 -0.399070859 12.933341 
-6.33176184 0.0951490402 -2.0623672 
-20.9382038 0.793115377 5.48608017 
-4.80749321 0.058641661 -9.37810802 
13.0268803 -0.378122509 19.9028931 
21.3370304 -0.660066187 15.1429939 
10.6469717 -0.0432752334 -18.7403526 
-5.11033726 0.0014077425 10.4218922 
-13.7868624 0.398268253 -12.4710541 
20.8585224 -0.0709423423 -5.37874031 
-22.3498116 -0.279446274 -10.3708906 
-0.594792008 0.420149148 17.1983051 
-19.9682026 -0.0742847547 -0.338939697 
-0.724311471 0.0953978971 -7.88550329 
-20.376709 -0.486245453 24.4999924 
24.5878258 0.516798913 6.63848686 
-20.6806812 -0.320908874 -14.9589586 
-2.83711958 -0.178046376 5.85439587 
-6.1321888 -0.0708001703 -14.1739321 
12.3303671 -0.263776183 -16.4545975 
17.0947475 0.306951791 -6.52855968 
17.204361 0.364770919 -9.72956371 
-17.5860271 0.305148691 -8.92296028 
-15.943037 -0.509536088 2.29988241 
8.45924854 -0.390115619 7.08883142 
-23.9662476 0.237141907 13.8470783 
23.2465096 0.584222674 -22.300745 
-23.2711945 0.501142681 2.25034952 
3.06650448 -0.0449543223 1.28072131 
-20.025547 0.533440948 13.7468672 
-4.04109144 -0.0908729807 4.802773 
7.23417902 0.0764885098 13.5638685 
1.02692282 0.623264432 20.4953823 
3.16569734 -0.299816072 -10.1334839 
23.5519371 0.355374575 6.33662558 
4.03827858 0.381284863 7.35394192 
9.64396381 -0.0224680062 -12.2056608 
-8.86274529 -0.360597551 -1.93300927 
0.479957908 0.0621943064 1.169891 
18.0302143 0.142675683 -10.674901 
-20.8512478 -0.466928214 -17.5347462 
-9.04707432 -0.20527485 -7.99015379 
-5.2571826 0.107329383 -10.1193523 
3.30690241 -0.389940292 -7.42864132 
-11.8675346 0.41296947 -12.4514751 
17.8464184 -0.274524808 6.50982046 
17.5525665 -0.155136228 7.46462774 
-2.22372675 0.608767629 15.2402306 
-8.38517857 -0.277371347 -3.52628994 
-3.82265282 0.29222846 -1.60388589 
-16.4302025 0.0367597193 10.9185238 
-21.0562363 0.449560136 12.0571489 
11.2603683 0.418994725 2.00427055 
11.4837313 0.216356933 -14.2784443 
-8.12077904 0.0252153352 -16.5047684 
-5.84229088 0.359535605 11.5210514 
-16.6959057 -0.00665517338 -16.8465195 
17.7482281 0.170601264 -5.84005308 
3.55732083 -0.137748346 -13.3101091 
-15.9635506 0.0849015489 -5.63409472 
17.8835716 0.113409325 -11.8451567 
18.9007988 -0.503785789 3.07308578 
14.0421228 -0.335823715 17.1587601 
23.5970535 0.45708546 6.90272284 
-18.3940945 -0.00307420641 -2.136446 
-14.1446095 -0.291204721 3.86795473 
-24.6921768 0.16622138 14.419548 
-7.64796019 0.600609124 -12.5314598 
-3.79580045 -0.0884352028 3.27753234 
15.3405504 0.316978037 -12.8729887 
-5.16876221 0.0508847386 -4.93750334 
11.768651 0.427128255 0.77011323 
4.660748 0.19549194 21.0408726 
-6.47880316 -0.0330408625 13.3048391 
0.790800333 -0.0219405927 1.89497876 
9.5171442 0.022578638 -1.06801105 
15.4635801 -0.0738292336 -19.8013344 
-18.2585278 0.372604311 -8.09199524 
22.9656353 -0.253602505 10.6579762 
-10.3448324 -0.376792282 -0.135677308 
23.17523 0.263885081 7.7852993 
21.3952694 0.00785504188 0.370922804 
22.0678024 -0.27171129 -5.45327997 
-10.6432362 -0.667134821 10.9643946 
-14.2599993 -0.0110008735 13.9515057 
-4.66847467 0.154249549 17.9200115 
5.48311996 0.0367871821 -1.94097316 
-23.9498577 -0.0361913592 -4.07352018 
-4.65442944 0.112440452 10.7813768 
-0.455176532 0.226507694 -5.40673161 
7.96954536 0.0489597619 20.6157265 
-16.5723095 -0.395354301 3.09775639 
-20.8150673 0.494390875 12.0349159 
6.74171066 0.044820182 2.82352614 
-6.81077242 0.07579384 -3.23302913 
5.36769772 0.0466571636 9.99163151 
-19.3418369 -0.0767856762 -1.51386499 
2.45116353 0.0295956787 -1.61993265 
13.9629803 -0.12173073 13.6880035 
-15.6169252 0.247047842 -18.5718403 
8.81366634 0.0518038124 4.89223814 
0.936988592 0.16861558 10.1326828 
-19.9147243 -0.185243353 -1.64591861 
7.91915083 -0.462254643 -6.52517462 
-11.3147421 -0.586949825 16.2410336 
6.67696667 -0.267065883 11.3940611 
2.52951789 0.414149553 16.8924694 
20.0592785 -0.523380756 -9.83660984 
-18.3340206 -0.0215350203 -2.36915684 
24.9577923 0.660259366 9.10502911 
2.63582063 -0.201270014 0.625322878 
-6.81852484 -0.00292608608 -0.951255679 
15.4381256 -0.259946823 6.21598625 
-14.4953213 0.528262377 -14.8034725 
-12.8199892 -0.540626526 5.91101027 
17.3579578 -0.275719404 6.80198431 
13.8076973 -0.148938 7.09538651 
-21.887207 -0.344583422 -12.5523882 
12.1357536 0.196914777 3.91470718 
-5.29131794 -0.124701917 2.66187978 
9.50564098 -0.274837881 -8.91208744 
15.6822405 -0.353644043 7.92737103 
25.0966167 -0.334503859 -9.117033 
-23.2082462 0.860880911 5.37414026 
6.91494226 -0.55648005 -11.1140308 
20.9240265 -0.811498463 -10.1129112 
-16.4517136 0.221588254 19.7682228 
16.4042149 -0.0514880754 13.4059696 
-6.3675952 0.0162075404 4.17647696 
-22.8072109 0.319361717 -1.3643446 
21.4809036 -0.0495823286 1.10133708 
1.97626078 -0.375853837 -10.3849173 
-10.8051243 -0.573957026 19.2612648 
-4.82679749 0.224293694 -7.34798384 
-12.3233204 0.0855307057 -10.2162657 
-8.35411549 -0.575682998 16.3756046 
8.53519344 -0.180586383 10.2997351 
-2.55051923 0.150846735 0.0113460571 
15.9017611 0.456060559 -6.20150089 
11.3029156 0.0103880381 10.4745674 
10.9020252 0.349523395 3.57860017 
-7.66181755 0.534980595 -9.27942085 
13.5698767 -0.22380197 9.08880711 
13.9347191 0.209560439 -13.6849852 
-4.25654459 0.181678817 -1.06742239 
15.2822018 -0.281175911 9.92233467 
11.0539541 -0.0617020279 6.3312459 
6.47290611 -0.264809132 -4.22083187 
7.19018698 -0.139401644 2.27180839 
8.01330566 -0.356286258 -4.07913303 
-19.9955463 0.0861486495 -4.64552069 
21.3481846 -0.305606484 3.04953098 
13.001132 -0.112144768 8.07715988 
3.1905117 0.159618855 15.5223598 
9.93832397 0.264821112 2.15269876 
3.61313152 -0.411841244 -12.4068203 
14.8137569 -0.0438872539 -14.2096281 
-20.2577801 0.337578148 14.8155422 
-16.222374 0.0998225287 -8.07916355 
-13.7905769 -0.273362398 18.6629162 
5.0339098 0.089622505 6.04892588 
10.7137127 0.324869424 1.81729257 
13.3922491 0.941379189 -7.82179213 
8.71113205 0.0420225821 0.714274108 
18.4594364 -0.127775878 -0.449375093 
-24.5223942 0.669254184 2.32461905 
-17.716116 0.0179399848 12.1467037 
1.19058669 0.182281256 10.1975708 
2.38574457 -0.151100248 -0.633849502 
12.5561533 0.339015067 -12.566371 
-10.7893972 -0.24843128 2.15811563 
-18.1584587 -0.149041846 5.93784094 
18.7204437 -0.0306932144 -12.9347172 
-9.35000896 -0.21678856 3.864815 
-10.2599039 -0.659764826 -3.76656389 
10.4054308 -0.0194492247 11.9350939 
4.92035913 -0.132842511 12.7980509 
9.64452171 0.281890035 1.26784694 
23.0694218 0.192887127 8.39700985 
7.59478188 0.225264609 -16.1498318 
-21.1946964 -0.108513325 -11.0206375 
-21.3393269 0.362250149 14.5214119 
12.0639305 -0.0123994611 8.79977417 
7.96795416 0.00477107102 13.9116631 
-4.89708376 0.148750648 -5.52263641 
-13.3671379 -0.351168573 6.7423296 
-12.4736624 0.212188348 -12.4300241 
-9.09356785 -0.0899400637 -8.9918232 
12.4396133 0.342531443 -1.94774139 
-22.0863609 0.719777882 5.47374916 
17.495018 -0.28339237 18.6164055 
-7.5555172 -0.0897567272 -2.40457153 
6.25067472 0.466878235 24.2480965 
-7.76766777 -0.315794528 4.37969446 
-13.1367216 -0.482273102 17.3900299 
25.1829319 0.106814764 12.8827419 
24.6434364 0.70426023 8.88994598 
24.4301586 0.738241196 -22.8896599 
13.4481993 0.481577814 -1.27921748 
18.7626476 -0.108930245 -0.683122396 
7.88751745 -0.446874976 -9.0540247 
12.9245291 -0.106551133 11.2901459 
17.1079807 0.109087765 -3.41875648 
-24.7702789 -0.00858770777 20.7035027 
20.0506859 -0.0735640749 -2.3428061 
-4.99221277 -0.16518788 9.49048424 
-24.7861195 -0.23187995 -8.11532879 
23.0172081 0.1498781 -3.97070551 
12.0138016 -0.0559153818 7.92129183 
10.7661648 0.337813318 3.53485656 
-15.048665 0.576197743 -11.7385883 
24.4406567 0.5750072 8.83005047 
5.07948685 0.186927319 8.45629025 
13.6119928 0.0460886769 12.9196177 
-0.422877491 -0.0803254917 2.22464323 
-22.8124008 -0.165151 -9.51016426 
-17.4908619 0.226851285 -12.7519159 
-0.655566096 0.109438471 10.1534662 
23.7083626 -0.657033145 -14.2150249 
-13.3661432 -0.303186238 12.7451839 
-7.55495787 0.449366838 -10.6318464 
-10.7362556 0.186386272 -11.081131 
4.11246443 -0.386347175 -7.68620014 
18.8343658 0.00282506482 -13.9677134 
16.0999012 -0.360314786 5.38195086 
20.4897881 -0.643101692 8.25303364 
-16.9729748 -0.394339979 7.04602432 
-21.1135902 -0.0769169703 -6.68908882 
24.5857525 0.51073277 4.88124466 
-24.6386089 0.609969378 10.599987 
22.0175743 0.0949440524 -3.94658542 
21.9752655 0.247277826 -23.7912388 
5.73703432 0.356881529 -17.2363415 
24.871912 0.618485093 4.77652597 
-0.74343729 0.183913842 12.6544113 
-10.7155476 -0.403840095 3.00281596 
-16.0058556 -0.449578285 8.80722332 
14.2982864 0.71737957 -8.35224724 
10.9255772 0.0975756496 -16.1553669 
4.58781099 0.134376168 11.6262827 
4.26008129 0.202365831 -15.8452682 
3.33027077 0.438763738 7.66499376 
16.77705 -0.210716337 -22.0967216 
2.55156326 0.372071683 7.39305735 
15.3476553 0.406577736 -3.63775516 
9.68966389 0.138671935 -14.6717072 
-10.1868219 -0.606761992 7.82582188 
-21.6538372 0.0927220657 -5.45536089 
1.95817471 -0.118243881 -5.72341299 
-1.13431156 0.0225416012 -7.93297768 
-5.98333549 -0.0163650438 -6.29901934 
-23.634346 0.510530531 1.35244262 
2.51742911 0.393315375 17.4658051 
-10.9028368 -0.289488047 -0.521952152 
20.0003777 -0.0758987814 -20.7714329 
-5.53600836 0.0810644478 -1.03974545 
10.3099518 0.138890281 17.0975227 
-17.3770809 -0.226995841 8.54006577 
13.1422033 0.263663262 3.9980135 
9.17247677 0.096965462 13.1058655 
14.0890017 -0.104696311 5.30156422 
15.1549025 -0.428140968 17.5701351 
25.1440296 0.625442624 9.21604252 
-17.0783958 0.116706774 18.8924885 
-18.8236103 0.18600291 -12.7342281 
-4.98056364 0.157491311 18.4427757 
13.6481848 0.315060019 -2.69837666 
-14.7477741 -0.337010354 8.12404346 
-6.2812891 -0.0839321464 15.5643282 
-21.4064751 -0.163922474 -12.6633101 
-22.2737141 0.303747386 12.5764599 
2.51307917 0.321276397 15.8755436 
-4.33778381 0.257701606 -2.07745767 
2.63533449 0.361559212 5.66474104 
1.42653465 -0.350526929 -10.9232597 
3.04562426 -0.0394188389 0.443937331 
-18.7332287 0.53807503 -9.4096117 
-24.6532612 -0.0225855466 -17.2633457 
-19.4228077 0.113832705 -4.75641632 
-23.2110424 0.0436110571 21.2237854 
20.0445175 -0.650155127 11.500906 
-18.0818329 -0.252357572 -2.20454693 
-24.1323032 0.0458016135 22.8488369 
-11.0477324 -0.400538445 2.59300661 
-5.25522614 -0.129263416 1.2341994 
-3.56451058 0.218074247 -0.981913924 
24.2355709 -0.0155169787 -4.31627226 
-18.171793 -0.226242989 -15.7744322 
-1.08204865 -0.00253251754 0.662860155 
-16.7873955 0.25621444 -13.2996731 
-15.0624542 0.064737238 12.9623823 
18.6301899 0.0309047699 -17.9460487 
-20.3882294 0.517560005 13.0182467 
-19.5416069 0.54990834 11.3865128 
-3.06415462 0.163686246 10.1338863 
12.0447273 -0.00316057028 12.8267136 
-18.4544659 -0.27410081 1.38929057 
-10.6163988 -0.459811777 4.56658411 
-11.7410278 -0.534124911 9.07824135 
13.8709669 0.796073198 -7.97942066 
24.7604408 0.371661454 0.00665046275 
-6.00987005 -0.0985473916 18.8765221 
-0.677713811 0.152666271 9.60436916 
-14.3782902 -0.241074026 -3.75709677 
13.9964161 0.345452011 -1.19280076 
-1.19497871 0.148309246 -4.34151983 
-3.42070222 -0.222011343 6.62125111 
12.8554296 0.767205656 -6.65892506 
19.7362156 -0.0500919111 -4.29413033 
15.7785149 0.30647552 -3.11406565 
-1.16700113 0.0197049454 -1.7486558 
-7.94487476 0.0526656471 10.5836277 
-19.4417114 -0.195285201 -3.14276695 
-24.1140652 0.287325442 13.0762968 
-3.10855126 0.142065883 -0.0451741181 
-8.6771183 -0.216208011 1.15130937 
-3.97599387 0.0257172734 -7.67365265 
7.93488646 -0.304701358 7.03185558 
2.95772171 0.353271723 7.90580463 
6.88494062 0.379869878 -22.7255249 
21.1860313 -0.574511886 -12.7786312 
-10.935277 -0.672861338 16.7067909 
-23.7857189 -0.244054735 -11.3614044 
13.4219065 0.555242062 -5.99813414 
-2.63842607 0.406272322 13.3493643 
-7.34903908 -0.060354352 -1.58019257 
2.35067391 -0.315161973 -8.36554527 
11.9600954 0.0320218019 5.8162899 
-7.48649788 -0.349362999 -18.1165695 
21.290657 -0.47757864 -7.03865147 
1.93006945 -0.230593711 1.73361075 
-11.1094017 -0.0605494604 0.620252252 
7.86919785 0.0588951744 5.13459015 
24.2911491 0.280340284 -1.58538961 
14.8367519 0.655966341 -9.59422016 
-22.5555725 0.452053875 -0.209369183 
-3.06846285 0.123963252 -5.73425865 
-23.7253189 0.504402161 -1.48130322 
-22.185009 0.238890842 12.9933262 
-21.7193642 0.734257936 4.07437897 
8.18861961 0.412908971 -19.168045 
16.8690872 -0.310596824 4.05905724 
1.74679947 0.316147834 8.15904903 
-16.0266857 -0.461231083 8.99576092 
11.6019592 0.0739797875 19.3708553 
23.0412979 -0.315903038 -16.3483715 
10.263485 -0.0536209494 23.7472572 
8.66460037 -0.411130607 8.19085312 
-18.9229851 0.293769211 10.6000919 
-15.7936344 -0.0146150123 14.3563375 
-16.0442886 -0.487911671 8.16492176 
-5.99150229 -0.0251304917 4.04222298 
-15.7825155 0.154751107 17.2595139 
7.29747534 -0.398519367 -5.86378336 
-14.95959 -0.356302708 2.02686214 
20.9744148 -0.113303579 -19.4156475 
-2.2391901 0.0436683483 10.2451801 
3.10075021 -0.411640704 -10.8480225 
-1.01223207 0.17823194 -7.17036057 
-15.6651096 0.114361197 13.0791245 
21.7387848 0.0746769831 -1.43774831 
-22.595356 0.482113689 -0.0456114411 
5.4609108 -0.00164212624 -3.42637396 
15.8649673 0.288363338 -3.15884018 
-0.758318841 -0.0222821366 -0.548945546 
-18.1436253 0.297645748 -6.84140539 
3.00413251 -0.218585566 -4.71277666 
4.52416611 0.2687141 -15.9309378 
7.64833355 -0.189247772 11.1514044 
11.0929995 0.290921479 4.41337299 
24.489006 0.526169896 1.07191324 
20.5971184 -0.111854084 -5.6385293 
12.5859556 0.498807937 -8.44117737 
12.1742287 0.0288414117 6.11480141 
9.80912018 -0.0098460475 -1.02296793 
-3.11396122 -0.335399777 -13.8231735 
-4.23075914 -0.0710158497 -12.6623039 
-9.92278385 -0.445194542 -0.48338744 
-13.7389889 -0.431037873 5.89955521 
8.05774117 0.0131051121 -14.0345154 
21.5777397 -0.310262799 18.1384926 
6.94831562 0.471436143 -21.7117043 
-21.2304993 -0.083269164 -12.6357307 
7.44734573 0.0638763905 12.9414473 
-14.1553822 -0.109834626 9.87932682 
25.2428303 0.643600225 4.6473918 
12.0615053 0.409038931 0.150287539 
18.4636192 0.0446681753 -8.50363445 
6.19566298 0.484437793 -23.3480034 
11.7526293 0.248467505 -13.2605391 
-19.0038509 0.0225684792 -0.801237643 
0.19393754 -0.106293164 -9.88077545 
0.247375637 0.239382461 13.4346409 
-18.3868198 0.181076586 -6.1292038 
-8.37586784 -0.252062708 -4.43503189 
-18.2115192 0.0625111982 13.0194025 
0.0711648017 -0.215788081 -11.6338615 
24.7219791 -0.628373086 -10.1744404 
-2.92610478 0.494347304 15.0838232 
-18.1975441 0.314049423 13.9572783 
14.5518923 0.71881038 -7.480196 
16.3415718 -0.130723983 10.6974106 
-11.7892294 0.455913007 -14.2002783 
10.166563 0.0762970448 -7.3958354 
-2.17376184 0.383559257 13.5199223 
13.621419 0.886267066 -7.57453299 
-4.80765963 -0.266834259 -16.41749 
-11.5304289 0.495559663 -14.7163696 
23.9105148 0.965437353 -21.7598991 
-9.46657658 -0.465317667 12.0477457 
16.7779388 -0.244767845 2.91869879 
18.5349197 0.00992939901 -15.0773249 
-15.4817467 0.419368297 -12.5219879 
-13.6247902 -0.207621023 -2.67759418 
6.34060621 -0.0435720645 8.15301991 
-8.82332611 -0.647419572 19.4906235 
6.10464859 0.468190372 -19.4538345 
-20.4657669 -0.0954179764 -12.9912472 
11.5746098 -0.214660034 8.0480957 
-10.8836126 0.567418039 -18.1453648 
-6.71209908 -0.211986363 15.243619 
-20.6865158 0.694288015 4.91358137 
1.4299376 0.187259093 17.1792355 
-15.3860655 -0.603902102 0.478385001 
-22.395195 0.223182768 -4.45639467 
8.18986702 0.417334557 -16.4012718 
-0.146121681 -0.325423092 -16.6216068 
-14.3286057 -0.360519528 -2.68666887 
1.74036419 -0.146840051 0.886465907 
6.69197321 -0.0816162527 -1.06116164 
1.50860167 -0.193146393 -9.83238888 
-6.72976542 -0.00957302842 -6.69466686 
-12.1265821 -0.430822402 -3.48962927 
-22.6773605 0.212761045 -2.89817643 
23.5311375 0.215581253 -3.60401106 
-3.76733494 -0.229647905 -15.0745115 
-13.0706024 0.321416348 23.6753101 
22.2788219 -0.444167405 17.101675 
0.36212036 0.163971141 12.0935297 
8.98773861 0.120139025 4.62802267 
22.3169231 0.155072466 -0.00419033505 
16.3691978 -0.302041173 -23.4432259 
-12.8073845 -0.146104425 -1.88625646 
-1.80326557 -0.364687622 -9.74598408 
-19.6410408 0.469910473 13.8193989 
13.4793425 -0.41269365 20.5653477 
-8.93296242 -0.376143277 -2.3501606 
-22.397522 -0.32226634 -15.7366743 
13.450223 0.375823915 0.872179031 
22.8977242 -0.304701567 12.5420752 
-10.2152872 0.476730496 -13.0676785 
2.30377603 -0.0949492827 -5.35966682 
-10.4357691 -0.47681284 3.7594769 
-10.5192099 -0.235496014 1.26019442 
9.11376762 0.309221685 -21.9859066 
-17.6214828 -0.0666841716 -14.7890739 
12.8347931 0.0569163375 12.2287636 
-23.8867188 0.629470766 0.845459461 
10.6110945 0.0891086385 -8.19779015 
-19.4725151 0.532130837 6.47309589 
-1.51272559 0.444023222 15.0130816 
-5.54870558 0.122037746 -1.51807809 
-1.85631704 0.552203715 16.5236874 
-25.0260754 0.389843017 24.1666622 
-12.7382965 -0.241799816 -0.530697405 
23.1484013 -0.29134196 15.1620674 
24.9433575 0.530659616 0.605728805 
-8.59945965 -0.375602394 -5.79289103 
-2.88987017 -0.0525914729 3.52577496 
-7.32748699 -0.0599606149 -4.25973034 
-10.2248116 -0.217163727 2.39816093 
-14.1152678 -0.28722772 1.50069737 
-14.8073215 -0.0218707062 14.9158468 
0.307334572 -0.0620015301 -5.15829325 
-18.7194252 0.0434422903 -1.49799013 
-21.9872112 0.68942225 4.07730484 
2.9347012 -0.233326539 -13.518034 
-24.2525921 0.701421976 3.87729144 
10.3452568 0.115573749 -22.4985142 
-2.1778903 0.818155944 18.9554272 
4.33257341 -0.337854087 -7.17474937 
14.1401415 0.240523785 -1.08848417 
-1.9177444 0.0622183084 10.5179939 
-3.31198978 0.219173998 20.0924015 
-2.42052889 0.214796722 -4.67622232 
10.4904022 0.240734726 -6.93177271 
-15.0956688 0.450009584 -16.7290459 
-19.4726982 0.557354033 6.84122515 
13.578558 0.365997195 1.10449195 
24.5951252 0.75273937 7.64742184 
4.64118719 -0.388131589 -10.687974 
5.72070169 -0.1005404 13.181303 
22.0074177 0.196851805 0.530634999 
-12.8904991 -0.248382032 -0.756281435 
14.3064222 -0.263682067 9.25110435 
17.8568649 0.188222781 -8.58235931 
-20.0715828 -0.179977 -13.0989609 
9.13814545 0.0723878145 4.5951376 
-13.4776726 0.404498845 -12.6588173 
2.03240442 0.0206637681 -3.91399288 
-22.5508442 0.254276425 15.4691772 
21.868187 -0.0805741921 3.1645577 
-9.20266056 0.322967768 -10.7898369 
8.81194687 0.257998586 -15.1714096 
-5.56603909 -0.390433043 -17.5659313 
-1.36722112 -0.542576671 -16.2086029 
-7.19658947 0.512556255 -11.6661739 
16.6353188 0.18041636 -10.5799465 
12.8000727 0.450348169 2.16224551 
9.679533 -0.326931983 8.39545441 
-15.1087561 -0.451884866 7.12036276 
16.8113575 -0.102901623 1.68393147 
3.32513356 -0.365754724 -10.5994854 
21.8577137 -0.118633635 3.63472891 
19.551157 -0.151593655 -5.4281311 
-15.4662666 0.17310968 -6.18072605 
1.93996036 -0.342428893 -7.55161953 
-19.8853722 -0.199413657 -1.12306583 
-24.2214928 0.221852988 13.9739933 
24.4670906 -0.237547919 -15.8186111 
-16.3352776 -0.345634669 9.46100426 
-10.8546963 0.154930055 -9.74297047 
-3.28931022 0.251930028 -4.51008224 
-16.7627373 0.0239061583 20.9832153 
9.93984509 0.150847122 -20.509819 
-14.3969469 -0.543965995 -0.899033725 
10.656395 0.300906241 -15.7033434 
-0.539565027 0.121877901 10.3143663 
-20.8645649 0.630601108 4.3179431 
13.8148117 0.295411348 -3.4649682 
15.2863865 0.136033386 0.0452939942 
9.69452 -0.257947475 -5.79445267 
-5.24226141 -0.203903347 -16.4255676 
-24.275919 0.667562008 3.53528953 
-22.9831791 0.688681245 11.1026831 
1.95490205 -0.320492953 -13.2373104 
-0.596524954 -0.0860909894 3.74023342 
-16.8710327 -0.812630951 -0.669994533 
16.515871 -0.333401471 5.96878862 
-8.65016079 -0.400695443 -4.83279753 
0.858858407 0.050401371 1.67109656 
-14.4881172 -0.331950814 4.80110073 
-5.01502895 0.151642397 17.7953472 
14.3259068 0.435719252 -12.3235779 
19.2613373 -0.366566598 7.93039513 
11.393425 0.056270957 12.9461784 
14.4418087 -0.195498198 11.0627832 
-12.5184555 -0.463071108 8.59039307 
8.4264698 -0.358077317 8.08146667 
2.84332514 0.140922099 9.32605362 
9.65469265 0.185831591 13.5923281 
5.93101931 -0.515943527 -7.95950699 
-9.78647041 -0.443484128 -0.665480375 
12.4428711 0.422523916 -8.14365673 
-9.89830399 -0.474306434 7.37424612 
14.2587109 -0.0896496177 11.4545126 
-7.10966015 0.125229299 -14.1612177 
14.0023308 0.323598146 -4.41686726 
0.251325786 0.0129333371 1.59860301 
-19.2045593 0.431189567 6.29685974 
8.98239136 0.217181683 -18.1028347 
-22.7417946 -0.00295826746 23.3285961 
-3.74591541 0.175293759 -0.996892571 
-13.3325739 0.462763846 24.893528 
-6.44479084 0.242909044 11.1305666 
-14.9424562 -0.491218448 -0.267111599 
-6.75835323 0.417273879 9.07240009 
-23.7166042 -0.0737372637 -6.16009808 
-17.7548218 0.429257572 15.2576733 
19.2256451 -0.156630561 19.3142624 
5.40630484 0.0661579147 7.41310215 
20.9334164 -0.0109020947 -16.9286423 
-6.0566864 -0.0772007927 17.4210472 
5.18612194 0.390385866 -22.1406517 
-3.58488441 -0.0510098822 4.2159667 
12.4406548 -0.344633281 -17.5761662 
-23.1991138 0.459054649 -0.0608437061 
-11.9170189 -0.536826313 9.06058121 
10.1319685 0.258218884 -14.7189713 
-0.557877064 -0.203013405 -21.7028694 
12.4333487 -0.252527267 -18.8141022 
8.58197975 -0.00466796383 0.606127143 
1.06985855 0.336966574 8.05597591 
8.81057644 -0.0907359198 5.55502987 
-12.5008755 -0.239521667 2.36491251 
23.8388557 0.395036608 2.82700586 
-5.13216352 0.288095623 13.0180893 
5.65174389 -0.31641835 -6.89446688 
4.21825743 -0.0854238868 2.15330219 
-8.54529667 -0.255857766 12.131815 
-5.97574806 0.0340443738 14.9629002 
-6.38415766 -0.179334253 19.6298676 
24.8035679 -0.249387354 -7.09669733 
-20.2568531 0.603962958 5.91088915 
-19.1916275 0.272777289 -5.99342823 
-24.2645931 -0.240214258 -11.1394243 
-3.83378649 -0.117661022 -11.5218296 
13.8246651 0.76822865 -7.15240431 
15.9570704 0.271718979 -10.2104864 
-13.5262384 -0.188542709 8.38227654 
16.2516079 -0.19874543 -16.2748318 
12.2604799 0.0600506552 -14.3649893 
-8.48224545 -0.305693835 -5.16670895 
7.93485308 -0.236354232 -2.35158324 
0.785567522 0.101900056 12.0247889 
-6.59260225 0.116967432 7.03263998 
-13.8348103 -0.359591544 16.8722744 
3.75663805 -0.0660268217 -1.70910883 
-23.4728546 0.767792284 5.28045559 
12.3445692 -0.0517711788 18.1124878 
-14.844038 0.557070673 -12.5870552 
12.4306173 0.384997964 -0.980654538 
13.6497498 0.696744919 -10.6761732 
-9.69254684 -0.561902046 10.3632603 
6.83310843 0.191143647 22.460844 
11.2261419 -0.0268650129 -18.1242943 
-22.1245403 0.140388489 -4.9946723 
13.179368 0.485734165 -11.4589367 
-18.6007977 0.139740288 8.30533695 
11.9938564 -0.107998021 19.9076977 
-22.0476685 0.25372684 -3.39482045 
-11.5934973 0.0101007763 24.9740448 
-8.62906361 0.693507075 -12.5234823 
-18.1329651 0.367531776 -8.01671791 
8.27261829 0.388505489 -16.5322952 
-14.338645 -0.065248616 18.5777187 
20.8344765 -0.0207546744 -1.83597386 
-7.44239235 -0.138593018 12.7535028 
11.0997267 0.120948136 -0.601200461 
-2.79123998 0.454222083 13.3703585 
-15.357728 -0.15321058 10.1108551 
0.167480424 -0.518442214 -13.4654303 
-12.3678942 -0.328964144 -4.70443726 
-22.8591766 0.820617557 10.1668644 
5.59830332 -0.306778759 -7.08475208 
-14.0763245 -0.202868655 18.439909 
-22.9432087 0.890313447 9.6188612 
8.10907459 -0.0239577629 1.85616744 
-24.2458286 0.622422099 10.4655619 
5.66119671 0.00722928252 0.0985716656 
-12.8596106 -0.616906643 16.2832966 
-23.896162 0.733909428 9.51243973 
21.3767948 -0.233322665 -5.91037416 
-24.7646523 0.592557669 6.91247416 
4.99365044 -0.0454069525 -2.62988567 
4.01687908 -0.0811359361 -1.65938854 
-6.10739756 -0.0304186437 3.58339047 
12.6067276 0.481250674 -4.9836154 
-5.18349886 0.139233232 16.5295525 
17.4117489 0.250433713 -8.66200256 
-0.287661046 -0.0493888706 2.23909593 
14.9689541 0.0874392539 -18.786726 
16.8784409 -0.343109906 16.9729939 
-8.40056038 0.574747562 -11.4585238 
1.12093115 -0.399932176 -17.0530262 
-22.0311356 0.404204696 -0.462459326 
10.7083969 0.0828615502 -0.790433466 
-2.45383 -0.579098642 -24.8740578 
12.7117891 0.382917792 0.578524053 
-24.7244053 -0.0968972445 -5.2634902 
-23.8496838 0.62690711 0.707112908 
15.8292866 0.112695366 -1.48619735 
-12.4351387 0.563645184 -15.2828598 
21.3132648 -0.784009159 -8.17439079 
-17.4199638 -0.112701468 -16.5634842 
-21.3088093 0.578309655 3.51261044 
-8.93489075 -0.147423595 -8.33555794 
-17.6274548 -0.508730471 2.19720912 
-14.5693712 0.449121058 -19.2407837 
6.49719381 -0.573267162 -7.58621788 
-23.676384 0.565442801 0.0827960372 
-1.65419841 0.212240458 11.9600248 
-9.62162304 -0.395323217 4.0736351 
-22.7763977 0.59398675 11.5972109 
-11.9496479 -0.667973697 15.7525339 
22.0677471 -0.0941676423 5.40118742 
2.17078662 0.218908399 9.52675819 
0.763764679 0.0544644818 -9.28286648 
2.49612761 -0.30352962 -14.75564 
-6.80266047 -0.102413006 -0.257468551 
-22.0694466 -0.0358542204 21.6170425 
23.3461647 -0.790237725 -12.9574041 
-7.04688358 0.503727138 -10.8967676 
15.7310743 0.362553895 -11.5010586 
0.687111199 0.00939091295 -7.63287258 
-20.785696 0.120874174 0.259084761 
16.3088894 0.233169079 -9.68150425 
-12.4076881 -0.211069092 -0.0509583578 
-23.821907 0.695346415 10.8165169 
-17.0823956 0.281522214 -13.5339594 
-13.6781111 -0.301534563 6.88030767 
-6.97943735 0.362679183 9.24978447 
-19.8350906 0.65326786 11.6949186 
-8.24398232 0.168362319 -9.06902122 
1.39401317 0.38193205 6.65647984 
3.92972326 0.175262079 9.31491089 
0.700964153 0.00899489969 1.80708957 
18.294878 -0.0913025737 -14.0823059 
21.8129158 -0.0189458914 -17.4637547 
3.54560828 -0.342915535 -7.99671984 
-11.5112133 0.377978295 -11.993289 
5.36148739 -0.311094552 -6.90035915 
-1.61108732 0.0842413455 23.6373978 
18.6192455 -0.660572648 11.3234625 
17.4833717 0.262173325 -10.6733084 
-15.2408171 0.0991325676 17.5380707 
-9.79419327 -0.593842983 11.2409916 
4.69978762 -0.177511379 -13.043601 
-10.1664953 -0.594475925 7.66312218 
21.0657158 0.0519161709 -3.32470417 
-21.5555477 0.0551590845 -4.03839588 
3.90271163 -0.0595558733 14.1403236 
-10.6119452 0.000324911787 -8.62893105 
-14.887372 0.255064368 -6.74977303 
23.4359589 0.181958288 9.88959885 
5.70793724 0.0574125573 2.60076952 
5.76581955 0.00716616306 0.669085979 
-24.3130341 -0.198127121 -7.89055681 
22.7864418 0.4955585 -21.7364826 
-4.73516273 0.0650826246 -10.4393196 
-22.0752277 0.472162038 0.190590978 
-23.8256531 0.577457786 1.04225707 
-8.17435074 0.513409674 -10.6841192 
16.3447132 -0.278093547 -23.2325058 
9.27390766 0.0424636938 12.2962666 
12.3255615 0.416122615 -4.27787304 
-3.98797536 -0.0871129483 5.1446991 
-22.8939781 0.733656228 2.89819002 
0.469117552 -0.138256222 -10.5071936 
-3.88148284 0.368957251 -2.87448168 
21.3737278 -0.654046237 -12.7174921 
-22.613512 0.724103272 2.38482571 
-3.75807071 0.103536054 18.1147003 
-3.40381289 -0.517473519 -16.7902145 
-13.335165 -0.296189666 14.1217747 
-23.9883022 -0.0349738784 -6.52843571 
22.9668598 -0.747816265 -9.00379372 
-23.7776814 0.805158436 9.19299793 
21.2927475 -0.453466713 7.19478083 
-4.1174159 -0.116083905 2.75369811 
21.585825 -0.166411608 2.15741754 
-8.53107357 -0.177317142 -7.03794336 
-1.05150938 -0.427960783 -16.9888515 
-5.37152529 0.0859977677 16.5777798 
-4.64616013 -0.0914178416 -11.4865627 
-5.0447464 0.129224971 11.0203514 
-18.5335903 0.376800716 -8.22777271 
22.1974792 -1.01289487 -11.1950312 
6.06262112 -0.255141914 12.4613199 
13.7234221 -0.0283250101 4.54651356 
0.963259339 -0.262295812 3.45071483 
2.83739161 0.130354241 -18.6112976 
18.8891029 -0.144538596 -19.4671688 
-16.8066196 -0.824012458 -0.815993249 
-0.0251072422 -0.270943016 -11.6853666 
8.88508511 -0.129306003 18.9412556 
-6.05640841 -0.0527813174 -5.04146814 
21.3025856 -0.0311918184 -16.7090168 
-19.510519 0.06790898 -13.4007168 
23.259552 -0.159430265 19.3267288 
15.3701611 0.356660932 -12.3843174 
-4.78969622 -0.183567062 -15.3312054 
-22.5730896 0.806894362 4.09039068 
7.75290489 -0.360546738 -12.4775009 
-8.48032188 0.226612329 -10.1390181 
-8.32726479 -0.0325991139 -7.97743845 
-22.3877621 0.186821923 19.9187222 
15.9626274 0.330607265 -4.1605382 
-22.5430489 0.406715333 12.132019 
-1.344872 0.475372463 20.5299225 
13.7635069 0.42025432 0.223430395 
24.6865406 -0.184013531 -6.22460794 
-23.7817135 -0.161739171 -10.2015085 
11.4403524 0.268345743 -12.5736246 
-9.27556419 0.299316645 -11.8094683 
17.7115784 0.0656885952 -7.608603 
10.0153713 0.0697852448 -12.3934708 
-14.6243734 -0.104692243 -4.28705263 
-13.7036619 0.558922768 -21.0490742 
23.5860672 0.261134386 -2.85605383 
3.42898822 0.469375253 6.83918333 
-1.43585336 0.408314824 14.8892794 
7.95234108 -0.0784869716 2.1961503 
-16.4581642 0.173389927 -8.41209602 
7.38987827 -0.524154067 -10.5104933 
25.295908 0.551920474 9.89949226 
5.05654383 -0.00645601191 2.76377583 
-20.1019039 -0.399036139 -18.3673325 
9.97010708 0.22737205 -15.1784792 
23.3839359 -0.416208774 -6.26648235 
23.886137 0.091696471 -3.90861297 
2.11513066 -0.321353078 -13.0283947 
-0.457963079 0.192086533 -5.09381819 
7.70455742 -0.225585654 9.94679165 
-1.94974256 0.238498166 -6.154809 
8.98789978 0.10467843 0.581415296 
-3.00399828 0.341921002 -1.98611188 
2.29484296 0.125197753 10.6565399 
24.3556366 0.257797748 -2.69877481 
-22.29282 -0.216311455 24.5894432 
-7.02556896 0.156241506 -8.0098114 
-22.7702007 -0.268966705 -10.9003839 
23.8182087 0.239643693 0.562317967 
-5.47241259 -0.129867002 6.83474731 
-21.3269978 0.401829153 12.4695139 
-22.4994774 -0.272972167 -10.2865286 
8.08121204 -0.530210614 -8.47368717 
5.03011084 0.0338839591 1.1989646 
-12.9071007 0.107058592 -9.97129154 
-18.9184036 0.336949021 12.0750771 
-9.13041019 -0.29752335 0.951657653 
-10.104928 -0.420637488 -1.75278199 
-23.3010845 0.949985862 8.27603626 
24.6156006 -0.16902487 -5.73624039 
-23.3342609 0.00294490857 22.7619171 
4.9064064 -0.0318733379 -0.0866717324 
-16.4051323 0.0580406003 -6.02619839 
-6.60826159 -0.362529457 -17.8056679 
13.9690704 0.283420801 -3.81792736 
-20.2486668 0.307169884 3.28917098 
-9.89568901 -0.406010836 -6.9814806 
-21.2801285 -0.125700027 -11.1608362 
2.10380268 -0.3915869 -10.7429504 
13.450757 0.553227544 -11.0003328 
7.03456879 -0.177589849 6.99737215 
-4.08575106 0.00563277723 -10.9963026 
7.55138397 -0.367914259 -9.22065735 
9.05920029 -0.162045524 16.2445335 
0.0540888682 0.154989287 12.4699869 
11.3360767 0.332599312 0.964413762 
23.6616497 0.0114219291 -17.5721836 
12.0983477 0.401231378 1.87090719 
-7.11411953 0.392159969 -8.9943409 
-24.5976124 0.489695698 0.414677858 
6.34178829 -0.107342973 8.79233265 
-21.0458794 0.58378458 9.2129488 
23.1534271 0.12052612 1.9902364 
-23.1068745 -0.278974771 -13.964838 
16.356636 -0.374678969 16.8987484 
-8.32590866 -0.270853847 24.8640327 
16.0108814 0.152834728 0.596627176 
16.7368298 -0.422906637 17.4682293 
-7.60046387 0.0891620442 -15.6274652 
14.4797411 0.187879756 -1.60185277 
7.58581591 -0.174939573 -0.305644274 
6.74252701 0.0185757149 12.8099022 
17.7752247 -0.163247615 8.46735287 
-15.8962345 -0.500792682 7.88209105 
4.68009996 -0.285538137 -11.9058886 
4.41826582 -0.160323754 -1.66906869 
-8.24630833 -0.571610987 15.4038715 
-7.79547167 -0.591032863 18.324604 
5.79364491 -0.445479929 -7.76492119 
9.81956005 0.246875778 -23.6218643 
7.38935566 -0.0874073729 11.0542593 
-14.519393 0.524987876 -11.7097645 
11.0895882 0.133323833 -9.32273865 
-5.16756344 0.160496548 17.2124748 
6.05009651 -0.157876879 7.46000004 
0.638414085 0.00647378806 0.695270181 
1.9109261 -0.0285067931 -5.19726801 
16.1030445 0.252209455 -3.84855413 
16.5940857 0.288299292 -9.34564209 
8.32019138 -0.444743663 -9.85223198 
6.9125824 -0.098434262 4.15995979 
14.8865728 -0.312876016 7.31051588 
18.2592869 -0.648947179 12.7415142 
23.3482265 -0.3217448 14.1336737 
0.920556605 -0.0722723603 -9.20590401 
-0.388291597 -0.341808856 -16.9895496 
-17.7288513 -0.123589091 -15.1770926 
-15.5993843 0.087102294 12.7039852 
-9.41704655 0.40357542 -12.2698526 
-3.56159425 -0.0648864433 2.97762203 
18.8295612 -0.645710766 11.0494833 
2.09062958 0.333006173 7.62636995 
-7.75446224 -0.0318486392 -16.2654686 
-22.3376465 0.109243616 20.9435024 
-21.9572201 0.784714043 7.59007931 
-23.3235474 0.929010332 9.03215122 
-23.2388401 0.884531975 11.0191345 
10.4833136 0.0744141638 -0.220061466 
-8.65265656 -0.0237983279 -8.99693203 
12.6723709 0.456048548 -1.93258214 
-6.15098667 0.0247502197 6.23891163 
9.93283176 0.112736739 -16.9311066 
4.50583267 0.100232653 10.9598179 
5.36827135 -0.00285556633 1.94649839 
-16.1497154 -0.449578613 2.53348136 
14.1684694 0.865189075 -9.18679619 
-17.6423035 0.0377628133 10.2894306 
-7.88781452 0.609483719 -12.9265175 
23.5809574 -0.246892974 12.8710375 
0.389464527 0.113708474 -7.8531909 
-12.3795843 -0.363851964 -3.74802756 
-20.4531994 -0.464894295 -19.421051 
4.09348726 0.0024808934 0.36325863 
21.9485283 -0.251009375 -15.2071476 
-6.10966539 -0.0609831475 -14.037962 
-20.1113968 -0.0768561885 -12.6723251 
-11.0095406 -0.606557429 6.3138833 
3.82575226 0.176580444 15.9385967 
13.8111486 -0.00569124985 11.3595753 
-4.51594639 -0.143662676 4.74335241 
-5.59597969 0.101968646 13.9590931 
4.59762669 -0.359537244 -5.75211668 
-0.222888634 -0.185883924 -11.3935452 
-8.54605007 -0.385843635 5.6395359 
19.5274429 -0.246576741 -9.24856853 
16.6279507 0.379932404 -7.90883446 
13.0911312 0.558681548 -10.4096928 
-17.0650311 -0.748443842 -0.635772407 
-18.3251305 -0.108280472 4.32432747 
4.24912548 -0.459209174 -8.63492966 
4.25587177 0.0521027967 -0.0254293792 
9.02489567 0.0907131359 13.5518417 
14.6325197 -0.0267991461 -18.6699352 
6.93148184 0.415232986 -21.9676933 
5.02216339 -0.0750217512 12.528161 
13.2513037 0.523094594 -0.31916675 
7.18463469 -0.250887394 8.6606636 
-7.94511175 0.0949239209 -16.0562973 
-20.6005573 0.497424424 10.5826578 
8.36416054 -0.27704975 -2.85570717 
-2.02376628 -0.362618119 -9.81826687 
2.79190516 0.155459285 9.03593445 
-9.3544054 -0.686956286 18.693922 
