ply
format ascii 1.0
comment created by gply, a Houdini tool.
comment converted from .[b]geo
comment for more information about Houdini, try:
comment www.sidefx.com
element vertex 1269
property float x
property float y
property float z
element face 0
property list uchar int vertex_indices
end_header
0.808079779 -0.154248729 0.00159885176 
-17.0602856 -0.13246268 6.32642651 
14.4497547 0.273909509 9.76329422 
-8.42384243 -0.0582010075 1.19507027 
7.24800968 -0.162027955 -16.1340961 
23.0684719 0.152918175 -3.07655978 
15.7952118 -0.490657181 1.32940745 
-15.9176083 0.392537326 -1.91813624 
-17.9382439 -0.0569821671 10.5927162 
21.7905655 0.756796002 6.08908796 
9.46130085 -0.0832000822 -0.151692882 
-2.6420455 0.125565857 -19.9862385 
-15.9971209 0.132417277 -9.37082863 
13.385026 -0.311294973 -1.43792439 
14.5545673 -0.0255058762 19.3502274 
21.5067959 0.558405876 7.49867296 
-5.35254669 -0.642490447 -13.4220572 
19.5454063 0.338579297 3.43957138 
-4.88938665 -0.580466926 -9.79822445 
-11.6976976 0.074665755 -13.4406691 
22.6537704 0.55566442 0.615128338 
20.7206955 -0.386895269 -8.87638092 
-24.0740108 0.367768317 -12.2257147 
24.2776794 0.245032579 -12.4954224 
2.90125895 0.248235434 13.1056433 
-22.6935673 -0.117305815 10.2501554 
22.2868309 0.603632271 0.995543718 
-4.9847641 -0.24758707 10.3439512 
17.5449123 -0.738632321 -9.9524765 
-4.29977036 -0.332985699 -2.9400146 
-14.1082153 -0.186448991 6.2798214 
11.686224 0.575113893 -10.1252356 
-16.9217567 -0.220033869 -1.90163636 
14.3380804 -0.216174245 -15.500493 
-6.23002338 -0.338476568 4.24702311 
16.7732563 -0.118185431 -12.979497 
18.3467045 -0.0593762696 -0.485024154 
-19.0623055 -0.487208694 7.39162636 
11.6174421 0.0644899905 14.8421755 
11.9518909 -0.0541333407 -17.9956932 
2.95335221 0.594142377 -21.2562294 
-4.6615448 -0.576326489 -15.7589092 
9.56260967 0.2101482 17.1909943 
4.13738251 0.449710846 3.5198698 
-9.52859688 0.12818934 -1.01767266 
-23.3529243 0.0675635338 -5.76382065 
-15.4574127 -0.0591521747 -7.39468193 
-8.35594082 -0.00417205365 3.3297317 
22.5758915 -0.270146936 18.2653027 
9.37975407 0.411752075 -8.13168144 
-10.7874899 0.0019081051 0.301716596 
21.3915157 -0.142187268 24.2738743 
-15.9257727 -0.0808428675 18.1110954 
7.82999086 -0.11169631 -19.4573975 
-9.35645008 -0.342172235 -14.2213726 
12.8786268 -0.165546328 -2.19545531 
19.963726 0.437066823 2.60301137 
-16.9901733 0.381059468 -11.0634842 
-9.95708275 -0.240888923 5.35170078 
24.3569164 0.0724362135 11.2577944 
-0.301985383 0.117841154 9.19683552 
-8.7196312 -0.129851505 20.735527 
-23.5302486 -0.0680937469 7.90788269 
-21.1487732 0.743735015 -8.31629944 
21.4984989 0.0771642774 11.2977886 
-2.44484091 -0.316972286 -2.71541905 
19.4545326 0.151792496 -21.8351631 
-13.0987854 0.218971178 -1.55996251 
-4.93442488 -0.166360468 8.48498058 
22.3371716 0.444253176 4.29885435 
13.9577227 0.132024273 -23.7007217 
15.4284 0.0236056894 -1.59576285 
24.7612362 0.0848260298 -4.86410856 
-16.7538567 0.381702334 -18.8942089 
21.953743 0.475185126 2.22457266 
23.5205441 0.477948308 -0.400648445 
15.4021797 -0.448249936 -9.87977982 
-4.75406361 0.245126665 14.2728405 
-1.42814994 -0.109701931 3.15022302 
16.9104862 -0.242789224 1.88713276 
3.93151903 0.470366061 -1.53043532 
24.3863468 0.0539036393 -6.84578323 
-11.2858076 -0.306576014 5.81094933 
-16.1312199 0.532605708 -0.632573724 
-1.35542095 -0.245059505 12.3359232 
-0.737678766 0.468909681 5.49745369 
-12.9884729 -0.050801225 5.53613615 
18.0882053 -0.0986222476 -3.71141505 
-14.4532204 -0.304636061 10.3552713 
19.4463749 -0.00137822633 -2.45758057 
8.19992352 0.183235407 -10.7552872 
-13.0430079 -0.112745911 3.69882035 
11.6257563 -0.0998173431 -23.2156811 
-22.2813892 -0.0740824491 6.75953531 
-7.91042089 0.19739747 11.6064167 
-17.116396 -0.113876306 13.6316624 
9.59722519 0.0224143323 12.4837713 
-23.7951908 -0.660845041 22.023222 
-24.311718 0.339685708 -11.9407682 
-9.50957203 -0.330007434 -18.8267689 
-9.51434135 -0.234774515 1.61591244 
-2.92069435 0.0198076442 -6.79475975 
4.55424023 0.197016641 -21.0819778 
-6.1084547 -0.14893797 -2.07655764 
-3.86512804 -0.302217007 -4.00183153 
-10.9499292 -0.126798943 1.00327253 
-10.9134941 0.197324619 11.7972212 
9.0275507 0.340343088 -4.526752 
19.2244148 0.203603223 -0.235505179 
22.539257 0.514803231 4.75017357 
-4.01443577 -0.566338062 -12.419961 
-20.4438705 -0.282278568 5.01988935 
-22.5097733 0.233558923 18.7394676 
-17.5580101 0.142139554 -6.15456009 
-19.7292519 -0.175982535 12.0655518 
-4.55506134 -0.217131555 3.4888885 
17.9247856 -0.0884190872 -15.5894127 
-5.31533146 -0.617867529 -12.1005173 
5.09271479 0.073563017 -2.27226806 
14.4186554 -0.37493062 -8.96747875 
0.0583248734 -0.271329254 -6.21158171 
6.06141281 0.380883634 1.3305434 
-8.37561607 -0.0493982993 9.71890354 
14.7175541 0.338002235 10.7773752 
-0.910985172 -0.137376368 -13.3408957 
11.8451223 -0.0275020413 -1.7371639 
11.0184288 -0.0537842698 -0.223263323 
-21.4558735 0.760007024 -7.90474033 
13.1129045 -0.114172436 -6.80750132 
-19.5262165 0.227452606 -7.25724554 
21.4702511 0.165647969 -3.56776214 
6.31548357 -0.06989941 -8.06160545 
-8.57953358 -0.130867377 1.82834506 
8.59741402 -0.236793637 4.12598228 
-13.5765524 0.163783535 -1.47249937 
-5.44489622 -0.511883676 -9.28252602 
23.0981445 -0.182584152 -17.3424797 
-19.1696167 -0.23899667 2.94617867 
3.5271666 0.483521193 3.26931071 
22.6392384 0.491806626 0.218871504 
-22.5978298 0.224646568 18.6193447 
-15.7009106 0.401287198 -19.3583584 
4.61376667 0.00406869501 -11.3219805 
-4.86010981 -0.111491241 8.99798012 
-13.7961864 -0.288371295 -7.08347511 
-13.0718765 -0.0127204973 -10.2729282 
-13.8839121 -0.277121395 7.35630751 
-6.36603022 -0.349389672 -17.389967 
-4.72771549 -0.307153225 1.73421037 
-11.9214058 -0.18048501 4.48841572 
10.1836281 0.155299276 -3.11450577 
-18.6008701 -0.00229466008 -6.1764679 
-24.9901295 0.156053901 12.343854 
15.1649227 -0.0934446156 6.8862915 
-19.7276478 0.263624489 -9.46282291 
21.7727451 -0.0735941827 -5.78124046 
22.2387733 0.457089484 4.21082163 
-21.1573048 0.235126436 -4.898561 
22.1851463 0.570465028 1.26171803 
-21.1940651 -0.271742135 5.33260345 
-17.6046028 -0.0595615357 13.6242542 
-12.2422171 -0.340561837 7.98846197 
-25.216074 0.250920177 3.67716146 
20.7206268 0.653215349 4.42560053 
17.7644386 -0.293279827 -13.107811 
-14.0465765 -0.131246448 5.70450783 
-5.39555788 -0.405006737 5.06559992 
-10.3983326 -0.0545464642 6.77812433 
11.3421183 -0.177423671 2.13440084 
-14.6555243 -0.140686497 5.82030916 
-22.399641 -0.181374252 0.245857865 
6.04919147 0.274137288 2.67505026 
-19.53969 0.137177959 -6.36228466 
-20.6708584 0.601273596 -7.98787355 
3.07957244 0.39119935 4.43981123 
-15.4397049 0.406622708 -13.6390057 
6.56143522 0.298948646 1.87107873 
-19.105051 -0.454423666 0.0423800349 
19.7285137 -0.728599727 -9.18651485 
21.4355946 0.551536143 7.8483777 
20.8841839 -0.309519738 16.0772362 
-17.1385498 -0.149367929 7.39611721 
-0.357699603 -0.116038851 -11.2113028 
-16.6890602 0.0916427895 8.66241741 
-7.89956665 0.00776401395 2.11567807 
-22.0999203 -0.00256385026 3.48045278 
-12.6378393 -0.358858973 7.21031427 
20.3041058 -0.668328047 -11.4604807 
-19.2865753 -0.440504581 5.11388683 
14.5236893 -0.214083374 -4.21404696 
-22.9688873 0.423491657 14.9738264 
-5.03096151 -0.117934912 -7.00553179 
18.4936562 -0.153089717 -15.2368803 
-2.69945288 -0.19457382 3.29217076 
-15.4283695 0.111033253 8.66687679 
11.6004219 0.075254485 -1.44582748 
5.61435652 -0.000536027364 -6.52353954 
-19.9812717 -0.047766529 9.21209621 
19.9940491 -0.136192381 -4.71280861 
5.20333767 -0.111655444 10.5031233 
-21.5416622 -0.142276719 4.10499001 
3.70600367 0.122163236 10.7360306 
-15.0631638 0.428730875 -1.89772344 
22.1613941 -0.212445557 -21.8325424 
-9.15262508 -0.141758204 5.6578331 
-4.1200242 -0.332190812 -19.3855553 
-20.22855 -0.346404135 4.27287722 
1.61547434 0.377376735 -17.7083149 
2.58976412 0.295859694 1.59741926 
24.9595299 0.126844868 -4.53404188 
17.3194199 -0.729445994 -9.15053177 
11.5359688 0.182007745 -4.36468315 
1.38814306 -0.150476173 13.465414 
-2.6492064 -0.342541337 -10.1075058 
-13.8763351 0.129259214 -13.4388313 
-16.945118 0.518038332 -10.2993422 
-20.2873611 -0.386877477 7.74209118 
6.68951035 -0.253151327 18.294096 
-15.7436314 -0.109125979 4.51119041 
11.2158756 -0.134846479 2.1313076 
-9.48258209 0.269099087 13.9465618 
-13.6043673 -0.0544298477 -10.9782104 
11.7938395 -0.0413989797 10.921381 
-9.35647869 -0.356385261 3.54526782 
-14.75033 0.00837777741 5.29875231 
-2.45149064 -0.0107144844 16.126564 
-4.05736971 -0.207230777 3.02912998 
5.46373653 0.292989731 0.664346755 
21.5623875 -0.334138423 -17.045208 
19.5067368 -0.269070029 -18.011858 
23.3389893 0.392904878 2.10463309 
12.5201712 -0.047222916 -18.5421352 
-14.8925076 0.12400905 -4.14571476 
-12.976347 0.251064926 -1.65299726 
20.6584873 0.297400981 -22.5713291 
-9.29861069 -0.0445437208 7.02224779 
-8.01923847 -0.610272408 -11.6155348 
14.9605751 0.0679712892 7.67969847 
-20.0369911 0.446626723 -12.1542673 
11.0245361 0.393939644 -12.2754421 
-13.004096 0.130410314 0.364831626 
-4.53990269 -0.224346429 -4.02970552 
-4.83677578 -0.553031623 -9.33987617 
15.3929453 -0.358386844 -9.49421215 
14.3197355 -0.246152401 -13.7596483 
10.9254885 0.189587772 -2.15426397 
6.79311943 -0.09665142 10.2236099 
-6.61900806 -0.276379168 10.7546072 
9.63339043 0.331530035 -4.19588804 
-23.6359253 -0.0635046214 12.26579 
17.2801685 0.172826454 -19.6405334 
0.290900707 0.522808135 5.82865047 
-9.5420332 -0.416568667 3.71080446 
1.38004017 -0.0276050605 15.0971527 
-2.88588047 -0.432457924 1.01668191 
-14.9031076 0.511126637 -15.5638075 
18.4712963 -0.206688747 -14.9202728 
20.7159271 0.662742019 4.07901001 
-9.06234646 0.104790092 -1.8780061 
-24.0769672 0.13595596 1.08759618 
-0.209306538 -0.038516935 18.1200485 
19.5543308 0.156335831 -1.02013755 
10.6947756 -0.113061719 1.58666909 
-0.414182752 0.17090942 4.19179392 
-0.460944772 0.0439398587 9.43138599 
-3.85951686 -0.380954057 -3.59820485 
-18.0411968 0.206850752 -10.8633261 
-7.65240192 -0.166446283 3.01190877 
2.63549733 0.21686545 -13.0715456 
17.6719532 -0.0140956203 -15.7437325 
-10.9586563 0.158518612 -13.0967922 
-8.71026134 -0.493764281 -11.9853849 
2.44766426 0.225662291 -13.8139725 
-17.3438244 0.368373007 -15.7129421 
-25.1607132 0.160582438 9.60098076 
11.2240582 0.114122272 -3.46604371 
3.18071771 0.316885114 -3.93382525 
-12.3713627 -0.220540941 9.14920139 
-24.2369366 -0.182646155 9.83023834 
12.4106226 -0.140767619 7.61721134 
-20.1508656 0.125353307 10.0116186 
-21.4650249 -0.0800450668 -3.23215246 
-1.31808448 0.00110231061 -10.6369295 
21.9030552 0.571838677 4.80349731 
-11.1097393 -0.00638515688 -11.2590923 
-12.4528875 -0.357552558 8.49006844 
1.52950764 0.174795136 10.5152292 
-23.5378933 -0.0448083803 11.2643938 
17.6937466 -0.233459681 -2.39839435 
13.7101297 -0.219992191 -0.90710026 
-6.9965663 -0.31913361 6.17627382 
1.32149231 -0.0301133227 -10.2538967 
3.3954854 0.471415579 -15.8910637 
-23.9133434 0.416416317 13.5965395 
-19.1647491 0.291011602 -11.4582472 
0.272245169 -0.211038634 -8.63402271 
23.0887451 0.277241975 -9.93389034 
11.1442976 0.201285824 -12.8382149 
-18.4391651 -0.438321292 7.87921667 
-1.70987821 0.356500298 -18.6581612 
7.4200902 -0.106537439 9.66881943 
24.9939537 0.162316263 12.2397537 
15.8197727 0.122727908 9.4939127 
-7.5060277 -0.453303635 -7.89973068 
12.8740969 0.246059269 13.9833717 
2.50335956 0.47076869 9.85946178 
17.3411713 -0.11806111 11.3076324 
-21.6551075 0.174173236 -14.8579512 
-12.4595194 -0.0807044059 1.74794614 
-23.3848343 0.0293377601 -2.91818523 
7.9488306 0.119245335 1.04502428 
-20.5679417 -0.311486721 -1.08500242 
-14.6450949 0.0945179164 -2.9614327 
-22.1702576 -0.184112966 22.0143738 
-19.4769897 0.19115366 24.8669872 
-11.0862513 -0.100199223 13.0101509 
-12.1701775 -0.0873874277 -18.304245 
15.0702705 0.271160662 11.9899588 
8.02654076 0.0404940881 -2.82420564 
4.22449112 -0.016866371 7.68188477 
18.2914047 0.199836969 6.77130556 
-13.8858385 -0.328677356 8.3135891 
-23.1024342 0.604353368 -9.4057703 
19.4247761 -0.19142428 -4.51541233 
-3.81789827 -0.297213644 1.00026619 
-0.342549264 0.423791885 6.79046822 
-8.65076637 0.337569237 15.7908325 
19.5687218 0.401625454 2.65800905 
-14.3489399 0.0607949831 -3.63802028 
5.06649256 0.130975008 -1.43374383 
-1.72018325 0.036563158 -17.0217819 
-16.6454067 -0.00398552697 17.2570915 
12.7359962 -0.0896537825 -12.5648355 
-22.3049088 0.791540146 -10.6421432 
4.22074223 0.402761757 -1.25573885 
-22.3086128 -0.0664403215 2.58525515 
9.99834156 0.0492229946 12.3872318 
19.5999107 -0.197736144 -4.48198652 
-10.8915195 0.0270271823 -4.11801958 
0.413798392 0.461740643 6.30792761 
-21.7368832 0.123446122 18.9111977 
14.3215446 0.404443771 11.3944139 
-7.42246151 -0.189548761 5.59280348 
18.996254 -0.00796318147 -3.48297143 
24.4634399 0.429848582 5.05305624 
6.01356125 -0.0886610001 -5.5805378 
14.6201935 -0.473108888 -11.032033 
-18.1717911 -0.510100543 -2.44588947 
-13.4360723 -0.296543181 7.90394354 
-12.5185595 -0.180405721 -9.95015812 
-18.5938606 -0.358510166 2.30929017 
-8.12510109 -0.148042783 7.70321035 
8.36897087 -0.0452581458 -14.7755413 
14.9772596 -0.439393729 -5.98260403 
0.430520236 0.0207214914 -3.46781325 
-20.0503101 0.18044056 18.4834671 
16.0737743 -0.4610219 -8.97984219 
-0.0916205943 0.0736113638 3.35358787 
-1.20655513 -0.11297565 -11.6384621 
15.2281685 -0.48852995 -10.654767 
-9.12041855 0.185795829 12.7743797 
-17.5510197 -0.237160042 5.62262249 
1.92756891 0.40265733 3.87071633 
-5.41439772 -0.0750006214 -5.34962177 
14.4395332 -0.0846238583 -18.3943291 
0.662312865 0.211697876 2.97164321 
-14.0806236 -0.281907469 8.04359341 
-5.04951525 -0.190285474 0.91381526 
7.09486628 0.200882927 2.17346382 
23.9997711 0.350861162 4.17827892 
18.7494164 -0.185827091 -15.1433125 
22.3872433 0.25222683 -1.46167159 
-10.0053463 -0.105190314 -9.47536182 
4.15759563 -0.442398876 19.1357288 
23.6884956 0.0980164185 9.69064045 
-18.3829479 -0.46540153 6.65021896 
-13.97015 0.0203325357 -3.38146901 
24.698946 0.14000538 0.166481763 
-7.75827074 -0.0382082351 23.7422142 
-20.1380596 -0.303596735 8.19587517 
-10.2386189 -0.140645534 1.29106724 
-12.9540606 -0.29028672 15.5784931 
18.3009377 -0.010281615 -0.2438218 
3.25666356 0.0609294735 -7.29807377 
-2.75328684 -0.384573191 0.200326711 
12.9271336 0.0678061172 10.7488375 
3.06682253 0.244760767 12.8761129 
-11.7019825 0.0914791599 10.8931351 
3.19254518 0.382370472 -2.78939152 
11.5115566 0.605400443 -10.0031738 
20.0790462 0.396253377 6.04466152 
-12.8154192 0.0492280051 -10.6991014 
9.38541031 -0.168884754 4.93356609 
22.3014107 0.09171886 12.0812721 
9.91919518 0.545188367 -8.89835548 
3.85431433 0.20924446 -5.27490664 
-9.79920578 -0.0795081705 8.32632732 
-14.9733877 -0.158119261 -5.55416441 
20.6450806 -0.663894415 -14.7953615 
-3.90456653 -0.219713211 8.91539001 
16.5060616 -0.238690346 4.16172791 
12.9166946 0.0611693785 9.35477829 
-9.39189625 -0.385393262 -12.895607 
9.71507454 -0.083696261 -0.421461821 
9.434165 -0.0497876182 7.71610641 
-16.3431301 0.304870129 -12.17519 
7.92081213 -0.226349086 -18.1186047 
0.0545169413 -0.0665688887 -12.943924 
-9.45827198 -0.159168512 -9.17736244 
13.195406 -0.105004415 -2.41313577 
11.4289865 0.0423334911 -0.401151419 
3.90764403 0.318428367 -15.9730301 
-13.190505 -0.153400794 11.5933113 
0.142654955 0.280773371 9.5715971 
-1.73646116 -0.143130168 -7.15402603 
2.6525588 0.118869327 6.35545206 
16.6182671 -0.11347539 4.99857092 
5.90989494 -0.263180107 18.3762321 
-1.24131989 -0.165613696 10.9741545 
18.1286201 -0.0255326722 -0.395838767 
10.6448479 -0.102873206 -0.207694992 
0.782077551 0.0453285612 -12.5364609 
21.3688946 0.558939397 7.59884453 
13.4653978 -0.202681988 -2.20291519 
21.3404579 -0.284254372 16.5075569 
6.99230957 -0.381141305 6.01794052 
22.334631 0.224363312 -8.42311764 
-11.4263964 -0.203008682 13.3802977 
8.39063931 0.333166063 -6.27208853 
-23.1218185 -0.189356714 9.20974636 
21.4298859 0.215925932 0.973166406 
-15.3431349 0.383746624 23.1908817 
11.0697546 0.195044056 -2.6247704 
-0.388982654 -0.0945171788 -4.53993225 
4.94854927 -0.144734085 -8.55443764 
-10.5729017 -0.152476192 14.461174 
13.7725391 -0.181800127 -17.0786819 
12.7644911 -0.525232732 3.74911284 
-10.0221806 -0.119413264 0.885252297 
-12.7206898 -0.153267935 3.3553946 
17.8205128 -0.186022744 -13.6716089 
-14.6190777 0.672902763 -18.731493 
-4.72845173 -0.69154197 -11.5556593 
22.8716755 -0.125866726 -16.6688728 
-18.5001926 0.2236031 17.6295166 
17.5904465 -0.661482394 -11.0183573 
8.18507671 0.399128646 -6.42676067 
-13.6174746 0.159167886 -21.4518356 
-6.43214083 -0.504745364 -8.76052952 
22.9923763 0.269831091 10.8051357 
18.1197834 -0.0473255739 -21.3522434 
7.12176991 -0.368286669 6.42771196 
21.9803944 0.483129293 1.51624119 
-23.0445194 0.361379176 -7.47561169 
11.7871027 -0.0172671992 -19.170435 
-21.2486076 0.43924129 15.7008791 
5.43960762 0.295902073 0.0704242811 
8.1854763 0.127670556 18.4475441 
-22.1115608 -0.163018018 21.040884 
-9.9825983 -0.146854907 6.36257505 
17.2872028 -0.614239216 -6.00879908 
-1.45025527 -0.233156592 -1.04816306 
-2.06172061 -0.0879763439 -6.96977949 
-20.0689945 0.390190721 -11.2109442 
-18.5538712 -0.605028212 -1.60262716 
-16.6192894 -0.0506055467 2.46592927 
-4.2005496 -0.644899666 -9.60240841 
-17.4460773 0.474009812 -17.2720089 
16.4237614 -0.56098628 -7.04589319 
-10.5505953 -0.191809356 5.52517796 
16.7977409 -0.479016721 -5.7058959 
-21.867981 -0.130890384 8.43519592 
-0.0229443461 -0.143617526 11.7156467 
-3.01939726 -0.39898175 -0.586216807 
-1.62853622 -0.243184626 -12.6349154 
-5.09582424 -0.258509427 7.03303099 
20.8615036 0.233308524 -22.3277874 
-9.09117317 -0.134104654 5.48888445 
0.616655827 -0.197054282 -8.57430553 
4.6437149 0.131142914 -2.4590044 
-20.5049973 -0.119216882 11.8769064 
14.738143 -0.270315796 4.87761784 
2.33153033 0.35717544 3.55222535 
10.8514328 -0.00415564608 11.527544 
-10.2596884 0.228769198 -2.33127356 
-1.85037005 -0.296202034 10.8969326 
1.50529134 0.0622350425 12.3683453 
20.9897156 0.589919865 7.48093033 
19.6387024 0.258900195 -0.358131319 
-10.6786785 -0.283247322 16.3828812 
-5.9759388 -0.284644783 9.93361282 
8.16380119 -0.223584056 9.31220341 
13.5993443 -0.318410426 -13.4909258 
-19.3041725 -0.103984818 11.7322159 
-3.45507145 -0.221166164 12.518343 
-22.9285126 0.0216085725 4.07310915 
3.94860506 0.305662364 12.7561836 
-11.9339561 -0.277145773 1.08673406 
-7.82744503 -0.620662332 -9.49251461 
-8.1490345 0.173278242 17.5995941 
-5.04222584 -0.198631942 10.1016731 
9.50326443 -0.320329696 -23.713726 
-24.3225613 0.229714066 -6.01489592 
22.4485035 0.134790286 -10.3413906 
1.56796122 0.0860910118 -2.30401969 
22.0280552 0.241510496 11.3763447 
14.6176491 0.168238357 8.58831787 
-5.55167198 -0.526299179 -16.1999111 
-2.27636147 -0.165483892 3.54273081 
3.93732572 0.405664235 -18.2824001 
22.0851078 0.186859816 11.5835094 
6.94236135 0.00249114772 -1.25598431 
-6.91679764 -0.176618963 -2.90219808 
8.41926384 0.42318356 -7.02757168 
-5.54570198 0.455352843 16.8349628 
15.7376699 0.190287322 8.22908783 
-7.27218151 0.438257843 14.1835909 
-11.0653181 -0.216100782 3.97063851 
-15.888875 -0.00179634476 -7.58635044 
-21.4320774 -0.174500674 4.88065434 
-11.6487217 0.0410595387 -2.34557629 
-24.1036282 0.178457186 16.544939 
21.9464607 0.530550718 4.53126907 
6.32111788 -0.101038776 -17.5773506 
6.58418274 -0.067456536 13.4240055 
-19.9759941 -0.489106447 7.31678486 
1.95237267 0.416349024 8.32256985 
7.82706451 -0.0400015488 14.362318 
-2.72459912 0.0676838085 16.3662395 
-2.80271816 -0.276267201 2.71757174 
18.5749893 -0.0697768852 -3.11333156 
-22.7975655 0.0161874592 2.80043054 
-0.12941581 -0.11589013 -11.0450659 
20.2699757 -0.401101857 13.1259937 
20.2122536 -0.14768143 -19.3447189 
-4.06935835 -0.334190965 10.3906288 
6.15338278 0.0403697193 -2.98952079 
-13.2648935 -0.237443432 10.000514 
-13.2936621 -0.235109642 7.46078396 
-9.72977352 0.0311157629 9.29542637 
-15.2960825 -0.220784396 18.4210949 
18.3733215 0.0996531323 3.82843852 
19.3827095 0.198215231 7.62119007 
15.2560387 -0.186239973 -13.7615528 
20.1911163 -0.12319655 -5.1931529 
-17.3035431 0.0384872556 16.8112869 
-9.33527946 0.221440539 13.4621973 
6.89182138 0.130660295 -11.5862675 
-19.1592922 0.199629799 -10.6013041 
-2.45054913 0.0948783681 7.48272038 
5.96038246 0.0371585786 -10.3147287 
2.10995388 0.431004256 -16.5911636 
0.433503509 -0.15302071 -6.03483772 
-4.55030775 -0.00950760581 13.7537394 
1.56287849 0.14498961 1.27567649 
0.967463553 0.120523132 -12.6552906 
18.5884495 -0.322216243 -5.9136672 
-4.05378532 -0.243415222 13.635849 
-17.5780315 -0.30313462 0.10835667 
-0.882080734 0.288673103 7.01640844 
3.25507975 0.512525618 0.5702461 
23.6886425 0.196615249 12.9118729 
-23.1286716 0.46605745 -7.88953686 
4.15757465 0.56352222 2.57149076 
24.8518448 -0.129642338 18.7877197 
-0.22921522 -0.150087863 -5.3599391 
-1.45264173 0.0287717488 5.88281202 
-14.006526 -0.336554885 11.1541748 
21.2900562 0.275475055 -2.35537338 
-8.90638828 -0.118279859 5.90851736 
-21.4384365 -0.241477266 -17.2674656 
16.9457912 -0.643241525 -6.93563366 
-18.0781422 0.609958053 20.1019421 
-4.94064093 -0.385955989 5.60019922 
2.16138506 0.320580393 7.1836133 
3.01336169 0.102918513 7.96690416 
-7.10313559 0.249468684 20.0431232 
10.5705156 0.0818230435 12.5109711 
-12.5772467 -0.271559507 13.3351078 
-19.9510632 -0.332021207 8.15345669 
19.6449337 0.379599243 -23.0075321 
15.6613817 -0.0943901837 5.74417591 
-5.00964117 -0.159342363 -6.61979151 
13.4730387 -0.456087351 4.92459345 
-19.3723145 -0.315299898 4.37826157 
-18.2315044 0.420067579 -17.5428963 
18.443821 -0.180879936 -16.2666302 
11.5838947 0.171075493 -4.15927505 
-2.81881237 -0.157005519 4.17358351 
14.8322611 -0.149209425 6.91051769 
-12.8034792 0.268104643 -1.16784132 
-15.6199102 0.409047008 -0.0293178707 
-15.9193316 0.253571659 7.96051884 
-20.5273628 0.46511668 -8.5346508 
-24.2722836 0.0239217337 7.56788826 
-0.43372491 0.0572370254 9.81723022 
2.91010666 0.361763477 4.06674147 
-8.32625961 -0.100347944 -1.40367734 
-12.3669252 0.0118899709 -0.935052156 
-1.10286915 0.188564673 5.34184885 
-11.2455978 -0.0465086177 8.9982748 
-4.00275278 -0.44050023 -16.5804272 
17.138916 -0.169975787 -1.70334089 
-5.80946636 -0.196330607 -7.13361216 
13.3348446 0.0735123158 11.78333 
-7.82552528 -0.0179970879 2.39593577 
-4.47809219 -0.725841284 -10.8905754 
15.9621458 0.187571272 8.22398281 
20.4749584 -0.471277028 -16.2941952 
11.877037 -0.1612131 19.2712574 
14.6378136 0.00634697033 -19.8048077 
9.53442574 0.450278521 -10.2517881 
-18.3202801 -0.437540293 1.76309836 
-5.36476898 -0.611112118 -12.6751404 
3.44558191 -0.3781389 18.6889515 
-19.444418 0.119300365 15.7472134 
-23.7028084 0.359146744 -6.93385077 
20.5333252 -0.0935297981 -5.82667065 
-13.5992699 -0.381549507 16.4876232 
4.66099167 0.395397395 -13.9313841 
-24.9886818 0.368735194 5.97466803 
5.19529629 -0.00211267476 -10.5878258 
-21.4279823 0.348658472 12.5646744 
16.2500935 0.168488577 7.96386337 
8.77795029 -0.220934615 4.50021076 
9.7027874 0.0319352634 -2.16807389 
-24.2869797 -0.088112846 -0.700053215 
2.95010567 0.344363093 -1.51647806 
-6.94007015 -0.212667748 5.56931162 
-13.9119663 -0.129441604 5.91512918 
10.061491 0.387779355 -8.46924019 
23.2193298 0.200278312 10.120779 
-10.8540773 0.111625306 10.1307173 
22.1940136 0.490931273 0.493575096 
-7.25539541 -0.400001109 -7.47959471 
6.81936216 -0.131758332 -8.88207245 
10.8820229 0.124423355 13.3946657 
5.34927654 -0.293878883 9.20739937 
12.2725267 -0.192022458 17.1379395 
-20.1065216 0.308790594 16.6832142 
-24.8253765 0.187735409 -4.35381842 
-1.85927856 0.188953623 -17.9537296 
-11.7178354 0.130784363 -13.8536148 
16.4184666 0.308458745 -15.8161221 
-4.19013977 0.172541216 24.0166245 
9.41690254 -0.16873391 4.77257442 
-7.92614985 0.000145614496 2.52771997 
-1.98047936 -0.263386041 -5.99565649 
-19.064312 -0.242224693 8.41647816 
24.2893162 0.248700947 3.27744341 
-17.2614708 -0.199619934 4.5049305 
-8.39083862 -0.0434674844 1.50248337 
-16.9230747 0.244451404 -8.02970982 
0.401325703 -0.241664469 -7.05996132 
-19.2670403 -0.205562547 -4.20012045 
23.7347069 0.403437138 4.31771374 
-19.386591 0.446659714 -16.5783291 
5.9577527 0.339243948 -0.190658063 
-23.89505 0.374113321 -8.40580845 
-16.3263626 -0.128938258 3.97714972 
7.77128553 -0.0960821137 11.6097898 
1.22602868 0.383102119 8.60903645 
-3.29551482 -0.0247730184 -6.57264137 
14.7845087 0.324655145 10.6141119 
-15.5316515 0.295597643 -22.2137928 
11.0418482 -0.0459360331 1.47037876 
-14.8993092 -0.0911676288 18.737339 
-14.7361393 0.592674077 -17.0262051 
4.03401375 0.435073763 0.525922239 
22.4329071 -0.252108991 -16.2405586 
-18.2252502 -0.100695498 13.655138 
17.8185596 -0.0424300395 12.0889149 
-11.8810205 -0.314229518 0.381076545 
-6.46068716 -0.54763478 -13.5478401 
-22.5813065 0.176810637 -4.89283657 
-22.5865688 -0.0661348328 6.46480846 
12.7110405 -0.0829965845 -12.296545 
-9.55517864 0.0205467939 -0.21478942 
-12.2955608 -0.199606031 15.3881273 
-6.92073011 -0.0750658214 0.162964106 
19.5273266 -0.229531914 -20.3780403 
19.7887268 0.411283374 2.87672377 
12.9252396 -0.00343539822 -10.9750938 
-9.29836559 -0.131978914 5.58004808 
10.7715073 0.708633602 -6.50880671 
-4.88565111 -0.195919544 -6.82963896 
24.0096722 -0.160108 -15.8241558 
-22.3934441 0.199482352 18.9337673 
-10.9910097 -0.0471927002 0.0144072175 
-13.6820154 0.108434238 1.84114075 
6.69890356 0.0593014359 -6.14866352 
16.0470772 0.15416725 7.9112711 
-22.1387043 0.316789031 -13.4975891 
-18.1235409 -0.538705409 -1.52684939 
24.1449585 0.24512437 -7.9374299 
17.6816483 -0.17714645 12.9688578 
-13.9148941 0.0164743625 3.91210318 
-12.750783 -0.262892336 9.21530724 
-22.3443699 -0.0125127435 4.55267859 
-13.5820637 -0.236170754 10.8628273 
20.7156715 -0.332887977 16.1923065 
21.3978291 0.580885887 7.28050184 
3.42183018 0.143636346 6.43281555 
6.68719864 -0.119438641 -17.471386 
-11.9223833 0.0831088349 -16.0912857 
-21.3868256 0.583137214 -11.7487564 
9.98364449 0.199150309 -11.5398912 
-16.7955513 -0.0138261402 -5.64842463 
19.2316208 -0.145788625 18.6046925 
14.8419924 -0.416254461 -9.43335152 
-3.46492887 0.276276797 17.5175819 
7.64983511 0.00878055207 -1.72746181 
4.25101089 0.100622505 -5.56938887 
9.52006531 -0.159320474 4.68337154 
22.9472599 0.147410735 -2.7576704 
24.4330177 0.351162195 -8.93430042 
-22.1363411 0.520750642 -7.01480055 
-16.6226254 -0.0575171821 -3.63227534 
20.0951729 -0.709996462 -12.0084467 
9.77718544 0.545038879 -9.29904461 
-1.07457304 -0.1218578 -11.5537224 
-9.76132202 -0.0942115039 -8.03674793 
10.6181793 0.0823961571 9.89773273 
15.2963333 -0.00167221203 7.10478258 
-7.85010433 -0.152812392 -6.53315926 
14.7863016 0.0136663783 -2.26400328 
15.0675535 -0.153243855 -3.54559541 
-20.8943443 -0.0451323837 -16.8865318 
-4.92189789 -0.674459636 -11.1184988 
-17.53615 0.375222325 19.5829468 
-16.4434166 -0.0594476685 15.874506 
-19.7185059 -0.468473822 0.0801249146 
8.70911694 -0.197188795 -23.2558937 
-12.9912825 -0.22721684 12.1212759 
-7.07013941 -0.273632824 3.47191763 
-9.7174511 -0.272227645 -13.2126513 
-7.98731375 -0.0942565426 -1.91998589 
15.7551308 -0.466561943 -9.96995544 
21.7379017 0.674489141 6.55277681 
8.31506062 0.263474762 -11.8283291 
-19.5208549 -0.140819997 -3.9930644 
-10.2846174 -0.126560673 -9.73887062 
-24.6322918 -0.0695906729 -1.94465768 
-4.05086708 -0.174568281 4.56609964 
-2.24170327 -0.0691296533 4.39468193 
3.58172321 0.0565495566 7.474967 
17.7244511 -0.302666366 -5.30373526 
16.5752792 -0.469276667 -10.3351793 
-4.50319767 -0.208930194 -3.34732199 
9.75351715 -0.145674899 3.4956975 
21.2319756 -0.533267558 -12.5234928 
-15.5587578 0.596403778 -1.45064211 
-3.18629837 0.534741879 22.1608696 
12.9212036 -0.0556762256 -10.3259563 
11.3986053 -0.101222679 9.90267849 
18.4498997 -0.25188908 -18.8988533 
-21.4149475 -0.178376883 3.26046324 
-19.9794197 -0.324138016 -0.810568631 
23.5221081 -0.259626269 16.8451385 
-4.74351025 -0.249236435 11.3954945 
25.0863838 0.0420477577 15.3798246 
-16.2369862 -0.13422519 15.2517366 
-12.4738026 -0.0961049795 1.16925383 
4.97311449 0.340540618 1.96543801 
-16.1771336 -0.0305235256 -5.96247864 
-11.5561247 -0.153132111 3.24435854 
-11.184886 0.0250917263 -13.7691021 
4.2643671 0.616715252 1.65167451 
-10.9958134 0.18199867 11.8862333 
25.2106514 0.338608056 -8.53665924 
16.5017452 -0.113162741 -2.89644098 
-21.3460178 0.893022656 -9.0474081 
23.0641346 0.503762007 0.939088047 
0.640341341 -0.302605778 22.0260448 
-2.57336855 -0.18141295 3.2352035 
-2.0281179 -0.19998008 -1.10139227 
-19.6539841 -0.378948182 1.34507823 
-3.58353567 -0.223979041 13.9863949 
-12.7213078 0.211416841 -13.5022984 
-13.56705 -0.0642692745 -9.83585644 
-2.51044416 -0.269276142 -11.369626 
-9.63021374 0.0116236592 -3.88048553 
-12.652585 0.193740264 -1.94178629 
15.0797377 0.0245833043 -22.759222 
-13.9764776 -0.292485982 9.27844048 
10.7543144 -0.200422868 -15.5572767 
0.00717702508 -0.0745546371 2.59621549 
24.4383583 0.502819002 -9.68368626 
6.16135597 -0.212178767 17.8438587 
9.31149673 0.291675597 -11.5975084 
23.6995506 0.274154752 6.13763666 
-14.099947 -0.250041395 -8.13198853 
-20.4504223 -0.224956408 2.438941 
20.0571232 0.0939792693 -1.65525997 
14.6408796 0.401293606 11.6625204 
-21.6600513 0.385044456 -13.5313253 
18.8697338 -0.146250531 -3.88703799 
-21.7503948 -0.106787667 7.50949097 
0.538916469 -0.202548787 13.949439 
0.718661904 -0.0215227231 17.9846382 
-24.3472977 -0.0941263735 -1.63995469 
-23.4988956 -0.65814358 23.0058193 
-15.7012825 0.171960413 1.68736994 
-19.6685066 -0.27373153 8.56944275 
-17.4683037 0.361739188 23.8794804 
-9.2648983 -0.318800122 3.23131728 
-9.17859268 -0.0231545828 16.3136139 
16.7373848 -0.0475154296 5.69645262 
13.363698 -0.18064189 -14.4317598 
5.40316343 -0.063064754 -8.14112854 
1.98830223 0.258562118 2.42107677 
-22.35396 -0.0806453675 10.3258848 
23.7216034 0.298544943 -1.71839774 
-10.8200397 0.0647306964 -12.3053818 
-13.612277 0.102235697 -12.3245277 
11.2110243 -0.0539699644 1.68905711 
21.2329597 0.302010924 -2.02281427 
3.77204752 0.468436152 -0.803055823 
13.9285231 -0.618060529 3.00219941 
14.0648603 -0.184014842 -16.019949 
2.64531398 0.0521956757 -10.394803 
-0.567462444 0.0123887574 -2.00700235 
-14.260294 -0.224034294 -8.87310028 
-19.7643871 0.414251357 -11.7286501 
-10.0477505 0.0155970715 -4.21081829 
-19.6304455 -0.0477089882 11.2719336 
-5.83703566 -0.676202834 -10.0005159 
2.72741342 0.333289266 2.48987627 
2.52941179 0.468154401 -18.295805 
-13.7312212 -0.301722139 -5.9509964 
12.0716238 -0.0553790517 -2.24462008 
-11.6697426 -0.191897169 15.3892536 
-5.09547806 -0.0815602168 -20.3076324 
-11.8076725 -0.101276718 6.46958113 
21.8574638 -0.151436836 -10.6539402 
23.8935833 0.258228213 6.53519917 
17.6052322 0.0465886556 -24.4825745 
-16.1630249 -0.378953189 13.0981693 
7.13956261 0.0621979125 -6.83698797 
6.94052792 -0.348846108 5.02889109 
-6.31304789 0.288048506 20.0292149 
6.70908689 0.147063896 -11.8625326 
17.5098724 0.192460924 19.3812771 
-24.5038013 -0.0398124345 -0.165145576 
-2.70492887 -0.370546818 -15.5214949 
-4.2026 -0.327740222 -7.94072104 
-9.22162056 -0.0904089138 -4.11847973 
16.1727734 0.144295469 -22.6942253 
24.0254745 0.299788922 0.761456847 
19.5569286 0.328277349 3.96437716 
17.9046268 -0.062584579 0.179444104 
-20.9671974 0.500752389 16.0979481 
7.12063313 0.0216209292 3.14826441 
-20.9820976 0.665666699 -7.84072399 
3.84360075 0.228240103 -13.023448 
0.578625858 -0.035403166 17.7386417 
-19.5649338 0.278819025 -8.63365364 
6.51781702 -0.136326388 -17.9727478 
-9.92609787 -0.2568703 1.78291702 
-18.0572567 -0.376132518 6.06614304 
-8.29051018 0.273209661 13.6745195 
-13.3407116 0.11294391 -12.2608929 
-6.7836132 -0.45101884 7.98804903 
12.7645016 0.036498677 -10.4039421 
-20.0546112 0.410868436 22.1562614 
9.09165478 0.418074131 -11.0528374 
-15.6322384 0.650100648 -1.69218302 
16.59972 -0.459950536 -11.0334291 
-23.5483131 -0.0999553949 -2.06341076 
-3.15082216 -0.204234377 8.86921692 
-24.5171757 0.0448151641 -3.44020939 
-17.1911583 0.552111208 20.7387505 
17.3925323 -0.331293166 13.3792162 
-2.09785533 0.312907785 -18.9148216 
4.07984257 0.451435089 0.124673307 
-9.30502129 -0.0893782154 16.1643486 
-7.63343096 -0.0497942492 -6.02764702 
-8.27259827 -0.100708425 7.74521542 
-1.20279443 -0.172875926 10.7912836 
-3.09326482 -0.0387221165 -7.15966606 
24.9719238 0.194756761 13.5422411 
23.2018852 0.455029309 2.09616733 
18.3041992 -0.267063707 12.9198084 
-24.3708763 0.0869623348 0.697191 
24.0356159 0.179911882 12.7422075 
6.81054926 -0.0373908989 -13.4553013 
17.0536957 -0.0467962958 -24.1331081 
-9.33918762 0.0604130179 8.85203266 
-13.7799425 -0.0323309042 3.01655149 
23.6137066 0.42087096 0.547171891 
3.68243051 0.415752321 -14.4429178 
23.3018246 0.0273128543 -4.41847277 
16.2066479 -0.121165365 -0.68713665 
6.78033829 -0.0275494121 -15.4418488 
11.1704817 -0.135289073 9.06582737 
-21.971386 0.975909054 -9.58443642 
1.84593463 0.20208168 -0.834018469 
22.7248383 0.181988552 -11.3033991 
-19.6184559 -0.438778579 5.25960255 
-7.47411537 -0.346243352 7.38310289 
-4.96108007 -0.199958697 3.15745497 
9.39189816 0.0669394732 -13.4451342 
-22.6222267 0.723366022 -10.7867317 
-24.8401909 0.16416198 -6.51343393 
15.5873938 -0.184519142 -13.3285456 
5.69120026 0.0132428417 -7.58434296 
-10.805851 -0.158444017 1.3133527 
-3.62791252 -0.473585695 -1.40077782 
-13.0204315 0.0199883338 -10.4009247 
14.0172873 -0.381202489 -11.3145838 
-17.0333176 -0.128787309 7.55510855 
8.7104044 -0.217982262 3.83952308 
16.2958698 -0.104864284 -2.74247313 
20.7681465 -0.492255777 -10.426321 
9.99803543 -0.300243914 -21.4683571 
3.37333775 0.228537351 -23.8165703 
9.36642647 -0.0596763715 7.11127234 
-2.59418845 -0.445053965 0.434413314 
10.872673 -0.0691784099 0.630158901 
-22.1684875 0.921994805 -9.31515503 
-19.4822559 -0.110513121 9.09764576 
-7.35570097 -0.267219096 6.21312428 
13.1385546 -0.17094025 7.10802841 
-11.5976753 -0.00248057675 12.4180803 
4.7121129 0.0469660684 11.5816154 
7.38223457 -0.172158659 21.2805424 
-1.06951427 -0.147562906 10.7112551 
14.8666391 0.118190326 -20.4179764 
-3.45407534 -0.522274137 -12.9483442 
-2.64655781 -0.240846798 1.91617513 
2.22658324 0.05580917 15.253294 
-5.79213238 -0.349720508 5.39172029 
-2.31433606 -0.136289477 13.7737741 
-22.5934696 0.759836197 -10.5243177 
12.7270212 0.0209354293 -10.1460619 
7.18021679 0.24477163 0.894219458 
5.55501318 0.276933163 3.32672071 
-11.4968748 -0.101636603 6.62320805 
-9.73141479 0.265839934 13.5212641 
-0.608905017 -0.169644684 10.8706455 
7.04672575 0.0188122392 -21.2682743 
9.62823963 -0.124667197 -20.6725292 
-14.613554 -0.129092664 -9.91747379 
-24.9796638 0.248089463 6.86232185 
10.6576023 -0.112615086 0.228537053 
-3.3421874 0.0692650229 16.3968811 
19.8732586 0.434786171 4.29256296 
13.1849279 -0.107889026 7.77354574 
-8.82717991 -0.465151876 -19.0028191 
-20.0105877 0.32219103 -7.3474288 
21.9382668 0.368142217 -0.450755477 
13.731967 -0.288698614 -13.3834877 
-5.9991498 -0.220692635 -19.7275867 
13.7494345 -0.271834284 -13.7232895 
7.76039076 0.212894663 -8.10555267 
8.84436893 0.353534371 -11.3429575 
-14.0226717 0.0172278918 3.89117789 
-4.08608437 -0.277348489 1.88415968 
11.6005058 0.0476859622 11.5726852 
21.9520836 -0.00118103134 -4.82452393 
23.0446625 -0.0323709883 13.2167816 
-7.99106169 -0.0933475941 21.576828 
9.85990524 -0.215522364 1.18857634 
20.5948162 0.210914895 -2.16459489 
-10.7118711 -0.339679837 -6.4663558 
12.1013756 -0.110094272 7.28050089 
5.45061779 0.126022264 -12.5534105 
1.63393569 0.364885926 -16.7041397 
-18.776247 0.0127185769 -7.44646072 
-17.1397972 -0.0545788482 9.23158169 
-17.2326031 -0.08437071 16.1997566 
3.83316541 0.478707045 -0.925670028 
-1.30845737 0.250990838 7.94177437 
-10.8588648 -0.33790192 23.7468128 
18.2861538 -0.147293657 -2.11060452 
6.26197052 0.0154056838 -19.6847 
-20.6116409 -0.298452109 1.25050461 
21.6827545 0.521006107 3.45645666 
12.291872 0.0164928474 11.8961334 
3.4030757 0.0273747984 -9.13022709 
-12.9485226 0.14944391 0.129152209 
-21.1586647 -0.284033895 4.53436804 
-22.4005928 0.539141774 13.5152636 
23.8985863 0.256858945 2.2115922 
-14.9275084 0.0914375931 -4.24887943 
16.79175 -0.141877443 4.52500248 
4.87003231 0.415759355 -13.8178148 
-21.5703487 0.677273512 -11.4061785 
-15.6834211 0.224295676 1.16911376 
-5.02796268 -0.391555458 4.98477364 
22.6620655 0.485371023 0.0945752412 
12.6781149 0.0965211913 12.0563889 
-19.6467953 0.284831554 -7.9712615 
9.03962898 0.155604661 -12.6077881 
5.75344372 -0.0241036043 -20.7005081 
11.5250235 0.629115164 -8.61641026 
15.485631 -0.518155396 1.55158162 
14.0679264 0.175421029 12.3736 
-2.30997181 -0.228378236 3.27776456 
17.5003757 -0.0980745256 0.0985346884 
-10.5664806 -0.388201833 -7.92671394 
-1.47571921 -0.0507647842 -8.15188122 
-18.2148476 0.161933616 -8.36031818 
-13.8531122 -0.019213926 -3.49675536 
-6.9007926 -0.312259138 4.80422401 
3.99135637 0.457881719 0.242912441 
-6.40087128 -0.408657104 8.4077549 
-14.969698 0.272764444 2.18290544 
14.6929741 -0.142867088 17.5234222 
5.13835478 0.318951339 0.776479423 
-4.22033596 -0.700711012 -10.5218372 
2.97925973 0.272989511 8.83425713 
-16.7187386 0.291721523 -17.6438904 
-24.71661 0.169903204 -4.37371445 
3.46977878 0.43841216 -1.87878394 
-22.7516289 0.525995553 14.0283737 
-3.00782204 -0.22932148 3.76073956 
-5.27955294 -0.477346212 -9.05379772 
-2.21326613 -0.192664638 17.7807484 
-23.1194782 0.144598112 12.3122091 
23.7754726 -0.393289924 18.4672413 
9.84355164 -0.0517189242 -17.5350151 
15.1991386 0.189129427 10.9082661 
-12.0773268 -0.294394672 14.4939651 
23.4824409 0.318151146 -6.0321641 
-14.288434 0.076252386 4.28777838 
9.26768303 0.327048689 15.9087143 
18.1522675 -0.758006811 -8.94928074 
2.29185796 0.396445692 4.19411421 
-22.0676537 0.581712484 15.4767151 
-21.404604 -0.118643738 2.80804896 
7.01367712 -0.370604366 6.65451717 
0.887143016 0.471291065 5.15763235 
17.1931458 -0.107499748 0.713072479 
-2.0961647 -0.185418099 -6.23375559 
-21.7303734 0.666948676 -7.81418371 
-14.2780237 -0.219943091 6.32020426 
2.57482529 0.254617035 7.81504154 
8.05489159 0.0240836907 1.68770552 
8.5623455 -0.207015112 -16.8780499 
5.07706499 -0.0756720975 -11.4421463 
-22.0432529 -0.117649578 8.22940063 
11.8935328 0.364108711 -8.91714287 
-13.2175074 -0.28417331 16.6366196 
8.07050037 0.120414533 -9.74950981 
19.9904537 -0.488401204 -15.1664915 
2.1374619 0.299960881 6.46038675 
-21.7535229 0.694981337 -11.1984978 
1.66961849 0.0861406326 15.1323032 
-6.29204893 -0.662996173 -9.47771358 
-10.4721088 0.142524913 -1.61558044 
23.0652695 -0.131055892 -14.0112953 
-3.93961143 -0.405838609 11.6582909 
23.7306423 0.477282196 -10.0190458 
-12.9460649 0.0309699681 -10.7512407 
-14.4854727 -0.415549695 11.6965446 
20.5294781 0.185649425 -24.6769047 
19.9707489 0.0549593717 10.9381428 
6.23994589 0.221918881 2.67866826 
-20.9592113 0.188222602 12.9216127 
-0.698220611 0.225264221 4.74779892 
23.5294838 0.145430714 10.1728706 
10.9401512 -0.0615131855 7.96861792 
19.0643883 0.231534109 6.78248739 
-21.2528286 0.406219691 17.6912518 
24.215498 0.651150584 -11.1928473 
-8.45769501 -0.0716592222 0.463466585 
8.22905254 -0.297728419 6.07768917 
-11.8210287 -0.256425411 24.4605331 
8.88182545 -0.149370924 0.433173716 
-16.8767223 -0.0491549559 16.437336 
23.528532 0.472846597 0.228422508 
-8.25059319 -0.563983202 -10.2491732 
1.27997911 0.330117673 -21.0142727 
22.8153801 0.535303473 1.63526225 
21.2603569 0.230805784 0.422783077 
7.81718016 -0.0350262038 13.1051474 
7.39447212 0.129871115 -11.86724 
-20.392271 -0.240008742 -2.11097336 
-10.1545563 0.0609200373 13.9176083 
16.2094975 -0.434602708 3.08867741 
-14.6503048 -0.218352824 -8.03904819 
23.6216278 -0.414641082 -19.1205482 
-5.75917768 0.0574058965 -4.39740944 
-8.64326191 0.137170464 10.8023643 
-22.0215473 -0.0776071027 3.08207059 
-7.47283506 0.00184492208 -5.99612951 
-15.1036177 0.524729729 -20.5047646 
9.38517094 -0.100645877 24.4776783 
-15.9985218 0.0927348807 -8.17069626 
3.51023793 0.227085754 -5.02973938 
12.5328722 -0.0287037529 8.80207062 
-22.0931721 0.545582891 15.8935728 
-2.61382866 0.171461716 -18.382803 
-21.5094662 0.420003474 -13.0427532 
11.88729 -0.0272466801 -19.4996033 
-4.62117815 -0.622927725 -12.1611938 
-24.3873978 -0.148087367 11.3426266 
-14.5287094 -0.320606053 10.1506548 
-4.05476665 -0.302817106 0.759797931 
3.6079092 0.230059505 -11.4182119 
-10.9746475 -0.50883472 -8.21507454 
2.3067975 -0.00743093528 -10.4546604 
2.0400157 0.333551079 0.267215937 
-11.6552296 -0.131833002 6.776721 
18.2058029 -0.0481752306 1.85909677 
-15.4632196 -0.0302541181 -8.1445179 
-10.1154566 -0.347185016 21.9740849 
-3.15585876 -0.277899027 2.7327354 
17.8177261 -0.0224162266 9.78207302 
-7.53704643 -0.357173175 -18.5073795 
22.6497002 0.219513521 -1.77191734 
-20.6126518 0.55203408 -11.2146788 
6.20318985 -0.00677267183 -7.47308779 
-10.5077982 -0.0737065896 6.66399622 
5.56333971 0.172200367 -13.5369053 
11.1772299 0.62629813 -11.2581692 
16.0592575 0.127587065 7.74883461 
-23.9500027 -0.0856015831 -1.0832088 
-3.89036894 -0.62976265 -11.0202284 
-12.6959858 0.238895372 -1.43552554 
-23.8344231 -0.184163794 9.72880173 
5.49886084 0.293443799 1.44327009 
23.0435085 0.132731169 8.73478699 
23.5619164 -0.0529381298 13.8492899 
3.21774435 0.0893626064 -10.0909023 
-17.7879391 0.422540069 -12.4731922 
0.774656534 0.440253824 -16.93433 
-16.2131939 -0.248194218 11.5106392 
17.4389038 0.106079698 4.52835655 
-8.68047619 -0.462230623 -10.1329308 
-20.2469368 0.350598902 14.946908 
12.4569674 -0.50333035 1.19253874 
22.1658249 -0.0286014173 -4.18319845 
21.1669464 -0.776046932 -14.7977695 
6.69055748 0.13880901 -0.334653556 
13.9766665 -0.51589185 3.86843061 
5.54611301 -0.0902319029 -4.07658148 
-23.708807 -0.0031023086 -0.531933784 
-6.43788958 -0.163003445 -2.17594266 
-18.5665054 -0.0893232077 -5.56372023 
4.37410355 0.183443636 -3.21297359 
-13.4426937 0.529405594 -16.7414246 
0.042932719 0.0907279551 16.5515003 
0.797194123 0.277680099 9.18062115 
-21.8502331 -0.117069162 7.89436769 
-0.816458225 -0.0203419644 -16.3107586 
-1.54094219 0.300504655 -18.3703995 
12.7552786 -0.0344218016 -9.34812355 
-22.7382774 0.0810486004 -4.65406704 
21.8696442 0.158019885 11.3915548 
13.4389839 -0.158134148 18.0258713 
-7.6859231 -0.38052687 -18.4681854 
14.6778479 -0.154687658 6.86207819 
-2.88843155 0.0270430408 17.3172798 
24.2328472 0.119044952 11.8632975 
-2.50580478 0.493143737 -24.4762917 
20.4691944 0.523418546 4.74811363 
18.0531006 -0.00157556124 8.92168999 
19.8065891 0.147666335 -1.30411816 
10.717782 0.739652812 -6.95507479 
17.1349945 -0.585672915 -7.17387581 
-0.830994487 0.139984891 4.38005495 
1.4555968 0.29251641 -13.5371532 
14.2126627 0.129827619 12.9226189 
7.49000978 -0.1116798 10.6670818 
24.3335304 0.210010141 -0.724560916 
21.8251801 0.577439547 4.23923254 
7.98488235 0.101387553 15.0121155 
21.5598736 -0.262024969 -10.9795113 
-10.1353588 -0.319418073 -16.8920441 
-14.1340036 0.131706327 2.88252258 
7.38367987 -0.0168464966 -4.34863043 
-4.11209536 -0.10268417 14.1052017 
-22.4951859 -0.149092704 -1.05516636 
-19.5865822 -0.336271316 4.19711542 
-6.55139542 -0.199046254 11.1801891 
23.1273441 0.35664013 7.15464115 
-23.8610344 0.350141019 -7.65351439 
3.5192461 0.522087872 1.58373106 
-0.194498137 0.294899195 -18.1229286 
-0.387645245 0.543315351 6.36543226 
6.36222601 0.0798807368 -1.02939892 
21.7104588 0.528787851 7.31112623 
-3.41452479 -0.521551847 -14.2445889 
4.34724379 0.34379974 -1.17617106 
8.80316162 -0.243469074 -24.3743629 
6.49027252 -0.265348911 6.53258896 
4.54389191 0.458679855 1.07573605 
7.50651646 0.103168063 -2.61915255 
7.05804253 -0.00815251749 3.93634105 
15.0587406 -0.481408536 3.83387709 
-2.48891497 0.18638128 -19.1173 
-6.11976767 -0.45432055 -14.1633816 
-19.377367 0.174277782 15.3687639 
-2.49618244 -0.0818341598 5.45599413 
6.62102222 -0.190314844 -19.2810364 
5.5247798 -0.14087458 14.9727011 
-4.24489021 -0.257549345 1.44204986 
14.2315912 -0.381563723 -8.95024014 
4.22650814 0.418881774 -0.907417476 
-6.2156353 -0.183495671 -1.55863428 
-9.53384495 0.0155886179 8.6589632 
-18.147295 -0.387497544 4.67981339 
-21.4885311 0.425179243 -5.67562771 
-10.9568148 -0.0789940208 7.28015375 
-7.3980999 -0.464341611 9.59957504 
-12.4249887 -0.142233878 6.41154861 
-23.3850594 -0.122012936 -14.371911 
11.8618603 -0.0143049695 -2.92478824 
-8.7895565 -0.484514892 -13.7928391 
-19.8301334 -0.333823889 -1.15416574 
-17.997076 -0.0237193834 -5.35912848 
1.08192635 0.499594331 7.33448172 
6.843328 0.105561197 -11.3135662 
11.620471 0.0598632507 -1.55973876 
-0.533122301 0.498091638 6.50740862 
-8.41535378 -0.0716842115 4.44851685 
-15.2881947 0.225201547 -2.73685098 
2.43626428 0.211748943 1.94218481 
24.2453289 0.0127437664 14.404851 
14.189518 -0.0342352614 -3.76475191 
-5.6141386 -0.19104664 8.61246681 
24.9612637 -0.33300665 -17.672617 
1.59649038 0.0519858859 -24.8147106 
24.3878136 0.156825334 -1.64574432 
-14.690731 -0.384593159 11.4312534 
11.6929798 0.165930316 12.6821022 
-8.014678 -0.0799046978 23.7810497 
-16.643959 0.355572879 -12.4903708 
10.7019405 -0.161198691 4.69094276 
15.0622835 -0.352792829 4.75056887 
9.37662315 -0.0982451364 8.06895828 
-2.96228337 -0.279505789 14.2150831 
-5.14787722 -0.0771891326 -4.29101801 
-1.38706756 -0.199967504 -0.195717826 
4.59121418 0.0168276634 14.5918903 
12.827714 -0.109986693 16.4475975 
-19.2705574 -0.10318014 12.2412291 
-11.8220282 -0.207922101 1.81804073 
-6.56079674 -0.10492941 11.6169672 
15.7420835 -0.329290628 -4.18756771 
11.9453726 0.140442044 -6.01578856 
11.7881355 0.140234828 -21.1675968 
-17.3869781 -0.0798572227 -4.44628572 
2.56625009 0.43025586 10.7671003 
16.7600689 -0.644057035 -6.82710218 
0.327570915 -0.166913614 1.29284084 
5.27847576 0.329598427 -13.4963331 
-9.58727169 -0.214788556 1.75591302 
20.0017109 -0.690897882 -12.7909698 
-4.41212702 -0.521183431 -16.9110165 
-20.5425911 -0.037061546 -3.21842432 
-21.0875111 0.369254887 18.0812912 
-5.54526615 -0.193252876 12.6680927 
6.33729935 0.26144883 -0.151251599 
-24.3082352 0.357176095 -11.2444849 
-25.2262058 0.127852187 -1.33866346 
18.2958603 0.21575889 4.71018076 
-12.6641712 -0.241503313 -23.215147 
-22.246273 0.223708466 18.7749577 
-0.083819598 0.0396502353 16.0200634 
-7.43691063 -0.484425128 -15.0541487 
24.7605324 0.121146187 -6.97187376 
8.00025749 -0.100738704 -0.128118947 
-0.615145087 0.394710124 6.88338709 
10.6250591 -0.0831558779 6.52033281 
-15.0795994 0.448170871 24.534565 
-15.4787264 -0.0882866383 -10.6310844 
