ply
format ascii 1.0
comment created by gply, a Houdini tool.
comment converted from .[b]geo
comment for more information about Houdini, try:
comment www.sidefx.com
element vertex 1270
property float x
property float y
property float z
element face 0
property list uchar int vertex_indices
end_header
-21.1729412 0.0681814551 -0.662058592 
-21.9899578 -0.244041234 -16.8663673 
-7.1759758 0.0580805168 -1.49677074 
-1.00194204 -0.0404237285 -1.84217441 
-8.47641468 -0.194316924 -0.0555603802 
-12.6011715 0.666833162 -16.2139244 
-3.40447903 -0.207810462 3.43448353 
10.8860216 -0.115878142 9.78612328 
-18.2962532 0.0518525988 -5.48332405 
7.00257492 -0.36069724 -4.69901037 
12.6594944 0.550161242 -11.8330307 
-22.5936947 0.383049369 16.2696018 
-8.76306725 -0.563275993 20.6005783 
-9.17911434 -0.297398359 4.70425415 
-6.10187626 0.0511000454 -9.56208324 
6.45620346 -0.572307885 -9.91842937 
20.9313984 -0.111264318 -16.4951553 
-7.92478657 0.035271313 13.0191736 
4.93855762 0.0897934437 5.61324358 
-20.3322029 0.570867598 7.10358238 
14.5981569 -0.244237721 5.64082479 
20.0895786 -0.208113268 6.6261344 
4.5887475 0.283527136 19.3709087 
7.06860781 -0.445721179 -3.9500277 
-23.1071186 -0.320066065 -18.9919491 
5.90143681 0.0308739748 1.464692 
-6.73762178 0.169348076 11.3189507 
-7.21935415 -0.313505292 0.782256603 
6.50999308 -0.278531879 10.773119 
-2.61139202 0.669663727 17.9643078 
6.69148111 0.100736767 -13.9859295 
7.49949026 -0.109693743 12.7700882 
13.355073 0.0760103166 -19.2809525 
-12.535265 -0.0818233564 -0.334345013 
-14.4245644 0.103478879 -6.59628296 
-2.87070727 0.608043432 18.4837399 
3.65852523 0.387005597 7.96465921 
-12.3366089 -0.395481259 3.13920426 
18.4544926 -0.0878334418 -19.4632778 
-1.63646615 -0.571371377 -16.3427353 
-15.6249704 0.186643481 -6.32210588 
-20.7429943 0.220521599 19.3200283 
1.3746407 -0.232738942 -8.54612637 
4.43849516 0.167201877 6.8718338 
-20.0241241 0.129805148 10.1614151 
1.74029219 0.160713196 -21.0070877 
4.3121295 0.15111348 6.69992113 
-21.3395576 -0.0159793999 -12.7022448 
-8.64019966 -0.375128239 2.44897652 
24.7231865 -0.202380702 -7.58005857 
-21.2304115 0.649683893 7.81110001 
6.53447771 -0.1695427 1.39345205 
-11.2017746 -0.682166398 19.028265 
0.852313459 0.326956242 24.4953556 
-1.52279365 0.0443584993 8.61576557 
12.1487808 0.325988591 -2.60294127 
-16.8352985 0.330900252 -11.4138956 
22.9444199 -0.438279033 -8.62338734 
-13.7515554 0.291626245 22.4278526 
-16.9182091 -0.197399586 -18.5417423 
3.29771638 0.166815564 -20.6049194 
-0.125955716 -0.403319985 -12.5522785 
5.08508921 0.25279063 -16.1809769 
-4.95678139 -0.0694536716 22.0557098 
-6.22006369 0.054617092 -3.66521716 
10.7958879 -0.0596087202 -19.8264236 
3.82583189 0.286875576 9.19037247 
2.34482694 0.158191755 22.8681641 
-8.91605473 -0.429117054 15.1074085 
3.42894316 0.040931534 -1.23189247 
-9.51327896 -0.207256228 1.51808143 
-13.651577 -0.342363805 14.1013002 
8.03919697 0.283209264 -24.273798 
-7.31255436 0.186134294 8.12294388 
15.7082205 -0.0819533765 -22.5388374 
-24.6445751 -0.134958804 -5.4565959 
11.3627443 0.0134077687 -1.69473958 
-6.87216854 -0.0545357764 -13.8658838 
23.58951 -0.0655918196 11.0449457 
-18.6019363 -0.501707852 -18.3484249 
8.16856098 -0.373463005 -3.66880918 
20.7041359 0.0440499149 0.662333369 
24.5034199 0.249077946 -24.5669785 
-13.1188688 -0.544596374 5.76791286 
-0.987941444 0.271793008 -5.57139063 
11.3395939 0.0881702676 -14.5922318 
20.5612793 -0.246109501 -18.4077816 
-0.941628635 0.216312543 8.94084263 
7.42863083 0.115508661 21.1148834 
-15.9595261 -0.382998377 5.63309669 
22.6119366 0.210894898 7.74416924 
-23.1116333 -0.35175699 -19.1267986 
23.217968 0.36952889 8.94523621 
-3.82605243 -0.26556775 7.67111826 
-0.937820137 0.128223792 -8.3673811 
-10.4961262 0.633209705 -15.1485739 
-13.733202 -0.30651775 13.1408682 
8.35803318 -0.54411 -8.38814259 
2.50347066 0.400411159 -23.6072865 
-12.00741 0.0998935923 -9.31821918 
8.76806831 -0.129983559 -1.81409514 
14.8022928 0.258647412 -12.4727211 
-14.9174862 -0.0147236204 16.4858589 
-22.4544792 0.119839415 19.6028652 
3.72435856 0.275353163 -20.28508 
24.5955181 -0.395263135 -13.9105167 
19.8685932 -0.598184466 13.044837 
-22.236042 -0.176880881 22.1209927 
-10.7694559 0.0691878572 -10.2326469 
24.6976833 0.626145065 8.29281425 
13.9710388 -0.00880534947 -19.1805382 
5.03048992 -0.29910931 -6.96714973 
-7.89034319 -0.311223745 -16.3692627 
8.75388908 -0.217408583 -4.03280449 
-1.4962554 0.0484630689 9.440238 
11.9026136 0.000504944474 8.93704987 
-11.5272207 -0.0314767063 0.247368142 
-1.54079056 0.0329042003 8.03772736 
-20.4966812 0.116187915 -6.3104043 
-3.5426774 -0.214191541 -9.14729118 
19.337307 -0.0751796812 -1.03238976 
11.6098576 0.255615294 -12.1480598 
12.806632 -0.263696343 -22.9605675 
6.2716732 -0.577542007 -10.0340357 
12.5332785 -0.288589329 22.9459953 
-17.3528042 0.047636047 15.319767 
21.4831486 0.274604231 0.393013954 
10.694128 -0.127451435 -18.9616795 
17.4582424 -0.140093535 17.5362434 
21.2984715 0.148859724 1.0743053 
23.1470356 0.49724412 7.38986874 
6.84272671 -0.45263055 9.30416965 
-7.34783459 -0.0783732384 -5.52671385 
-6.63796759 0.00270465808 13.250165 
21.5240631 0.06729085 -3.00819755 
-20.4595795 -0.168645769 -14.2393599 
2.38894868 0.295365721 21.84585 
-20.665556 -0.411515385 -16.0642433 
5.85686588 0.0196018368 13.6322565 
-16.1568851 -0.677223384 0.293669105 
6.79740238 -0.11895331 12.1387548 
-22.1155472 0.569577157 10.9283438 
21.667326 -0.72732383 -8.06737804 
18.7115803 -0.516562104 13.905055 
21.4459305 -0.691086292 -8.00701714 
24.3612232 -0.0315323882 14.1406755 
10.485631 -0.213899538 8.03765774 
7.04181004 -0.0429847687 5.35635662 
-6.13053513 -0.739547431 -19.2237587 
-1.70394766 -0.328400582 -13.4068565 
-13.9394293 0.44905594 24.6844425 
24.4950905 0.0747667328 14.8233728 
23.7306499 0.413949639 -20.0137005 
1.98584437 -0.271763533 -7.2246933 
15.9508429 0.25293234 -3.7297616 
-2.53411484 -0.259097934 -12.3109989 
-19.8299122 0.066617243 9.27020454 
4.82103205 -0.177782461 -13.4946423 
-6.25094795 0.0602358915 7.20052147 
-21.888567 0.31680876 17.6526279 
-12.9792252 -0.537107229 18.4073753 
-3.53456903 -0.0848720297 -7.19477654 
15.377162 0.00379407592 -19.7688179 
-2.78898311 -0.385756701 -13.5244341 
11.0174541 -0.169650704 -24.2681427 
12.802227 0.380489945 -1.83953404 
-0.302275836 0.585545361 21.0906239 
3.17625237 -0.35679704 -7.4507165 
2.02339602 0.0535694137 -2.55403733 
15.610075 -0.441586852 -24.8208447 
10.2328787 0.210229948 -15.6418447 
-12.8360195 -0.574548721 18.0670967 
22.1966724 0.545460343 -24.4324245 
-5.15302229 -0.20391351 -14.5239191 
6.28431368 0.151654199 -14.2187862 
-7.53774166 -0.423409045 -18.5085526 
9.6564455 0.0209043566 -18.1485996 
-7.60608196 -0.401307344 19.845068 
13.6438322 0.00744437939 14.1202612 
4.81660795 -0.118258566 -13.994009 
12.2283468 0.222411931 -1.96153748 
6.28492069 -0.581856668 -6.74902534 
7.85756779 -0.109484486 14.3195982 
20.3939323 -0.698901892 11.5198689 
21.0216732 -0.130720109 19.5209408 
13.0216284 -0.0258107483 5.75075674 
15.8080673 -0.0633288175 -14.2747297 
-9.80550194 -0.418764204 15.902833 
-23.7001419 0.0235063694 -8.11364651 
-8.92591286 -0.495949924 16.0577259 
13.1749821 0.527269542 -6.33620262 
3.1374743 -0.0275692958 12.6212139 
-6.91489983 -0.0118061975 -7.01027298 
-21.8301392 0.357969165 16.9834404 
2.44954491 -0.372785747 -11.0790682 
-6.5938096 -0.132175416 20.872654 
-12.285264 0.105050176 -24.589035 
22.835146 -0.181966886 -5.02589321 
-4.4852109 0.272885472 -2.60269785 
-0.133123979 0.445145637 19.9718933 
9.04008484 0.189985007 -16.2530651 
-16.0691395 0.480560541 -13.1325483 
0.265759468 -0.441602319 -12.9445276 
1.00778067 0.251611054 18.3054314 
-2.04362679 0.393193841 15.8553495 
4.93248463 0.195646256 15.158494 
-18.9171543 0.303340644 -6.55598593 
-14.7580442 0.55219245 -15.1163807 
0.651687503 0.243078023 -24.9564457 
-17.5391903 0.0998846442 -8.83820343 
-1.85737777 0.815967023 17.9804535 
4.70507813 0.150376007 5.48886347 
-19.052969 -0.190340385 1.73363853 
0.0705273002 0.00899399724 -24.1895256 
-12.0844727 -0.596450508 7.55500031 
-4.95671654 0.339669198 12.1965704 
-10.2824907 -0.344046474 23.5626163 
8.39606667 -0.507555187 8.54814911 
1.90749288 0.354005814 17.1239471 
-18.7877159 -0.209885329 23.8079853 
-10.0335274 -0.669500768 18.1699467 
23.9442406 -0.102361858 20.6584053 
-6.81218863 -0.0571163297 14.9253254 
3.14695692 -0.0277531259 -1.11517477 
-6.76540279 -0.0529337712 23.6636925 
3.3889153 0.119806848 15.4612179 
9.89610672 0.295186967 -13.2018814 
15.0549622 -0.263565689 5.99122334 
19.0277405 -0.221409574 18.8027191 
4.80776787 0.452922285 -20.0081787 
-17.4730167 -0.0638112277 -17.0242786 
-11.070405 0.623412728 -17.7220097 
0.202603161 0.588840902 23.2205582 
23.9436798 -0.15303342 -17.3858185 
19.9702435 -0.562270582 12.2906218 
18.6522655 -0.146216512 -12.0000792 
3.28542972 0.086822778 1.84906435 
4.90459347 0.00958955567 10.3956347 
17.7795696 -0.0776089281 -6.89242172 
-6.36640453 -0.00424441602 -11.9624395 
-4.10343266 0.277498066 -6.37016678 
-21.2407036 0.037321683 -10.5304804 
-0.211599082 0.0904940143 11.3469381 
20.3411865 0.119245127 19.7504101 
1.75104606 -0.276315331 -13.705801 
13.2248611 -0.111606754 10.8652267 
13.1661835 -0.260971457 -15.3878708 
1.05221546 0.133882701 15.5286312 
19.4962749 -0.433560491 -8.3112402 
-24.6881676 0.779928803 4.36880302 
-10.6789188 -0.457279086 5.24151278 
-2.98077393 -0.396060467 -13.4840403 
-7.19145679 -0.579752684 -22.0026417 
-11.6269197 0.46396172 -14.279582 
-15.5022669 0.512455583 -10.4497156 
-5.92329931 -0.126048192 8.09224319 
-22.7680817 0.403579414 0.255370498 
-20.6117649 0.174156621 -8.89698887 
-5.02222967 0.113139838 -8.79807568 
11.7282124 -0.2048354 -17.2989025 
-16.4911308 -0.439929336 -3.55595207 
-11.1836338 -0.446584374 14.7417345 
-7.82656765 -0.147229046 -0.615863085 
20.7165165 -0.150823638 -15.4689913 
0.0142952185 0.00736902375 2.20047426 
18.7035599 0.0524179637 -1.46922398 
21.047348 -0.174756318 -22.6710606 
-9.40911865 -0.57344532 19.4267178 
4.59757519 0.03037172 -1.44587767 
7.66920233 0.165870354 23.5101604 
-24.0504589 0.411390126 -1.505777 
23.885622 0.377396017 -0.977355957 
17.9061356 -0.0192189366 -14.5717888 
0.00637268275 0.102560699 11.5954428 
6.82423449 0.366841793 -16.8724346 
-14.0046644 -0.221468031 -0.772726119 
9.29265404 -0.438994586 8.51925087 
-19.2212982 0.485273421 13.9720917 
23.8600693 0.353161812 9.7955265 
-20.2820148 0.258599877 -5.65179014 
2.73075914 0.323421389 8.58716583 
-15.1199408 -0.140794963 15.3735323 
-20.6775455 0.2522223 18.5162048 
2.80210996 0.176073149 -18.3256378 
-19.0866222 -0.225099608 22.1876049 
-2.68240333 0.0957107395 -6.74237919 
-19.4037285 -0.310986012 22.4652004 
10.3132401 0.284342468 14.0561209 
-14.8073378 -0.438999653 -0.46180588 
-14.9907179 -0.49048847 -1.18677163 
12.7975912 -0.0253465008 14.9725027 
-6.18209362 -0.0203146003 5.80662966 
-11.0100222 0.121944897 -23.3921947 
-4.58448124 -0.731365025 -22.081398 
-12.9068403 -0.459249705 13.3493004 
-9.7953434 -0.251348019 -9.23271275 
8.46669388 -0.23233965 -2.10219574 
-22.0814438 -0.430971205 -21.3261566 
-10.7722235 0.261721164 -12.4459171 
-16.3192806 -0.0630198196 10.3059063 
13.5912447 -0.239943594 15.9234352 
-17.547348 -0.292509496 -19.2175865 
-2.89325905 -0.355826885 -13.1759634 
-17.081356 0.00701315189 10.7895279 
7.4944334 0.113776341 22.0447617 
-16.6240921 0.274004728 -10.8659716 
-9.28040409 -0.314603209 -21.683609 
23.9290142 0.466997623 3.00634384 
11.4248466 0.0477004722 12.1684952 
-12.7213211 -0.739859819 16.1049709 
-8.88155651 -0.105295427 10.960516 
5.34703255 0.0352396891 3.91289234 
11.7124691 0.326278597 -12.7955046 
-12.7777357 0.704883456 -17.5962696 
-8.9809885 -0.116912507 -18.9065285 
-15.3800478 -0.128522366 11.1859741 
5.65270185 0.501269579 -24.1239243 
6.18955851 0.443806648 -22.8990269 
4.10308027 -0.339371115 -7.54294443 
-17.9429054 -0.314547092 6.50738525 
11.3896866 0.0541225858 12.8656883 
-7.85858536 -0.414754748 -22.6126919 
18.6801491 -0.433621645 15.8506985 
-20.1605015 0.322871268 10.6662302 
-1.76980269 0.0277627595 4.30704212 
-18.7347603 -0.14556089 19.771347 
23.0968189 0.513368726 -21.6439877 
-3.9391644 0.305707604 -1.88241446 
-0.28075695 0.257052332 14.1652098 
0.00239066035 -0.583902895 -13.8061323 
-8.21207428 0.330762655 -10.1421719 
24.4661198 -0.257513434 -15.4055185 
18.0448875 0.0474485122 -4.45493841 
7.6432147 -0.346891314 9.82456589 
19.3657513 -0.226990417 -21.4135265 
12.1133547 0.369549304 -12.7098026 
-4.3434968 -0.0169597026 -0.261566728 
-10.5014849 0.227416202 -12.0578585 
-5.39302778 0.160507604 -5.61860275 
21.4396248 -0.16084069 -16.6831856 
11.0316896 0.116705462 5.08655548 
-23.2367516 0.264844567 14.661911 
25.0681953 0.0579457507 16.0931778 
22.3806477 -0.398180366 18.4057732 
-21.2064209 -0.384583324 -15.3049431 
21.7427826 0.20634602 22.0055923 
17.0998611 0.13490653 -2.42320442 
-2.68799138 -0.427052468 -15.5741892 
17.6601372 -0.192300186 18.5972652 
-11.5564232 -0.117484018 1.26059103 
2.15138841 -0.339342952 -11.4632568 
4.37976646 -0.0168671981 21.7120304 
-20.8297176 -0.15758273 -1.90120101 
-14.8372478 0.0419874303 19.7594185 
-4.76102352 -0.300848514 -16.862524 
15.3199244 0.507784784 -5.38667011 
-23.4860115 -0.20690833 -17.0655117 
-11.4041224 -0.498626262 4.66732454 
-2.71118522 0.0318644866 0.52939409 
-2.24551105 -0.486242503 -24.759037 
9.24150276 0.143009052 -13.0793943 
-15.8448305 0.0781116188 -5.57441521 
0.116625696 -0.277165473 -18.6379147 
-6.92582512 0.0259239823 -1.268767 
4.3444643 0.31246537 -19.8432961 
-4.62931967 0.283924103 17.7791004 
17.3730011 -0.215979338 -13.1062984 
14.8498688 0.0936208591 -15.8921146 
-20.8205471 0.0370750874 0.644741952 
-3.11907625 -0.252669513 -8.67482948 
11.0006552 0.12980397 3.48560524 
-16.8179531 -0.548024833 1.87458265 
16.0761528 0.0387744121 11.7177668 
18.9014301 -0.143971249 4.04658079 
-14.8292265 0.490252167 -15.8586864 
-6.45245171 -0.0979985371 -5.49908161 
-3.8695209 0.141549826 21.3325214 
6.24207592 -0.105498038 19.6324902 
0.557121873 -0.152807802 -18.3506756 
19.0731163 -0.000536893727 -1.8965987 
12.1394978 -0.287982941 -24.3112392 
-6.07906675 -0.0702377707 21.2053604 
-11.892767 0.466318637 -13.9197311 
22.4908848 -0.364631802 18.9726906 
9.42260647 -0.257139564 10.3215437 
7.78205013 -0.471936613 9.29531574 
-3.08409929 0.548513651 16.7306004 
-17.3249054 0.227125242 17.9760113 
-2.56902742 -0.637332559 -22.6216888 
-20.5268841 -0.0121512804 1.91982174 
8.2739315 -0.237681523 16.9189339 
21.4832897 0.182311207 1.48885453 
-16.7657528 -0.0875376314 10.1281891 
-1.23511088 0.177206963 11.0228071 
-10.3776064 -0.464471191 -3.263304 
24.6565075 0.697095573 1.9924916 
13.0407515 0.189245477 3.95818639 
-13.5099678 0.78859973 -19.3085346 
23.629158 -0.618199527 -9.68682003 
19.5022869 -0.118701354 -0.984523773 
20.8609829 -0.191878974 3.57674646 
-23.9976997 0.15283145 -2.86117411 
17.8515625 -0.374209881 3.73701787 
-23.1527863 -0.138965026 23.6533852 
13.9768934 -0.228290692 -22.4650249 
11.2457638 0.177007854 2.25575972 
-8.61728573 -0.561156094 21.4043579 
13.0542145 -0.0873279497 6.07471132 
1.70928478 0.200253516 -21.2899284 
20.9960346 -0.641467571 12.9497776 
-2.98795986 -0.762629151 -18.002964 
17.9299774 -0.0680987164 -15.5017862 
-8.61974907 -0.255553901 -2.17703509 
15.0362329 0.44097659 -7.37467813 
-22.2870274 0.447442383 3.05641389 
-14.6627445 -0.098417528 17.3477268 
-15.4278431 0.251661122 -6.95493078 
-4.61608028 -0.413762867 -17.9722462 
-6.21505356 -0.216385141 23.8440666 
-5.32536554 -0.246134445 -15.4916182 
1.86692297 -0.0455839336 -16.4209423 
-7.40198898 0.0867953524 -7.70496225 
7.72971106 0.120142542 23.3507462 
21.4194164 -0.804913402 -10.7586498 
7.85037565 -0.56460166 -8.19240093 
-14.4991302 -0.294990718 -4.12049007 
-11.6954813 -0.276774913 1.84284616 
13.6384449 0.289466053 1.19322968 
5.13631439 0.0936659127 -1.20300913 
9.57495594 -0.344429284 9.98459721 
-13.6265459 -0.454183429 10.6136227 
18.9711323 -0.352810711 18.1843796 
18.5326538 -0.0680342913 -13.8426552 
-6.73702955 -0.47032842 -17.539875 
-17.7169704 -0.723482072 -0.0307656825 
11.381093 -0.0763801038 9.65017128 
-23.8809605 -0.387566686 -23.8392353 
-21.0382252 -0.346102625 -14.6137362 
23.7890263 0.375337362 -24.2115154 
1.37361634 0.436454296 7.20936728 
7.79380846 -0.146912634 5.59209585 
7.59642363 -0.401049197 -11.5760145 
-20.833971 -0.0208041109 20.5464382 
9.46329594 -0.0383545794 -0.697881222 
-22.5003738 0.660765827 10.5189762 
23.4712944 0.535228074 3.72658253 
-13.1027079 0.967316031 -18.5609016 
17.2984066 -0.146700606 24.9049397 
-14.0152073 -0.285198301 10.6133652 
-14.2710361 -0.152107671 0.378602684 
8.83571339 -0.0497028865 12.1109791 
-15.875596 -0.486235112 0.873846054 
18.4460316 0.0861239806 -2.16990876 
18.3129139 -0.174110427 -8.99561501 
-10.360815 -0.56031096 6.86236525 
-4.03776503 -0.0896512344 9.96467972 
16.9208679 -0.105989613 13.2596951 
10.0458956 -0.0779308975 5.31900549 
21.2114277 -0.173794314 -19.3871403 
8.36915016 0.309181541 -15.6366434 
-4.57974768 -0.241328791 6.09029102 
-9.45537758 -0.254104555 -22.4788475 
-1.991503 -0.254807025 24.3474827 
-6.70058441 -0.171015143 0.0336535573 
4.88282585 0.0536277033 -1.86019886 
6.93462801 -0.36985144 -2.76887035 
24.3508453 -0.212175369 -16.1658592 
-8.54639912 -0.545067847 20.1156693 
17.0782948 0.121635497 -1.70398831 
-11.0064764 -0.777653515 17.3027039 
21.9771099 -0.631301343 12.2504959 
19.0082798 -0.581583142 11.2264414 
14.5750589 -0.273116529 9.62685585 
-11.26122 0.118297845 -10.0550175 
12.7110729 -0.0565744825 6.57559776 
0.364581883 -0.467242628 -13.15592 
-10.1693153 -0.473147988 -2.62091827 
-14.2775507 0.430361927 -11.6908579 
24.6429214 0.730895996 2.70643044 
2.61191893 0.422121555 5.89570475 
19.2508011 -0.0588363893 24.1752396 
-16.1987152 -0.33053109 4.38017702 
-0.834491014 0.199192658 9.65556812 
3.8592186 0.00129422592 -13.9194365 
-24.5826054 0.105135813 21.590292 
20.7143745 -0.512042642 17.7017841 
-1.27689505 0.117690176 9.5048027 
0.203216612 0.386577874 7.52778196 
6.38287592 0.147914439 13.9942198 
-10.6644001 0.656740725 -13.7023239 
-19.0637722 0.171444267 11.365839 
-3.05349493 0.14695403 -2.14687705 
17.8407993 0.016239604 -8.911129 
-13.8583088 -0.174754828 -5.77123356 
12.15938 -0.00204534922 9.01723862 
-5.39438629 -0.292156279 7.77528477 
-15.9815197 0.30934009 23.1600151 
23.3479004 0.299114376 -24.5221291 
7.61522198 -0.0396962613 2.17615843 
0.887810051 -0.101743713 2.26783061 
24.1037884 0.560744882 7.54996777 
19.0690708 -0.41072008 2.74349809 
18.6030083 -0.150326386 -11.8142433 
2.32391047 0.0626370236 14.9215031 
-18.9159698 -0.110343412 19.6880188 
-9.32133961 -0.687262833 18.543993 
19.8557262 -0.271197408 7.06935358 
-0.290340036 0.255898863 13.1065378 
-0.961515844 -0.020410737 3.85990787 
-9.86118126 -0.0615548082 -23.3777065 
-4.03971624 0.107439026 -0.949484408 
-15.2857141 -0.467376411 3.61030579 
25.0206223 0.555409372 10.2349997 
1.43854082 0.0981725082 -21.4990845 
-10.0595293 -0.339623094 -7.04120016 
-5.94756365 0.115821809 18.1826363 
16.7777081 -0.0113962358 -3.90247345 
14.1145983 0.326550901 -4.90976858 
-5.98782015 0.0287883244 19.0593185 
9.76257324 -0.0113295726 -0.481437743 
12.0711107 0.518031418 -9.2575798 
-20.1937275 0.688007295 13.6433821 
-23.6408691 0.265425444 15.1592808 
-22.6492748 0.72930187 9.09599876 
-13.4349012 0.312182009 23.5309772 
-3.87852454 0.352633715 -2.17183924 
-22.9314003 -0.250576466 -15.8780651 
9.57362652 -0.00481381454 -2.05190396 
10.3683739 -0.229406074 7.38125277 
-24.0028915 0.532493711 1.47245848 
18.0569305 0.00413818471 -14.6862116 
0.5210464 0.140818387 9.84324932 
-8.16437912 -0.0475125574 13.0206261 
15.7372446 0.119877785 0.642750919 
17.7051353 -0.352149248 16.3279362 
5.41130638 -0.0505292825 8.96118355 
21.0905991 -0.108511783 -19.8207092 
23.5358658 0.418654323 3.21176481 
7.46182775 0.0764733106 4.71446133 
0.390221357 0.0228165556 -1.23675728 
3.62991142 -0.265560299 -6.48606777 
20.5136108 -0.691531897 -8.56287575 
-17.8386879 0.247686312 -8.79011536 
11.4315329 -0.250448495 -24.0022469 
0.0307775587 0.107630685 16.8243484 
16.3391972 -0.0224999525 0.0986771733 
0.465120137 0.0718668029 15.334322 
-19.0245171 0.601012468 -9.90830135 
0.826094806 0.0500403456 11.0572681 
10.5929527 0.208407193 -9.87808704 
15.8797607 -0.327897519 3.65536594 
-10.0427685 -0.125306547 -22.4088955 
13.1527901 0.624634981 -6.81994963 
18.135006 -0.112577364 -13.217145 
10.6622772 -0.215473071 23.1997986 
-5.35196686 -0.269433409 -12.7415285 
16.4069633 -0.33972466 4.63550425 
-12.5672617 0.754765511 -15.743145 
24.1999798 -0.0184263177 13.1443176 
21.3556232 0.0501124263 20.415699 
12.3285303 0.531839728 -11.0486965 
11.6651001 -0.0099478513 19.0527306 
10.721385 0.111839443 -1.51739216 
16.3738613 -0.0320187062 -21.0102921 
-17.6181145 -0.0525488891 10.1115589 
9.32104969 0.0591636747 4.22552967 
2.05246878 0.112096369 2.52001572 
-4.48222065 0.186506629 11.18995 
18.459095 -0.233091503 7.08478069 
-18.2974663 0.177553266 -6.47502995 
-5.80771685 -0.0847221836 22.1302929 
-19.3317642 0.378579289 12.8483706 
-19.4825344 0.578638315 15.9817524 
-1.77988791 0.0231065676 8.84009266 
2.06229472 0.194683135 15.7788296 
-12.60917 -0.43613106 7.87023735 
-1.62789631 -0.284305632 -10.8685188 
10.4514666 -0.122914344 24.5877171 
-12.9367714 -0.255520612 -7.24772882 
-23.1510639 0.687354147 10.3551264 
0.829087615 -0.323401272 -14.6503057 
-19.7116814 0.498204082 15.4230652 
25.0533352 0.744943321 3.32107854 
-18.1072636 -0.320601135 3.03451872 
-11.3913612 -0.338134378 -2.35261941 
-6.36244822 0.0547223277 -9.14715004 
18.7807789 -0.532693565 12.0223255 
9.6496067 0.334924549 1.17031848 
-7.37775993 -0.274981737 14.8392906 
24.0884476 0.605566084 -22.0841579 
11.9911299 0.156400502 1.80828094 
-13.0670147 0.0470215492 21.8948021 
11.7061453 0.317938387 -12.4419813 
9.31405735 0.0822091252 -12.3464413 
-0.791886926 -0.0296643805 2.53421354 
-17.2300606 0.357268959 -12.7003078 
11.0909719 0.153573528 3.71266079 
-14.7573967 0.199847773 -7.2718668 
-3.78041148 -0.156411812 4.41673422 
-13.3215513 0.642020345 -15.4281063 
-15.5699635 -0.14807114 -4.4481802 
-14.6236744 -0.138029024 8.49701881 
-4.29418755 -0.323913038 -15.1003695 
13.6740093 -0.232073188 9.24016953 
-1.82788754 0.48031953 21.5604477 
-6.55045605 -0.122331046 1.42849445 
18.9903736 -0.0510504618 19.5695591 
4.43541431 0.128778517 -0.362036169 
14.1182613 -0.121399224 6.98593903 
11.2348785 0.31052953 18.1048851 
13.5405941 -0.0861522555 6.40840578 
5.4403739 0.0150363557 20.088728 
14.9992266 -0.463711858 18.4681988 
1.50307786 0.342099845 18.8218403 
-22.331707 0.523620129 3.59585643 
-2.83112431 0.260421634 20.9114437 
-15.6263075 -0.741567075 -0.561124921 
15.205864 0.511861384 -6.40267324 
-24.3247471 -0.520688355 -14.3528118 
-18.5572815 0.452762753 14.370286 
10.5950603 0.27883327 19.0333157 
21.7764473 -0.260540277 -5.96664619 
-16.8715553 0.152203813 22.9132786 
10.7653761 -0.239166841 24.3903694 
3.11870241 0.226252079 -24.9781342 
-23.6789322 -0.289085209 -13.8440151 
-24.0383015 0.700619698 6.63748598 
-10.0951309 -0.336827934 -6.88044834 
7.00041389 -0.191020429 2.11355567 
7.9705224 0.333138466 -23.3546734 
4.89944935 0.0457348451 2.26543689 
0.0417127907 0.281984746 -25.1333065 
8.23182011 -0.43582961 -6.95461941 
15.1305304 0.0461084954 -18.8451328 
-18.1389465 -0.36316815 -19.6188812 
15.4392471 0.138473392 -1.78630853 
-1.1223141 -0.372316957 -16.6728897 
-1.59946835 0.638086379 18.1745644 
15.2377281 0.520676494 -5.28406525 
-18.8560696 -0.446757585 -17.4941273 
11.6196947 0.34108761 -9.9507513 
-7.53473902 -0.31023255 2.81611562 
23.9249077 -0.171072185 14.812294 
8.61953259 -0.114451215 19.4696198 
9.51657486 0.277692795 -24.0539665 
-11.0648384 -0.726142764 20.6694317 
6.01879311 -0.0372055247 0.575024664 
5.97628546 -0.119126737 3.3567977 
-14.2558517 0.610972941 -15.848237 
-15.7818794 -0.396854639 1.27572632 
-21.8829784 0.635676861 4.38512468 
-17.4260082 -0.706588447 1.3995986 
-11.4084682 -0.506069422 3.93183541 
6.47800064 0.483285874 -18.3512878 
8.51793766 0.244301841 3.70124555 
-14.4573622 0.0733041763 -6.45285034 
-6.21695852 -0.0589860603 -0.840213299 
1.23050797 0.385831356 6.35585737 
20.6045322 -0.748065412 10.8043976 
14.1363363 0.204240769 -0.00518785045 
-8.36043072 -0.242993072 -0.423872948 
-8.24045563 0.459141046 -10.8821239 
-3.65673757 0.157814696 11.970953 
-16.0629082 0.238397688 17.7760258 
4.30816793 -0.0798431933 -2.91016579 
23.142004 0.407151014 -19.8354568 
19.5392551 -0.390675217 -6.96890259 
-2.64193082 0.23430194 -3.12012267 
-10.9510136 -0.6321401 10.1867638 
-22.5670815 -0.00237247068 20.9991894 
8.05505371 0.248642355 -14.8880377 
22.7659492 -0.634251893 -9.36604691 
25.0619888 -0.115042098 -5.61715698 
-3.10829115 -0.0925425366 6.32276297 
-20.5245972 -0.182855755 -3.53348207 
-9.80599213 -0.282022417 0.12117447 
-17.107132 -0.336659908 7.05527782 
-12.1783209 -0.508862138 -4.43974209 
-22.2256145 -0.249635309 -16.6747761 
21.2339725 0.0750458613 -2.95368743 
-2.94102526 0.115973838 12.653389 
-0.0553177372 0.321161836 19.0353966 
-2.9986968 -0.054332085 2.26910424 
11.1015396 0.192338809 14.3224077 
-23.331852 0.826025486 6.64755297 
-24.4121857 0.0978848413 14.4138947 
11.1285267 -0.251471639 7.89211226 
-13.4654856 0.41784659 25.0150623 
6.97066212 -0.0481512249 12.746623 
-13.9210358 -0.271074653 12.262208 
-0.275067806 -0.0599574037 6.11507273 
1.68614447 0.0860033706 -3.61333609 
3.91806746 -0.356822431 -9.54355621 
-5.67287159 0.233679801 15.071269 
0.871027708 -0.3149454 -10.8201456 
-2.54614019 -0.141612813 7.71849394 
24.2338352 0.61003685 1.49285877 
-11.7700796 -0.617143631 12.714282 
-7.66734457 0.198612407 -8.33292484 
15.2714729 0.0690282434 -18.7493706 
-12.0643625 0.347157776 -11.9298143 
23.3831406 -0.298229605 -16.3378029 
-24.2819405 0.627243221 8.34920883 
3.66065454 0.370730162 16.9590492 
2.16870618 -0.0206703469 -4.96874094 
19.7744713 -0.620087028 11.851428 
25.10326 0.782696187 3.02311897 
-23.5523529 0.754990816 11.1314182 
24.8497276 0.562075794 10.6029968 
-20.8338737 0.661922872 7.87843943 
-7.68881607 0.361697286 -11.8567371 
-4.63163233 0.24069804 15.1115818 
-22.4360828 -0.474815696 -19.1263256 
-24.0471249 -0.00379379466 -4.12765837 
-20.4421043 0.703731179 12.1825752 
19.1128883 -0.303988785 -8.74773788 
1.83014607 -0.345933288 -9.06299114 
-10.1436691 0.573856533 -14.8358355 
9.80825329 0.163012221 -11.4949551 
-19.8413048 0.322299361 5.85116625 
24.7586384 0.59273988 0.987080097 
-7.85175943 0.0066448506 12.8913221 
8.09601879 -0.174396008 19.0326538 
22.9536057 -0.456912726 -7.28233767 
-14.636096 -0.327215284 -2.44352174 
0.689089596 0.0490471534 -1.38655925 
11.7466145 0.147649512 0.021806879 
24.0133228 -0.247041345 -5.30374861 
21.2727757 -0.675378203 10.2884169 
7.94136381 0.108631521 21.3053207 
-17.4548664 0.325076491 -12.286068 
23.0937996 0.390615374 -24.9109325 
-4.94110775 -0.275098979 -16.5511589 
-18.7604084 0.0272487886 -4.37612391 
4.15286064 0.338897139 -20.5734558 
-7.31545401 -0.404668123 -24.8945084 
-4.22478724 -0.531389594 -19.7673721 
-10.058774 0.344473213 -17.0670109 
-22.8456459 -0.429350853 -19.2724438 
-11.5011358 -0.612476051 8.52943897 
-3.5287621 -0.136003271 4.12609005 
5.62194777 0.0960593373 17.1043606 
-18.5946426 -0.0357616544 5.62762737 
4.8226285 -0.413905114 -8.06816292 
-11.8906832 -0.327712268 -7.35024929 
23.5419674 0.349234551 -19.2309303 
-20.1813297 -0.344789535 24.627306 
-20.6076851 -0.458474994 -17.949316 
-23.7695351 -0.0283363536 21.5695438 
1.4500879 0.276846677 9.30278778 
2.23158455 0.147485286 15.3876562 
-18.0512791 0.228121147 15.7783546 
0.211264566 -0.419362038 -16.4436092 
-14.2680159 0.433446616 22.3297176 
-12.7289953 -0.651866078 9.95207787 
9.67603683 0.0482423641 -7.43431902 
-0.964879513 -0.0731915087 -0.124613732 
-24.9388332 0.716982126 2.0627532 
-23.5223694 0.868804514 8.97966385 
13.444582 -0.390065521 17.8882523 
4.9627943 0.115066282 3.06160617 
-6.90482044 0.263044298 7.97627258 
16.2018108 -0.283244401 16.8655376 
-20.5706787 0.309547484 18.8828907 
24.4212208 -0.167329535 -5.72928762 
-12.9927797 -0.357983321 8.64280891 
-18.5449238 0.454752922 -11.9010696 
8.28753757 0.323046535 -24.1635532 
-1.22696304 -0.414291233 -12.1921825 
-16.0606842 -0.606847048 -2.28915572 
-5.43818188 -0.112354316 3.14712572 
21.9872837 -0.576889157 12.8904209 
3.25060558 0.312755913 5.7950511 
-21.8654861 0.64871186 9.63263321 
10.7494287 0.127816826 -5.56910324 
10.7327929 0.353970885 14.736659 
-17.672081 -0.0282171126 23.1752949 
-19.8024464 0.601490259 11.9433889 
1.53343177 0.150348753 -18.4431572 
-10.1143274 -0.342256874 3.53634024 
-17.838028 0.0428693406 16.6002045 
-21.8669319 -0.3850483 -21.9555874 
-4.24209547 -0.212482676 5.04308271 
-21.8806152 -0.215384915 22.5847416 
-7.70512247 0.0029391693 -2.18797851 
-4.29072523 -0.328375667 -13.7482862 
12.9692993 -0.258794338 -17.7611446 
7.75546932 0.309445769 -16.0705357 
-9.41442776 -0.365045398 5.02759933 
10.6426764 0.226032645 17.1663647 
-13.3646851 0.896218479 -19.3098412 
23.0809135 -0.320226163 -5.34597826 
25.2179222 -0.159010261 -8.08893108 
18.9875565 -0.265930027 8.2627821 
1.45404184 0.113205582 4.54770803 
-11.9283171 0.323427141 -11.8426161 
-8.97714329 -0.403440297 4.29108763 
-21.0452023 0.39437744 3.48852277 
13.9956951 0.164389208 2.47093821 
0.821867049 -0.340303093 -16.7545376 
-11.7902069 -0.399545431 2.40518641 
-7.85658789 0.251174003 -8.3484726 
14.4893904 0.162549049 -2.00930357 
-21.5349846 0.0419177674 -5.51232147 
-9.03629112 0.545240581 -12.2543411 
10.4557247 -0.00790446438 10.941432 
-5.83297443 -0.030510718 1.18191016 
20.5354118 -0.438595057 7.44117785 
-10.3804913 0.0072815083 25.1716099 
-18.2728138 0.422611624 15.0069046 
5.36858749 0.223117933 22.966692 
11.4710016 -0.0601128079 -19.0163956 
-22.6153812 0.228625864 20.1651936 
-7.47314501 0.480195493 -10.5000839 
11.6967926 0.450985551 -9.10610199 
-3.87491035 0.274044186 14.1951208 
20.8169498 -0.233541787 6.49085855 
-12.9777632 0.399358511 -12.9433317 
3.67097688 -0.366177976 -10.1612549 
-17.5177841 0.16836974 19.0104713 
-3.69835448 -0.0981915668 2.59639645 
-7.42984056 -0.125530511 16.7504139 
-5.54319906 0.257842153 13.6865606 
-8.94644642 0.454938591 -11.8585873 
-10.9343538 -0.228673533 -0.76289165 
-24.4514427 -0.108002104 -10.8134089 
-22.7391739 0.43530032 0.940470994 
2.58499742 0.152630895 9.94141006 
22.8673706 -0.46117577 -15.2410793 
-1.8871727 0.360393167 14.9661388 
15.1412001 0.341977149 -11.7540474 
19.2082901 -0.604297757 13.5267363 
6.06543303 0.0619604178 13.9146137 
-15.460268 0.576746821 -10.8874521 
2.11628532 0.0240644105 15.0440226 
-23.4374485 -0.190093175 -16.4726543 
16.0485001 -0.276048005 3.24203682 
-11.139595 0.771807671 -16.9374638 
-12.1082468 0.59377265 -14.6709223 
24.3457146 -0.249638468 -6.03376818 
-20.8270226 0.055530142 -5.20245647 
19.3383121 -0.0930669606 5.99390602 
23.9137745 -0.15395993 13.7761278 
-23.0070782 -0.338611454 -12.8773918 
18.2913857 -0.201219186 3.95459557 
10.0437584 0.119536139 -8.75684261 
-19.2610054 0.601072073 -8.94628048 
-16.8402328 0.138932601 -16.8759518 
-11.024642 -0.244475335 -2.11830449 
-3.74818444 -0.234442547 7.80566645 
8.8596077 0.159949481 1.34357667 
-2.57802439 0.0123065365 2.86326098 
-21.3495197 0.62691319 8.09906864 
3.40802979 0.0452106073 -0.577714562 
12.9488258 0.571611047 -6.4429493 
-18.3633595 -0.0965868607 -3.08121753 
0.800570488 -0.15386197 -7.04715157 
-8.49599838 -0.20336704 -17.5579243 
0.297976464 -0.281548083 -17.6687984 
-2.875741 -0.656837165 -24.28582 
8.14932632 -0.56347245 -8.01226139 
12.8962593 0.468227893 -4.27864504 
17.8061085 -0.300377637 5.79084253 
-6.56375122 0.131346062 8.31041908 
-21.3829002 0.290457129 2.8205173 
-22.7708988 0.66904062 4.83229876 
22.7528133 -0.473992139 -6.64639521 
15.7389889 -0.388771176 19.0414963 
5.39181805 0.181294024 18.8736839 
11.068861 0.162233859 2.95139647 
10.3185053 0.295287371 15.1396618 
11.4210987 0.36824128 -9.18414021 
-13.2662792 -0.234738767 1.42500973 
8.6191473 -0.329615206 9.6012392 
-20.0013103 0.564180791 6.90320826 
0.831563592 0.104158528 -0.178487033 
15.4658461 -0.197082415 14.8359671 
16.5210304 -0.313829094 6.87344408 
6.34713459 -0.0980404541 0.755739629 
10.1457281 0.198190868 -6.30259657 
-23.8176517 -0.018562369 -5.62455511 
-16.4599838 0.0617314205 12.6545181 
-8.81558895 0.457537979 -11.4078045 
-16.6949844 -0.330442935 5.45836067 
-17.9529114 -0.00662938645 19.3991375 
23.9128094 -0.63879627 -13.8165417 
-15.0341768 -0.436278969 -0.723407686 
-4.78616381 -0.300290316 -16.2366753 
-8.45087528 -0.441404223 3.84945512 
-18.8245354 0.204879373 10.9897394 
5.78729725 -0.0300589819 -1.57480609 
-12.510088 -0.499830127 13.9815311 
13.8725443 -0.506337583 19.9767246 
-7.02185869 0.361613691 -10.7063141 
1.47389221 -0.0645481646 -17.7178516 
13.9629841 -0.109951526 6.19493532 
-12.7617931 -0.161577106 -0.192619205 
12.597126 0.0344132073 -20.3475285 
20.582056 -0.208424494 4.21216583 
-15.7537241 0.337078929 24.7105503 
13.7902069 0.221174732 -13.529583 
14.1272402 -0.402824253 17.8697205 
-24.3179245 0.556819558 -0.666545868 
15.6112604 0.0036955683 -14.0004892 
-3.836586 -0.933037162 -23.2039204 
17.0023727 -0.102656543 8.51669407 
14.0712509 -0.201267123 -16.7528305 
-17.1689491 0.320179582 -11.7423868 
-11.6928911 0.349802107 -23.2983036 
11.6943893 0.100427821 -14.2740192 
12.2921829 0.155500591 13.6244879 
-15.3289547 -0.404866099 0.58079493 
-3.6980288 -0.233896539 22.6763763 
22.3494377 0.230035961 2.43586826 
7.79461861 0.081758 4.91159773 
11.6600389 0.0764801577 11.9683437 
-19.4708576 -0.103037342 2.19554734 
5.34963465 0.218760967 18.1826706 
-0.725235105 0.133584872 -5.22770786 
16.2708912 -0.139836684 -13.5815907 
-21.1811333 0.68675369 13.8212881 
16.2977715 -0.338899136 3.65927601 
-18.0538712 -0.173834234 5.57672024 
-6.58815527 -0.132632151 -13.876874 
-0.210439056 0.384733349 8.17576218 
10.2386751 0.28510645 -14.0768242 
20.5497627 0.0401939489 -0.584466279 
-3.41035295 0.432940215 15.2262526 
6.8152771 -0.106850997 -1.43445849 
16.640686 -0.0838228837 -12.3077364 
-17.6813545 -0.0874303281 -5.04365826 
-22.7444286 0.353242785 15.717701 
-22.9678974 -0.310762286 -13.6231527 
7.03043461 -0.231447786 1.08857393 
2.94529533 -0.280097067 -5.8478241 
-2.89210463 0.0506787747 -1.71310735 
-14.594203 -0.0878988504 9.15858173 
-2.92098117 -0.471311003 -15.7055569 
23.5599194 0.389337063 -1.24481487 
-15.4215765 -0.0236514732 11.819293 
17.1025143 -0.479949564 3.64308786 
6.082654 0.533650935 -18.2862759 
-12.6982002 -0.20098035 2.32666016 
-21.346159 0.00290974672 -11.9251242 
19.503273 -0.0928923488 5.01646519 
-18.2757473 0.442019522 -11.6937189 
23.0597477 -0.305664837 -17.0865021 
-21.6343288 -0.0572856329 -11.4628534 
-12.7162209 -0.704511642 16.8680763 
17.5468044 -0.28933543 16.2961941 
17.6866894 -0.181762859 0.764028311 
21.6638546 0.120621599 2.08224106 
-14.6932163 -0.0937582478 9.80323315 
20.2549305 -0.232057944 3.79662991 
0.122160383 -0.307660818 -12.1520567 
-7.13498449 0.408014357 9.01748943 
23.6147308 0.796191633 -21.5964756 
-0.618205726 0.671279192 21.9774876 
-2.73028922 0.0627217367 11.7131634 
12.4346657 -0.0659622326 -19.0458107 
-14.3811159 0.383181304 24.4535866 
-15.8535595 0.227896631 -6.47941875 
21.0602436 -0.669714928 16.287384 
-2.42609882 0.00500864536 -0.0927662328 
-22.7096252 0.204494819 -6.24830961 
-1.68633783 0.0351198353 9.8223753 
16.27672 0.136663243 -1.58609736 
-23.434948 0.782714307 6.86257029 
5.91086912 0.446580172 -19.9393044 
-5.21624184 -0.188372359 9.89327621 
22.0535297 -0.568900764 12.6046276 
22.3865509 -0.103153072 -17.6080132 
4.43139935 -0.0913975313 14.3111572 
7.81374454 -0.213930458 17.0890884 
-6.26619434 -0.0738599747 -5.42040491 
12.2955599 0.00778699387 -19.9363155 
7.43828106 0.220443308 24.9578552 
14.5959883 -0.244793013 16.4652061 
20.3036785 -0.237587646 -5.92485189 
-20.6672821 0.415184915 4.62582397 
-5.22397995 0.100427262 -4.32167912 
-10.96982 -0.731465936 19.5232258 
-19.042799 -0.108521082 -2.24687314 
16.0131512 -0.0472849905 13.4885015 
5.4902482 -0.110926136 5.96782732 
21.1104469 0.0256166346 1.74835944 
13.1106482 -0.0639172196 -18.6730061 
20.4987144 -0.794990182 15.430706 
0.220150039 0.346385688 24.7061443 
15.1707392 -0.242925242 3.54847574 
14.5282841 0.22507076 -12.980979 
9.85812283 0.0303608868 4.57126284 
-17.5134678 0.280425787 -13.5940943 
-10.6642189 0.183481544 -11.9761992 
0.573467433 -0.0517991036 -6.34386063 
-19.7768917 0.547385216 -8.87906456 
7.85545444 0.167636126 22.457901 
0.199260622 -0.125506833 -22.1126213 
4.80283403 0.457142442 -21.0070229 
22.6341667 -0.307563901 11.1883612 
-6.23747301 0.261389077 12.3819418 
-8.44391823 -0.552012861 20.5197144 
-10.6296072 -0.639362812 7.25338268 
-6.71083403 0.00526267942 16.8184433 
8.35028934 -0.463982016 7.14849091 
16.2994537 0.00756325014 -0.331797302 
18.4270287 -0.164877951 -7.87846756 
11.5670242 0.00424961559 -1.24009907 
-13.2731543 -0.380113244 18.2911358 
7.46084356 -0.148681611 -0.736493528 
-19.7150669 0.297923535 -7.88945103 
5.6114254 0.161499366 2.27945995 
7.321455 0.00873294286 14.2582855 
-15.1505461 -0.32029292 1.91240561 
-16.1626625 -0.719492257 0.12195193 
-1.18233383 -0.128976792 1.65002239 
-12.2721653 -0.201949999 -1.34740078 
23.9105492 -0.0638513565 -3.67384601 
-11.8045187 -0.670759976 17.9101353 
24.2712002 -0.0063522351 12.9822702 
-11.716979 0.806770563 -16.7989922 
-6.4410305 0.0773990825 -1.90160537 
-0.648014188 0.193787351 12.9194384 
6.28679419 -0.00358423358 17.546505 
-24.2349854 -0.192307293 19.6732006 
17.4854546 0.0618868694 -10.18188 
-14.6700163 -0.357411265 3.63624287 
16.7060928 -0.103566259 -12.4755268 
23.835207 0.498714805 5.13491011 
-1.4529258 0.0553052463 0.471269369 
19.7421169 -0.28461048 7.32209778 
20.7916393 -0.197798029 3.444556 
-22.2189579 0.258600891 -3.71844435 
4.74918604 0.324974567 15.5654917 
7.97330284 -0.415140927 -4.22243404 
-22.2019901 0.647806823 4.86255074 
-2.11467028 -0.584396601 -19.9918938 
-9.21962929 0.226383567 -15.9419756 
21.3475285 -0.711033821 13.8105497 
6.74313641 -0.383295834 -4.93703794 
-12.3429899 -0.743436396 16.7131748 
-6.90936041 0.299885958 8.23505878 
22.5080929 -0.434701443 -15.9667511 
0.624482274 0.384653866 8.03087044 
1.80892777 0.248585105 15.7493114 
24.0445442 0.392581731 -0.696942568 
-8.53350925 -0.222564533 0.459674537 
-4.87125397 -0.435196519 -18.601078 
12.4401808 0.392439991 -3.6718576 
-21.491766 -0.0145610431 -10.4434795 
-0.934868276 -0.0276015121 3.15048313 
13.6874332 0.376322001 0.353110969 
2.81898808 0.0293696988 10.699523 
-23.9545784 0.820711792 4.48147964 
13.1601 0.150157019 3.53319693 
-22.3992996 0.346065074 17.5695229 
1.86011446 0.292167962 18.1880341 
-12.6987915 -0.490671605 4.37164688 
1.73574197 0.12220902 10.8202381 
7.90727282 -0.208060339 18.9147511 
-5.70137787 -0.0975925177 4.51816893 
-3.63572454 -0.220283046 7.6620841 
10.0214806 0.0280467775 23.3734818 
-21.6943398 0.525875151 13.7568798 
-3.12636447 -0.2399652 -11.7180786 
18.9085217 0.108156629 -18.4884987 
-3.53116775 -0.213970184 -8.69675064 
-5.68410683 -0.0901075304 3.34715128 
-10.168478 -0.276935488 2.54759574 
-10.2875957 -0.600067496 13.4947977 
1.43309891 -0.0938148499 1.34604931 
6.3354764 -0.189122513 5.77244377 
4.76919794 0.163201153 8.84355545 
14.1904116 -0.0692512095 -15.0309515 
-1.31497908 0.521629274 16.3960514 
18.3156109 -0.569937229 11.7517729 
3.57497311 0.200364873 5.62626457 
-24.8291855 -0.400922596 -14.6011724 
5.86305428 0.354742825 24.111002 
18.0754204 -0.0768500045 -14.159174 
4.50238562 -0.0102126542 -14.0157862 
18.4127083 -0.226899222 6.27824879 
-1.35493338 0.113421857 -4.0419569 
18.915369 -0.0289016515 -14.8104267 
11.1439886 0.132405505 14.0019255 
8.44793224 -0.376222461 -5.36128712 
-9.75175476 -0.388388842 11.5938606 
20.0296764 -0.583428383 16.1493664 
-14.9984951 0.420952827 24.4508038 
0.242749244 0.162463963 9.88776875 
0.0756454989 -0.0417881422 0.399617404 
-22.5153046 0.503279805 1.86586726 
7.45300484 -0.232190907 -1.77266729 
-20.9252949 0.078544423 -11.4828358 
22.5213909 0.196891025 2.44690871 
1.03313506 0.348677576 19.0562019 
18.7770805 -0.0350387618 -2.56574678 
-15.8590984 0.530087709 -12.373333 
-7.27798128 0.311019242 9.46572495 
17.2779026 -0.198528677 15.0565042 
24.0330257 -0.113470823 14.9256678 
4.08371782 0.0926240757 -0.473352522 
-10.8154669 -0.574519873 15.8020477 
7.70824432 0.175260141 22.9008312 
-10.1729422 -0.504981995 6.53214359 
3.70372272 0.154761702 -18.6944256 
-20.4005203 0.151393116 3.08214355 
-19.4620533 -0.234305739 -1.43790805 
9.75977612 0.165694743 2.80567741 
18.0743446 -0.286860436 17.9425812 
-1.52424204 -0.570642173 -19.061245 
-14.9750671 -0.0825612843 15.3505383 
5.19600201 -0.612210274 -9.62312603 
-6.52440262 -0.472009063 -17.3450527 
0.833496034 0.0814140067 0.787885666 
15.6756277 0.00731182564 -21.9004192 
-9.56733131 -0.585734248 19.3834648 
-1.23346078 0.600071311 20.854414 
9.10687733 0.138314083 3.91752577 
22.1893272 0.10920611 -3.6707623 
11.1607447 -0.0692268908 5.66789818 
-4.58941364 -0.69546473 -20.6111794 
-2.75402975 0.607458234 15.5422649 
-13.5005531 -0.272586286 1.31320953 
-15.8142605 -0.0804852694 11.5328703 
-22.5593662 -0.189179227 23.6067753 
-8.49524498 -0.523908734 18.4886513 
17.3688507 -0.0765422136 9.5423708 
22.7683086 0.0619170666 22.4720325 
10.5833149 0.0942268223 4.75942898 
17.6512699 -0.216154188 6.38184214 
10.4446373 0.159266576 -0.0473575108 
14.8153706 0.0553369746 -18.8901672 
14.568758 -0.00134888524 15.1457348 
5.94133902 -0.190606251 -12.8983383 
15.9520845 -0.102878898 -16.2823906 
19.1379299 -0.389000833 0.361277282 
-0.271865726 0.0284331143 -5.13157415 
9.95278263 0.0086653484 -19.1603813 
2.50107765 -0.144443676 -13.251708 
17.8203316 -0.12137907 23.7977924 
-14.9828653 -0.260308981 -3.19701099 
-0.699431896 0.130320176 10.7184343 
-2.46761227 -0.617235005 -16.4061928 
16.9994183 0.181994379 -7.13424921 
17.313015 -0.19350788 2.24662685 
-20.9843674 -0.458120525 -17.0175209 
1.52774942 -0.289182514 -6.9612031 
3.53924584 0.475095421 19.3028984 
22.0286655 0.1867612 -0.139278978 
15.1541233 0.424075961 -10.2704182 
11.2131166 -0.0447540097 5.46202612 
-5.42437983 -0.245766401 7.54838324 
-18.242485 -0.32839188 2.75246382 
-0.426016688 0.232719466 13.303566 
21.5537415 0.278864354 0.341148227 
24.3783264 0.416805804 -0.744072914 
-14.2919207 -0.131547689 7.51304388 
13.6503296 -0.528019488 18.5100613 
-5.45193529 0.12564528 -6.34742975 
9.09746742 0.304793388 1.6283716 
10.4175053 0.231930003 1.11421013 
-10.4379921 -0.479316533 -3.11233163 
-22.9515381 -0.257595241 -12.3893843 
24.6659241 -0.0447258241 17.0234299 
12.7971087 -0.0544108674 -21.4120083 
-16.2701664 -0.348850965 2.6854682 
-12.0561066 -0.209341288 -1.4357549 
-17.9159222 -0.180787489 21.4229374 
-1.09427214 -0.0385391079 -8.63906956 
-3.02535295 -0.0387665369 5.60996103 
-9.52194786 0.0613723435 -10.3575811 
-18.5043468 0.0267767869 -4.72057629 
-15.0129652 -0.0232643317 14.3399715 
7.84322643 -0.434143543 -4.14050245 
19.2447262 -0.293544531 -5.95325804 
-11.6549845 -0.508203983 14.426446 
-20.5599213 0.0186755601 1.65059459 
-1.66851461 0.0545094982 9.54996681 
18.0660458 -0.166658014 7.98095703 
-21.0355587 -0.475715935 -17.6718121 
-10.7575626 0.0706543028 -22.5573654 
24.038271 -0.0844820514 15.2265549 
-18.4408722 0.330748796 -12.5432949 
-10.6036682 0.609419703 -16.6536713 
8.96861935 -0.274861932 -6.76090622 
-23.3944492 0.233276099 -4.44342518 
3.25474191 0.23193945 4.76530838 
2.11347914 0.294075638 22.687355 
-19.0760918 0.421111792 -11.5962992 
24.9921341 -0.271194398 -15.7434025 
2.50956917 -0.157140806 -5.69354391 
0.818390846 -0.201456949 3.49277997 
-11.5898218 -0.516721725 -3.51884604 
-20.2534599 0.694533467 11.960144 
-17.1958447 -0.00180232339 -9.01377773 
-20.8533325 0.0696186051 -7.16933823 
16.0550804 -0.0272172019 -21.83498 
-20.5408802 -0.559275746 -20.5287952 
19.3948879 -0.338049471 -10.0571136 
-21.5827427 -0.300134003 -17.415741 
3.70050406 0.0623730347 15.2340403 
-22.9037209 0.0930207297 19.8065853 
15.848196 0.309338748 -2.91292787 
-13.1481495 0.646461546 -16.8694458 
3.32392859 0.593773723 19.3679981 
6.80745363 -0.0151326861 5.02074718 
-3.85683441 -0.24466759 -11.8769636 
-14.19487 0.430992633 -18.9902515 
17.1743774 -0.0778165385 -23.5242805 
-20.3926773 -0.228682294 -3.34580088 
22.0062695 -0.83741194 -10.4325542 
-15.8732834 0.346655667 -23.2938194 
-18.6611023 -0.156913191 -15.2625408 
-19.2003288 0.434524834 -7.53045845 
-21.1588039 -0.0275480989 -9.86244965 
14.1553173 0.599535227 -8.57726765 
8.90000057 -0.100454487 10.8615131 
-24.9317093 0.211658314 -2.52777696 
14.5769033 0.162929818 0.821528137 
20.2038689 -0.388977021 -7.36214924 
-17.8607063 0.287891358 -7.57647276 
19.4368896 -0.148641631 -13.9177675 
7.50373077 -0.151094019 17.2289658 
-14.066576 -0.208084837 0.186586112 
-21.0223255 0.0932509676 20.0000534 
11.1939631 -0.0671752021 -22.7561836 
13.3567867 0.639505267 -7.03957748 
-5.73544598 -0.202872798 -15.258873 
-20.7372665 0.573065996 5.97941494 
17.7768497 -0.212193668 18.2379665 
19.7573071 -0.612323344 13.1836309 
-5.97180605 -0.0681393892 3.67623186 
18.7730293 0.140768975 -17.3177147 
12.4213963 -0.074450992 8.57097435 
-3.9219451 -0.261982977 -12.1944704 
-0.375345767 -0.156553403 5.80680418 
15.5905056 -0.074037008 -22.6754417 
-3.81276631 -0.193125591 5.34003258 
-18.3416443 0.523707628 -10.2834091 
8.62930679 -0.288481057 -5.98829985 
2.0543046 0.161231756 -17.5196152 
20.1162453 -0.199232772 -14.6728315 
3.11987662 0.0294045936 11.1876221 
10.7418547 0.106514104 0.220083922 
5.22399187 0.494600147 -21.9744892 
15.4066181 0.0394764878 -16.6943264 
-11.6451302 -0.240148127 -1.81653833 
20.9358253 -0.320835173 -14.3559828 
5.35075092 0.0899252966 1.19823194 
7.4125843 -0.0157946367 13.6181059 
16.8727913 -0.132655472 8.30106926 
-11.7714996 -0.698803008 16.4497967 
-3.0935421 0.225457475 -5.19752693 
19.5143642 -0.0543961525 -2.36283565 
23.4299049 -0.729637623 -13.593915 
19.8622761 -0.406236857 1.33828902 
10.8504324 -0.219048038 21.3233299 
11.5995255 0.434266388 -9.16113091 
21.7165146 0.147181645 -21.9661331 
-15.7279873 -0.758790791 -1.32136977 
5.94397545 -0.0970726609 -0.370070547 
-8.58522034 0.645537853 -12.4525595 
-3.54500246 0.376724482 13.472456 
-15.6966019 -0.674251437 -0.223882347 
6.57893515 -0.0950358286 18.9257469 
-19.35462 -0.205424204 0.24587214 
1.38968372 -0.343322128 -12.3456736 
5.3972497 0.207367018 16.0318756 
3.17701888 -0.113811776 -13.3832083 
