ply
format ascii 1.0
comment created by gply, a Houdini tool.
comment converted from .[b]geo
comment for more information about Houdini, try:
comment www.sidefx.com
element vertex 1273
property float x
property float y
property float z
element face 0
property list uchar int vertex_indices
end_header
-7.49759388 -0.0540161952 -23.2311554 
3.59246016 0.20093593 -20.1338596 
-9.08458233 0.215967536 15.4425917 
11.094162 -0.0396159291 -19.5705795 
-4.0450058 0.293183148 -23.0691566 
-22.5591297 -0.217594728 -18.3230171 
-15.3537865 -0.159406453 -9.91595745 
24.0009193 -0.850870013 -21.149374 
8.42343235 -0.0554613657 9.92352104 
-4.9868784 0.28542757 16.1888142 
18.5322781 -0.376715392 -17.5892353 
-8.69527531 -0.0452564768 2.80035782 
-18.6378593 0.157233685 17.5751038 
-22.7271996 -0.458655387 22.8227749 
-7.6964798 0.0705406666 21.9986095 
12.2208719 -0.153053746 -4.28467274 
-3.0528264 -0.419575661 -14.2378368 
21.9181061 -0.317280293 -15.1016502 
-0.794717669 -0.165324688 15.8566017 
-5.31151438 0.344357371 21.0606041 
-8.32880974 0.25531137 16.5116062 
8.30128479 -0.084993504 2.38069129 
15.1137486 0.0953833312 14.8867121 
-0.348967612 -0.194790736 21.5182133 
-12.4730358 -0.138571292 15.3758602 
6.19156599 -0.147999629 15.6356087 
12.6482496 -0.221494377 -19.2623177 
-1.81755626 0.442246348 -18.7539005 
-3.07152367 -0.316987485 12.1841373 
14.4773874 0.175590754 -24.4455853 
6.21848345 -0.393979281 22.4743786 
-19.3734627 -0.509987473 5.40052938 
15.9563169 0.108419597 -17.7423878 
-4.72187614 0.393660843 22.3874378 
12.7087269 -0.0669464692 -16.6895084 
16.1397381 0.0764746293 12.0142345 
10.7027664 0.0840000361 12.3366089 
-1.29714906 0.503013909 -24.0234642 
-19.1716766 0.5140903 -16.1355228 
-0.850828528 0.348003596 -17.7032871 
-22.2024708 0.81441772 -10.6115637 
8.82752419 -0.0586992241 -14.8493786 
-6.5676074 0.439382464 17.9753437 
-4.42052698 0.0384525135 15.007761 
12.5616035 -0.631759405 2.01576591 
-4.9654851 -0.148286924 3.67464757 
12.8160458 0.1126858 14.7879725 
6.61887932 -0.0546393469 -21.8561249 
-12.9002848 -0.284509748 -22.7625256 
-1.07135546 0.486059099 -19.0725632 
-16.1155224 0.425000042 24.1321163 
-20.2103081 0.380188495 -7.75711966 
-19.2608662 0.464825064 -16.9313354 
19.1541862 -0.429785013 14.6180725 
-23.8077164 0.528671205 -12.2121372 
-16.2638187 0.336767882 -17.8403606 
-16.7182961 0.480661064 23.2243347 
-14.492094 -0.277297497 -7.80849934 
6.24971104 -0.198775843 18.4547386 
17.5238113 -0.093969509 12.9303513 
19.235508 0.484723419 1.18068159 
-25.1348801 -0.0103274267 -2.26043844 
-14.1713161 0.383464962 -17.7759037 
-15.1090727 0.647740662 -19.0809822 
-23.4791565 -0.0559528619 19.1013222 
-0.110430241 -0.259686768 20.9499569 
3.43274093 -0.218465433 17.7035332 
-10.6717339 -0.220727623 17.7391605 
22.4039059 0.237852842 12.3397036 
21.8823757 -0.339772105 -14.9466896 
-5.28250885 0.553464353 19.0437088 
-18.6286774 -0.207674533 14.8476982 
2.88952541 -0.357218593 18.2981949 
12.0044641 -0.424403101 3.76942921 
-2.88214302 -0.357173562 -1.65517676 
19.7612133 0.517240703 8.82592583 
23.4580479 0.08852534 10.5205755 
-22.6931248 0.277782142 -14.2476015 
-0.54481101 0.370248288 -18.1839542 
3.5057919 0.28104341 14.0818739 
-1.91132283 0.102961466 -15.9694023 
1.07523286 0.385789335 -21.4608192 
-3.97910738 -0.534873366 -15.7340212 
10.4018564 -0.193062827 -16.2507076 
24.1630783 -0.118604794 16.849144 
-2.04484749 -0.243499279 3.46230149 
6.65884829 -0.0347515792 -21.4399376 
22.3010273 -0.189754963 17.5102654 
-2.49423647 -0.122804627 16.6026459 
15.9600639 -0.282774597 -12.7240362 
15.5919914 0.0939100385 15.2659864 
1.23410821 0.30687204 -14.4504728 
-4.56995058 -0.335489273 -0.108050093 
-19.9250488 0.171870321 17.8819675 
20.391758 -0.0135199651 -18.383728 
6.53488398 0.134227365 -0.893337905 
-6.64987135 -0.0501253158 -3.74991012 
-7.19625664 -0.315712631 -16.916563 
-22.799696 0.610310674 -11.7663727 
-20.9819317 0.476766497 -9.72367287 
12.6703005 -0.0599838123 -6.86787462 
-10.3353081 -0.226961881 18.3894272 
17.6765842 0.0372210816 11.5695438 
-15.052351 0.132137358 -13.3830528 
-24.0618515 0.481438011 -8.81437397 
-15.7660551 0.118878551 -12.4761696 
20.8595791 0.122094966 0.145457372 
-24.4009438 -0.30795601 19.8617058 
21.2416916 -0.613143325 -14.0251455 
19.850996 -0.167172879 11.9203978 
19.7128754 -0.197187766 -19.7373466 
24.5783844 -0.0216652211 -0.701745927 
24.7696133 0.0813421011 12.6643133 
-0.317915201 -0.0325837322 16.3524723 
13.6745472 -0.0729371458 -20.059988 
-23.8582764 0.308777958 16.3994198 
-15.4480829 0.0314409621 9.41844749 
-7.08157825 -0.353356451 -16.6138802 
-18.6628418 0.363581538 23.9589844 
-6.2300005 0.506522357 17.9013958 
-17.2106056 0.00621898565 17.688055 
13.4688959 -0.170184866 7.65826368 
22.5646191 -0.515285313 -20.5549145 
-1.91024935 0.00441311952 -15.3601751 
-22.32411 0.39306587 16.9236298 
-24.9624691 -0.0239538774 -2.4723773 
-22.9511356 0.310911804 -13.739583 
-24.2200527 -0.0107978899 -2.49557757 
24.284441 -0.0225190334 11.5875673 
10.1103201 0.0495594777 19.131279 
-21.5136051 0.530670702 -12.0003872 
-3.75346065 -0.366722763 9.17241478 
2.41417575 -0.280673772 22.3893757 
14.4093723 0.419390172 10.990201 
-18.1605797 0.33286944 -13.1183634 
12.8798361 -0.276647598 -14.7267714 
3.04174876 0.26649192 13.8281021 
-24.1643581 0.587894261 -9.66651535 
9.13797665 0.220926523 16.4299126 
22.0371819 0.244820744 9.72191429 
-14.4365549 0.0772454068 21.8033619 
15.7317562 0.123813234 9.84492397 
-23.1874714 -0.360719323 -16.5529881 
4.15270329 -0.217017546 16.8493118 
23.8374138 -0.555428863 -18.9803905 
19.8424644 -0.336333275 15.6453524 
-15.390727 -0.384458721 15.2344046 
6.98969316 -0.081648007 13.9152403 
14.6425009 0.338437796 10.2689543 
-4.9219451 0.00543186814 -23.065506 
11.9565907 -0.295718431 -15.8143244 
24.8857193 -0.107158817 17.0858917 
1.6464299 -0.537907004 21.2117043 
23.8856449 -0.0141925551 10.9915705 
2.3668294 0.101428151 -24.5595798 
-21.0051289 0.42652294 17.6606827 
17.5608234 0.136844903 -20.78615 
15.8813572 0.159176365 -16.713995 
14.4593191 -0.214844733 -14.9470797 
14.9996204 0.120352574 11.5431089 
-2.93207359 -0.209032297 18.0326424 
8.72005463 -0.0262776613 11.1113911 
11.067627 -0.306347191 3.02775383 
-24.4780502 0.0521797389 15.9874592 
-22.8810425 0.713460267 -10.762372 
12.9322329 -0.0956282318 19.0390148 
-16.7864151 0.0100003136 16.2276707 
-23.2912292 -0.549742818 -18.5883236 
17.3331146 0.0539369807 8.25648785 
-16.6726303 0.432304263 -15.3127279 
-22.4185848 0.164701641 18.4568501 
-19.7449265 0.211731598 -10.30091 
16.088726 0.258357733 19.452774 
3.98990917 0.295197368 -17.1934681 
14.4620199 0.189774528 12.450532 
19.0772266 0.247257173 8.45894241 
-17.9699402 0.356037617 -11.741394 
-4.22946262 -0.195832029 14.3156033 
20.8876667 -0.524217069 -15.5037603 
-3.30575037 0.519744098 22.0908794 
-1.25794125 -0.265048474 16.2090836 
-16.9373016 0.519448936 22.032383 
8.68214607 0.225083143 17.9470482 
1.66865551 0.420553803 -14.5547838 
1.40648365 0.482064426 7.10287762 
-4.24861193 0.161726967 16.0237961 
-15.5523996 0.333731741 22.5534153 
2.98127699 0.256620914 13.5405064 
7.15325117 -0.033831276 16.4637318 
-23.429903 0.321506143 16.1178722 
-6.71449804 0.423769474 17.7610989 
-9.10699749 -0.452554196 -18.1336193 
10.6088572 -0.133021176 17.288147 
-23.8257809 0.538665831 -9.34635162 
21.4389153 -0.236131147 14.8729982 
-23.071434 0.270363629 17.0790043 
13.3641186 -0.0891761333 -15.6144419 
-21.8534718 -0.28461656 -24.8889942 
-12.7028265 -0.0271262731 -0.179603308 
1.76583421 0.35734278 7.57979345 
-23.3380547 -0.0724399239 19.1571789 
-15.2909765 -0.19332923 -8.88978291 
-3.70632958 0.0445819348 16.3329945 
18.5399876 -0.195950359 -15.0834303 
-16.7881031 0.352924556 -16.2542362 
-15.8041344 0.361317098 -14.6600094 
-21.9430676 -0.302958876 24.7392673 
7.71166277 0.0529607534 15.2692165 
-23.3193512 0.342919677 15.5509853 
-23.7165833 0.484868199 -8.68055725 
22.8846588 -0.114858761 -16.2906513 
20.5967846 0.378646225 10.4214315 
11.9300652 -0.0580074154 -19.9549522 
-20.0184879 0.458406299 -12.1378212 
-16.6542263 0.286388725 -8.80556107 
18.2782269 0.109732322 17.848793 
-19.753931 -0.102504238 11.5111179 
-2.66271853 0.291639447 -18.8619328 
12.9976835 -0.304597706 -1.74582732 
-16.9093895 -0.155802339 5.84964275 
24.40942 -0.495157719 -18.6160297 
13.9701376 0.233729362 -24.2780991 
-20.727047 0.242634803 -15.4844294 
-8.16152287 -0.348851234 -20.0626392 
-21.2996941 0.401993483 14.8366308 
16.7051678 0.0649782345 12.2327662 
-8.46596336 0.124184839 18.7500458 
18.9998264 -0.0511204824 -21.1849327 
-5.70106792 0.542137623 19.1310768 
-18.6631012 0.356533587 24.2928352 
1.24417245 0.36165151 -15.8114319 
-5.96955967 0.0111838467 -20.7556267 
-21.1438389 0.61702019 -7.58676529 
10.7007828 -0.236604378 -16.4718323 
13.0337305 -0.192047149 -18.7757053 
-18.702404 0.112990648 -10.1162195 
4.89562988 0.0955798924 -4.36494303 
21.6046524 -0.425997525 -15.6514416 
15.1062317 -0.609386802 -5.30026913 
0.425919801 0.418677777 -18.2342339 
-10.6699944 -0.484578043 -17.5844593 
19.4996891 -0.170428023 -18.8120499 
20.9306183 -0.217066064 -17.1098423 
-6.59455109 0.39179036 18.3501472 
22.7916698 -0.168522164 -14.6639605 
2.96941185 -0.0798876733 16.8547039 
-24.6711903 0.343307048 -13.2692184 
-7.22453356 -0.249885976 -17.5559902 
-17.6302929 0.476619303 -14.8720465 
5.70842934 -0.160765886 16.3962574 
-22.1355915 0.431583524 16.8302612 
20.289854 0.525872767 5.84289885 
8.98298931 -0.365396738 -23.9104042 
-16.3238144 0.381542593 -16.2917461 
3.55476618 0.302820146 -23.5529156 
13.120863 0.010487102 -16.8452454 
-4.34557867 -0.287133366 13.3853121 
16.1423874 0.22142294 -15.3325195 
17.7719784 -0.119028449 -17.7267475 
12.1266403 0.0137203811 -23.7657661 
-15.3063469 -0.187217593 -9.192173 
18.8496952 -0.242649823 16.8234272 
-22.48279 0.433004737 16.2681828 
-20.8270893 0.142515853 19.4718323 
19.7271538 0.379063189 5.75378561 
15.14048 0.073748894 -19.2494221 
-3.52781057 -0.156374186 4.07050943 
3.85786605 0.422180504 -18.866991 
1.58965278 0.141706556 10.6811972 
11.3453751 -0.115028329 16.2893162 
12.646348 -0.156808302 17.8716736 
11.5061255 0.0346339345 15.1728306 
-16.5448818 -0.123423398 3.67991424 
-24.3226318 -0.753650427 22.8407822 
2.35731697 0.123201765 7.60532856 
-12.0662918 -0.220566675 15.8827324 
19.3259277 -0.348752677 -16.5143337 
-19.9310398 0.225768626 20.6230946 
-15.0412951 -0.263499588 -9.07808781 
-8.48295975 -0.341520339 -17.1582127 
-8.23931599 0.0785463154 0.330468953 
-11.3873072 -0.111558683 17.2279263 
22.7019367 0.193916067 8.44681835 
-19.9013462 0.45808357 -13.984808 
-18.3259811 0.32091561 -12.0241728 
3.60086894 0.359231949 -3.35619497 
21.0237217 -0.175940007 -17.3622608 
-7.43166256 -0.482377082 9.23960972 
-17.784441 0.199291125 18.2949009 
14.6805611 0.173527315 22.1043816 
1.66051841 0.0290975701 -6.15155077 
10.6986723 -0.145563379 4.58501577 
24.2787895 0.703613579 -10.726306 
9.82443333 -0.221425831 24.8427849 
-22.6096897 0.0715136304 -15.1281281 
14.1964426 -0.137800053 16.0975761 
-17.3549824 0.489473253 -13.8764067 
-4.55349779 -0.535341263 -16.3532791 
16.6127186 0.0993760973 8.66679573 
20.8719616 -0.0702092499 -24.605545 
-13.5377789 0.394212425 -16.4700966 
-19.6434288 0.0806589201 16.4413052 
-20.8775635 0.503471434 -12.9318771 
15.8849325 0.123501815 -23.9283352 
12.2674866 -0.0135838427 15.3264446 
-24.670166 -0.00248350063 17.4926662 
-14.9811926 0.628323078 -18.8479004 
-21.3568916 0.645079374 -11.7174549 
14.9662485 -0.0643367395 -18.4771423 
2.47995853 0.579087853 -16.4459934 
6.99691916 0.272422105 1.25535524 
15.1863289 0.262459904 8.80454159 
18.7049294 0.160469547 9.99722099 
-7.4912219 0.412041932 14.3072224 
18.3991013 0.125381395 20.2639046 
-18.7240772 0.404644191 -19.6055813 
16.2548904 0.0582313091 -24.8078671 
-10.7085752 -0.232767239 -14.1702499 
11.4515696 0.0844843537 -21.2449265 
11.8298359 -0.218703061 18.5658169 
9.1962862 -0.0420970283 8.12159729 
9.24748611 -0.143312246 -16.6658592 
23.6713676 0.193135411 12.8706579 
-5.83931923 -0.568627059 -14.6562529 
16.0585728 0.242075443 -16.4965572 
-17.4719448 0.717117548 21.0958633 
-2.65712595 -0.11659833 4.44715691 
-16.9387531 0.369964629 -13.4988623 
-0.209554195 -0.0437082574 18.6793671 
0.590777755 0.523586333 -17.5154572 
-23.2683029 -0.563950717 24.7785511 
-20.4045582 0.140701979 -18.7955475 
13.0847216 -0.0783916414 -15.4054871 
-17.6885433 0.330782384 -10.512228 
-24.2747631 -0.553327501 20.7881203 
-21.7011261 0.310213208 14.4009256 
23.5566139 -0.101140544 14.5864544 
21.07514 0.153311431 11.4419165 
6.48204088 0.0437538549 -1.67248344 
7.21835136 -0.0177553575 -24.3550167 
-0.705396056 -0.184705704 15.5161409 
-22.5778332 -0.321896881 -17.7389297 
0.756182313 -0.217068553 -10.0844564 
23.3459721 -0.750022411 -20.6617298 
8.89989662 0.17444627 17.0951691 
19.8048897 -0.14022249 -18.9518948 
10.1248379 -0.182285339 -15.4702129 
6.2811408 -0.148063079 -24.1736984 
14.5005732 0.372383773 10.2504635 
-2.99345994 0.0921345279 19.5192146 
-14.1890078 -0.144711643 18.0511913 
-14.6779032 -0.267462313 -8.80600357 
16.440733 0.0491961539 -24.3656063 
8.05255413 -0.260779053 -17.7425251 
17.7345428 -0.0806410536 -17.2744598 
20.1727352 -0.361107677 16.1576653 
-16.6505661 0.394891471 -18.9956589 
-22.1741371 -0.0778173804 -15.7979679 
-18.5166626 0.344839275 24.3571472 
14.2441149 0.429887623 11.2185974 
-22.4264107 0.75575316 -8.67503834 
18.0772572 -0.217002407 -14.6878777 
-23.0397472 0.408958972 14.4857206 
-14.1390219 -0.17552644 17.7679806 
-18.632309 0.239427194 -11.0112028 
2.76570535 0.517926395 -19.812027 
-8.59732437 -0.175276712 23.7367153 
-22.8233891 0.25128457 -14.2503834 
-4.13328505 0.422530234 18.2000446 
4.29758978 -0.212219566 16.9057178 
-17.5969028 0.381628036 23.6319313 
22.8721485 -0.189160749 17.828083 
-18.8272705 0.494419098 -15.4474487 
7.26552629 -0.317840815 -18.8851948 
-17.2854099 0.271995604 -8.74067307 
-21.197094 -0.33797875 5.16232395 
-18.4606647 -0.227498025 15.610158 
-11.696456 -0.331374228 24.685318 
7.12120295 -0.200615242 21.2165794 
8.71953392 -0.0516747236 -20.5247765 
22.0083714 0.326917857 11.7665348 
-16.5276299 0.48815769 -21.1018543 
1.15305638 0.0462388285 -0.918943763 
12.6898384 0.043019332 15.2876148 
19.1788177 0.287781656 10.4320869 
-12.5556974 -0.154385269 -11.6003914 
-7.24754238 -0.254122168 3.44448423 
-14.1414661 -0.427590698 12.1980381 
-4.95583534 0.270731032 22.4568787 
22.3340816 0.615160882 1.2502718 
-11.655962 -0.346406907 23.1398487 
-20.0053577 -0.403149873 0.29437387 
18.0547485 -0.168052524 -15.664052 
-15.8565178 -0.237539738 14.8177719 
1.70446646 0.406561702 -17.7926483 
-3.31258273 0.130113199 18.7506847 
13.8370991 -0.0860383436 -19.2021351 
22.4721336 -0.421068639 -18.4173813 
20.4629841 -0.00333177368 -18.7296696 
-8.16543484 -0.397945881 -19.1676693 
-17.5503998 0.439743191 -13.6458874 
23.6798801 0.0510072783 10.481617 
1.84335101 0.384338647 -15.1462078 
-24.0054207 0.258587331 17.9342213 
-11.6587009 -0.178758264 4.09514427 
-10.0531235 -0.213783398 -14.5975018 
-21.6767654 0.271588445 14.253994 
22.20854 -0.13964422 -13.4334059 
15.4572258 -0.0507469326 17.1870232 
-17.6640091 0.528879106 -14.2509537 
-19.4626465 0.233657688 19.1518173 
-0.995192587 -0.199926078 -4.49563885 
-19.6521225 0.245284215 -19.1146965 
9.84535313 0.0772202164 -3.00035596 
16.4278927 -0.0184467528 12.5827694 
-23.6112347 0.450042188 -12.7564507 
12.0786209 -0.0968991965 -20.0443001 
-21.8514099 -0.0104372445 -15.7369547 
22.142086 -0.232332096 -16.0296249 
-23.6254826 -0.438120544 -17.5238152 
-3.72267985 -0.263230085 14.8560419 
16.8348351 0.331727028 -15.616312 
-21.2011051 0.300934732 14.0095434 
-5.25277472 -0.340678275 -18.5714798 
23.2465706 0.509958386 -10.8131866 
-6.93390656 -0.135889381 23.2836094 
-8.31780434 0.146104157 19.0887928 
-24.4101086 0.0908208489 1.33992803 
16.8249722 0.272488087 -17.7162514 
-9.06564331 -0.166531175 21.2259026 
14.0750484 0.0479625873 13.0217648 
-8.28578663 -0.440502256 -14.9282446 
0.981085241 -0.00563856214 -6.13145256 
12.865839 -0.0132482629 22.7159576 
7.54285765 -0.0120284315 13.3416767 
-12.4210739 -0.232952729 14.3337412 
24.7302608 -0.325757712 -16.9679241 
14.1777515 -0.16121003 -17.8145428 
-15.7417374 -0.274093926 14.9128561 
-1.59132361 -0.233266994 -4.15516138 
6.43460894 -0.176355734 17.6562996 
-11.7150316 -0.344475597 21.2832375 
24.3231564 0.129133791 13.2748833 
5.07800293 0.0147866625 -17.4267483 
2.87506223 0.510331988 -18.8997746 
-24.3949432 -0.0631252602 18.8534946 
-15.3675766 -0.360974282 16.2764263 
15.786068 0.127223939 9.35789871 
-21.2226334 0.610173821 -9.15011692 
15.2403612 0.15282248 -20.1211624 
-21.4516335 0.471560687 -13.6932917 
-11.2324104 -0.175524518 16.8090801 
-16.0696621 0.38562724 -18.1360741 
-8.45601463 -0.404849648 -18.5306702 
3.22648883 -0.0581319518 24.16926 
-17.3751087 0.349684924 -9.27617073 
-19.1721001 0.388524383 22.3114166 
24.9749298 0.249954283 -7.29158306 
17.7364388 -0.371307164 -5.87673569 
1.76895535 -0.111659527 17.3518353 
-5.61817932 0.360817313 16.0518723 
23.8664742 -0.794221342 -24.8567619 
-14.6378651 -0.10193377 18.1667843 
-4.39995813 0.347680271 21.3958454 
12.8956146 -0.0231212396 -16.7521725 
24.1840725 0.232795402 1.75155151 
-4.17218637 0.389704049 23.4283867 
-7.0735817 0.487920016 16.6971436 
22.269371 0.272679389 9.46308899 
-8.03544617 -0.298927099 -16.396246 
14.8435707 0.188921377 11.7848063 
-3.50082207 -0.10086149 6.47687912 
-3.86760449 -0.579312801 -15.215868 
3.58524728 0.442326516 -17.7276173 
14.6220312 -0.473558694 0.667564273 
16.9711266 -0.109926991 15.2899761 
-9.8444643 -0.147643328 -10.7185888 
5.42190742 -0.18582207 21.1259289 
-19.8083763 0.513362408 -12.8957043 
12.620121 -0.136867255 -16.3922901 
18.4261417 -0.297009885 -5.40921736 
16.7183418 0.259875059 -19.9126797 
20.3262768 -0.361776173 19.097065 
19.8725433 0.304332256 10.49722 
-13.7126913 -0.18412596 11.1262903 
8.55266666 -0.230446741 -16.1074181 
-5.61636066 -0.259019852 2.55040646 
-22.3720894 0.905696869 -9.32776356 
-1.10488558 0.374850035 -18.0804195 
-0.506512463 -0.219689146 14.3333626 
21.966341 -0.29504326 -22.5637608 
-7.855443 0.358543754 19.4719334 
-18.2786846 -0.190920949 14.6861134 
2.41752005 -0.221686065 18.4025402 
21.8021183 0.335544825 9.28680038 
20.8679295 -0.116270155 -19.0357895 
-5.39793396 0.591022789 18.467804 
-16.5312843 0.29671815 -17.2314968 
-24.5848293 0.0718458667 3.92106295 
-24.0906677 -0.790603459 22.4905586 
16.3796597 0.0424194783 10.7892323 
7.62068415 0.0121149374 15.4580803 
8.3159008 0.400772274 -5.91639328 
-6.97907114 -0.0485467128 -21.2648335 
3.60711145 0.101974145 15.1130543 
-21.1118584 0.581774652 -13.1279945 
-24.4972782 0.45270437 -12.1317129 
9.91685581 0.21586889 17.0042877 
-6.9570756 0.13410674 -24.6017361 
16.2758141 0.120790318 8.87970066 
-15.8543291 0.466921806 22.6517792 
-8.66820145 0.408019274 14.1788387 
24.6671829 -0.217461839 -15.8318291 
3.76225448 0.221578777 -19.7489681 
-17.2864742 0.354577243 -15.1361847 
16.8561497 -0.00917992182 12.8180075 
23.2934322 0.230900779 12.6812525 
-11.165184 -0.195156291 1.46135056 
4.24324703 0.445199221 3.17727494 
-17.4319172 0.354896218 -17.3215084 
-22.3032055 0.528575182 15.5088015 
-5.57043743 0.279812425 14.6699514 
6.38799 -0.261609107 -24.8095455 
-21.8844204 0.430855364 15.7644825 
-3.40449238 0.0489745885 -19.3226471 
-20.4599667 0.244790986 14.4722986 
24.180212 0.155182779 -0.217270046 
-12.625638 -0.269959867 19.2486229 
-8.70800781 0.144112661 17.5200691 
-7.27088833 0.371633619 14.535079 
-0.924512804 -0.262233794 14.6678629 
24.7795696 -0.338915676 -17.0948486 
25.0057697 0.0180921517 -14.5803795 
-5.75035715 0.52286762 18.3008232 
-7.66801453 -0.412550449 8.47696781 
-2.49392819 0.35490945 -19.6923637 
-18.8747177 0.354801059 -18.4530907 
-19.2286053 0.265941441 -22.4812889 
-10.5998554 -0.422526509 24.9077549 
23.5020409 -0.159616902 -16.6939201 
0.960215926 0.268846691 -14.1391134 
18.6130695 -0.0491784178 19.0948906 
-24.505291 0.261395574 -13.3649931 
-0.642601728 -0.0539854504 22.9925842 
-19.0127411 -0.223315716 8.56595707 
-21.8763275 -0.058395341 22.3273563 
23.5983315 -0.791544139 -20.4072666 
-3.60220289 -0.262634367 8.63449192 
4.70878506 0.0989134312 -17.7386303 
22.4639797 -0.177104041 -14.1372442 
8.17442513 -0.0790247992 -14.8422689 
-3.76191616 0.29832527 19.8651867 
23.8447914 -0.261392206 -17.387207 
-22.759201 -0.280504346 9.46592808 
4.78798437 -0.0265937634 25.1574478 
-4.23651218 0.469527006 18.3527069 
12.9524355 -0.0513580181 20.0783443 
-1.0378741 -0.270439714 15.2873306 
-15.0422039 0.306211233 21.2235603 
16.9911747 0.021196153 11.6761856 
-16.2714348 0.393010378 -14.9387217 
21.5066757 0.370788038 10.9147034 
-12.3330097 -0.289405465 -24.6331387 
6.18472099 0.0423356816 -14.1026163 
-5.05973959 -0.520247638 -16.8569145 
0.0105051547 0.0606321618 -12.0562057 
-0.542227745 0.110603899 4.23267698 
-24.0557613 0.192492902 18.1876659 
13.214921 0.000456459122 -16.8659325 
-22.134716 0.295842409 17.9736767 
-23.9439087 0.044024393 1.60812271 
3.22246718 0.475167513 -15.9234333 
2.88014722 -0.0581094809 16.7538319 
11.4043703 -0.0334213339 -21.9716969 
11.3461637 -0.260838181 1.80762601 
21.9367847 -0.339817375 -23.855278 
-20.7315254 -0.363390386 5.78143311 
-16.3183517 0.398199379 -19.3562355 
7.36021852 -0.209665537 -15.4301357 
-7.99064207 0.0511711799 0.506626129 
-11.5716419 -0.156716526 15.1174221 
16.7523479 0.323280156 -15.356904 
-9.18457508 -0.247788623 -15.4763212 
21.0410366 0.469492584 9.57588291 
15.0950813 0.295034766 9.90873051 
-4.5216198 -0.646524906 -15.2143984 
8.81336975 0.120356843 -13.8943892 
0.804460526 0.4272587 4.65233803 
-15.3417683 0.428468913 -15.2785482 
24.041153 -0.359332055 -17.7756195 
11.6849756 0.125009879 14.4451847 
-22.1964951 0.949079871 -10.1047964 
-19.9119701 -0.0902700946 9.51525211 
-19.0464363 -0.0844158381 15.762084 
-0.935069621 0.40500769 -20.2285156 
20.3082924 -0.0902506411 -18.0613155 
-4.93953276 0.327302098 16.9867744 
14.334692 -0.0990253836 17.8648758 
-19.7046452 0.0942909047 14.7295132 
-14.2490902 0.0124845188 -11.7347927 
-0.624350786 0.15079461 -15.9291906 
18.4852734 -0.171143919 -19.8872089 
-19.0584888 0.173671663 -8.80005264 
17.9280815 0.0398928113 9.96076107 
-22.9288826 0.672393501 -10.9292622 
15.0140896 -0.119202718 -1.22252703 
-17.8576508 0.371207356 23.6952019 
-21.5063076 -0.172178432 -17.6285686 
21.5294056 0.168154508 11.6948776 
-23.2884426 -0.536871433 22.7139568 
5.75902319 -0.347571075 17.9564247 
-20.1566124 0.292117745 15.0422583 
16.1185932 -0.00462179864 13.0078239 
18.3655815 -0.0559587032 -22.4943199 
17.4953079 0.0778896883 8.31704426 
-24.2597599 -0.232642844 -15.8981323 
12.7296438 -0.133680731 -2.77384567 
-12.6173592 -0.0668547973 1.5253638 
0.593006611 0.296571106 -15.7306013 
-4.00197983 -0.573364735 -15.5564775 
16.4262924 -0.0533818938 12.8733692 
-8.03748798 -0.0198878571 21.6998177 
-15.8531837 -0.0376889817 19.0420761 
1.69560122 -0.327317894 23.1259365 
-20.7975712 0.346085697 -14.4094009 
23.1849709 0.414495796 2.95369935 
12.8132238 -0.495231211 4.42460108 
-23.8505363 -0.321395129 -16.7504063 
-24.5150089 0.629414022 -9.24424076 
-17.3176403 0.66219902 21.0047874 
-17.7663364 0.63164866 20.6803036 
1.46569145 0.0335138366 14.7230291 
18.9538345 0.122956492 -21.8385601 
-20.9016247 0.414253742 17.0859947 
-22.619873 0.832162857 -9.70734406 
14.7415781 -0.104208283 -18.2413216 
22.7735615 0.525045872 2.93391323 
-5.33331442 0.277907819 15.2795944 
1.7426827 0.0651800036 14.7013168 
-13.9644365 0.0546006933 4.90698195 
-23.6474724 -0.0577777587 19.1400394 
8.59821892 -0.00531640369 -14.8144026 
15.9384212 0.185622334 -14.6320715 
12.7339993 0.109848611 14.9078894 
24.7070751 -0.213541627 17.5985317 
18.8929291 -0.445048332 -14.2261953 
-21.6653023 0.82561034 -8.58429909 
7.56086588 0.193175107 17.3778324 
18.9590263 -0.143780395 19.2732697 
23.9551182 -0.157040253 15.7498484 
15.9663448 0.209230453 -15.0292568 
-4.11649084 -0.37781933 0.662135065 
10.9057674 0.218428552 -5.45442438 
16.168932 0.07330437 -21.85536 
18.7458038 0.227385417 10.248414 
24.8414955 0.00741861342 15.3744812 
18.3900852 0.000143634388 19.5936985 
-0.643057883 0.403469443 -18.8870811 
20.2011032 -0.0230890065 -18.6689548 
-11.5199642 -0.0854459926 -0.79055059 
-21.9796143 0.873354852 -8.76943111 
-20.7306118 0.248734862 20.8600178 
-9.7969408 -0.234422728 -15.2483578 
-22.9922142 0.732542455 -9.13028812 
14.6677399 0.0111046154 -19.1311111 
-21.4950657 0.839707196 -9.30146313 
3.25873876 0.490560234 -15.1712828 
-8.90868282 -0.0424215421 19.3937931 
-20.1051445 0.175027534 -18.2598038 
0.0297781974 0.479244232 -17.4136143 
19.9173336 -0.295298994 -17.418293 
0.821782589 -0.0859738216 16.3525372 
-6.00204659 -0.330364913 -17.4611263 
16.3856449 0.0149265602 -23.068367 
9.85092735 -0.140988261 -19.9657764 
19.1260509 -0.15228492 11.834609 
7.13898754 -0.0662904605 -24.4816685 
18.8707275 -0.0880715176 18.0164204 
-3.10761213 -0.191741303 5.98128748 
4.59272766 0.169062033 -17.7258282 
-7.39250517 -0.258216023 -17.7525978 
24.5120335 0.0166936293 9.9895277 
-4.4381175 0.292016119 16.7964325 
9.16208649 0.24510105 14.2925043 
0.806616187 0.497545063 -18.2665844 
24.4057541 -0.218815342 18.5966816 
-12.9478998 -0.436826885 21.2116222 
18.3692856 -0.535696447 -12.8988667 
-15.508091 0.345932037 21.7384205 
7.64490891 -0.150768667 7.29719257 
1.6307075 0.382654279 -18.1452312 
5.97394037 -0.0902394727 -16.7635136 
-6.83954716 -0.337806463 -16.7495975 
-9.63296413 -0.21587804 5.04244328 
1.45063794 -0.0873092338 13.9971342 
-3.57010627 -0.0978231281 16.1565819 
8.86286354 0.0955440626 -14.0437641 
6.83395004 -0.201769426 18.668705 
3.44175529 -0.444509089 19.2259102 
-13.7470942 -0.321080983 15.9644289 
-1.90441465 -0.235370323 2.84081817 
-5.72163677 -0.664631844 -13.9831352 
19.6574631 -0.362876952 13.5416698 
-20.6485977 0.268896908 17.3219643 
11.8171825 -0.0505246148 7.97065353 
10.5892124 -0.235933647 -16.1998329 
20.7285805 -0.698592067 -14.5605736 
-9.7064209 -0.252119571 -14.6435137 
13.7705402 -0.0466567799 16.776432 
-17.0597916 0.389029264 -14.8333578 
-4.83052921 -0.525749922 -16.9543133 
-1.46527946 -0.230865791 11.92173 
-9.04477882 -0.434227198 -17.4520512 
-6.42108727 -0.526255429 -14.739356 
-8.46354485 0.280492932 16.1869907 
7.65764046 -0.0554490052 -23.9537697 
19.2415466 -0.474371016 15.7261791 
-11.9904881 -0.225312501 19.4288139 
16.5837479 0.36235106 -16.4540043 
1.8282274 0.424187332 -14.8483315 
-18.3514442 -0.247056261 15.2387457 
-21.3268776 -0.0791908503 -16.5798836 
22.4591274 -0.409075469 -18.9109554 
20.3030224 -0.00650050677 -19.0151539 
-14.485033 0.302598178 1.34721279 
-2.45402288 -0.147372082 5.64633512 
9.85028934 0.22667487 15.9303379 
8.68138981 -0.151152566 -15.6736517 
-14.5333776 0.276954353 -15.1333132 
14.7418156 0.174300745 11.1769915 
15.6158724 -0.00635947147 -15.2865353 
24.0220356 -0.0949918404 16.5551205 
5.63309813 -0.301688462 21.9963837 
0.255370796 0.239311829 8.21850586 
5.25918865 0.243098646 -14.4968157 
-1.17159176 -0.252051443 16.5812817 
3.36470723 0.47208041 -1.09679449 
11.3886318 -0.140730798 -14.1057568 
-2.71595955 -0.214494929 -15.7393656 
-3.14638495 -0.291223288 -16.209919 
20.0658169 0.35437417 10.1945324 
6.50908136 -0.181759089 -17.3967304 
-19.9663506 0.116758652 14.390049 
-5.98663902 0.44903183 17.2772141 
-8.30561352 -0.0259808339 21.5634937 
-20.316309 0.313267469 15.1374245 
-1.04076028 -0.0511155501 -14.3018084 
20.8769779 -0.670024574 -14.3403091 
18.771101 -0.289266407 -15.941494 
-15.3728981 0.308823764 22.8278122 
-21.0811596 0.561937392 -12.7216415 
-10.8149071 0.0050431327 8.37395 
2.09714723 0.407876521 -18.4411469 
18.4911556 -0.196622565 -15.6188431 
-23.585947 -0.186665714 10.3791742 
-17.0305595 -0.0910790861 15.7446566 
-0.988666713 0.422806948 -18.3230476 
10.328454 -0.14825651 -16.4253445 
-16.9514103 0.555135906 22.4348087 
22.1049118 -0.293015599 15.569499 
-18.926363 0.30327183 24.133007 
20.5363102 -0.273292214 13.6039562 
-14.6421652 0.02424822 18.7347031 
-2.37478876 0.390245765 -19.2852592 
20.142992 -0.486835897 -16.0526981 
-21.868885 0.402013808 -13.485218 
-12.892252 -0.307432741 19.3857212 
3.37099814 0.531252921 -18.4560833 
8.88107586 -0.305586129 -24.2555561 
9.8514719 0.0772111416 -13.8501701 
3.41574335 0.539006114 2.04892468 
1.99888086 0.479023635 -15.8603477 
4.25235987 -0.271050692 17.4951801 
0.664275467 0.372097164 -16.4573193 
10.7898655 -0.208044693 -23.0342445 
19.7033234 -0.195681289 18.1448936 
1.40326262 -0.218982875 18.2996922 
11.592803 -0.0165603869 -23.544199 
22.6315098 0.142920852 -12.1632395 
-21.9704895 0.912235141 -9.46879482 
-16.8013706 0.0174456742 17.3901424 
-21.1100616 0.0281298477 23.2965012 
15.7595425 0.087445952 -16.1034889 
-22.6874924 0.415725768 -13.4661446 
-1.17367125 -0.063855961 -14.5168781 
-12.3618298 -0.202726841 14.6828299 
22.0417061 -0.211547241 -17.6640148 
-4.77282858 -0.148744568 -19.5787334 
14.2577095 -0.192092583 -17.6103039 
18.9454708 -0.431357682 14.7960758 
-12.479804 -0.351267427 -19.2362804 
-2.96270442 0.465634495 21.5674591 
16.88484 0.284567803 -17.554657 
14.6162767 -0.0619079843 15.1942492 
12.8830719 0.0776388869 -23.1703854 
-10.3001308 -0.109384485 16.8643265 
-21.0874901 0.235789001 18.7579384 
2.36758161 0.0853381753 15.2776403 
18.4309597 -0.00668041408 18.5056572 
-18.13871 0.47316274 -14.7912531 
-17.3049984 0.523788333 20.6382122 
17.6917725 -0.099528186 -22.1492672 
-4.50793457 0.232737809 15.6954498 
-21.4891338 0.49333334 -13.459425 
9.25455666 -0.0668425336 21.1695499 
-17.1353664 0.307511091 19.6099186 
23.7535229 0.116697535 12.1388292 
24.5872574 -0.131997123 -15.3905649 
-23.6197395 -0.132651299 8.79354382 
-11.7114229 0.165163398 11.1946697 
15.0454903 -0.460458398 -7.54696417 
-6.49991894 0.423705906 16.1820068 
22.308979 -0.380464792 -22.6905651 
-2.60781765 -0.191666141 15.4936476 
-24.1206951 0.175129294 17.9877129 
22.4889851 -0.438864052 -19.7122936 
-0.831357002 -0.164353609 18.0479202 
17.3365803 0.054186441 9.34705639 
-24.852396 0.581312835 -10.246769 
20.1106396 -0.504129291 -15.656599 
-2.92522693 -0.14920868 17.6067791 
-16.2798252 0.330593735 -14.3917522 
-5.6143713 0.578255475 18.3994579 
-20.8409691 -0.256465942 1.95643795 
15.5175238 0.0924031064 -21.273922 
18.4534302 0.0946226418 8.83546066 
12.2028389 -0.0947403684 -17.7248726 
-17.0989017 -0.0972469971 15.1565037 
15.1380424 0.195500806 10.6469717 
-9.05084991 -0.463885009 -17.9681206 
3.44278002 0.00710626459 8.69251347 
2.94435048 0.538829684 -19.4728699 
18.5750694 -0.0766381621 11.7533522 
-16.1029491 0.130762398 -12.3940973 
12.9201584 0.140109614 14.1239424 
25.0551453 -0.35540244 -16.9059048 
-17.7013798 0.521473289 -17.3823586 
-24.0806961 0.571315467 -9.24332333 
-15.8319664 0.323911726 20.2359676 
10.8979788 -0.153947964 5.71914864 
-2.48103738 -0.0949863121 4.40292835 
21.9032345 0.256864578 -1.16896605 
24.9619007 -1.02237248 -22.1554203 
-8.21580029 -0.252239734 -16.7112656 
13.5257626 -0.562541127 0.348188221 
-13.1812916 -0.239244848 -7.6918993 
-19.5421562 0.174969748 -10.3366013 
17.2618866 -0.0593979917 9.93795967 
-6.79311943 -0.107096046 23.9518871 
-13.9520082 -0.114337131 23.463707 
23.7104015 0.0201095194 9.1541996 
1.9944396 -0.0234533269 16.2054081 
6.6098876 -0.0654202923 -21.2444077 
-21.1900234 0.538722694 -13.5293131 
-20.751585 0.474108607 15.8398991 
-4.610847 0.268035799 16.4163494 
-13.7780838 -0.2050419 17.5448914 
-13.3645782 -0.208218902 22.8578548 
-17.0225029 0.411642879 -14.4700174 
-2.72423816 -0.211561739 17.8492622 
-16.8688412 0.525366068 21.3306332 
-2.41979432 -0.205070958 18.2204742 
6.12108803 -0.17085363 16.0172462 
12.8265467 0.0375126004 15.4207001 
-5.32504177 0.30941233 15.1395044 
15.1161528 -0.185302109 -16.3208008 
-2.47837186 0.00525134336 19.0405445 
-5.04601049 -0.619271219 -14.5513344 
-18.7083588 0.510158956 20.6984692 
-6.47031164 -0.363796949 10.2007036 
-10.3804617 -0.425771505 3.75741291 
18.3735046 0.296857923 21.6578693 
23.2243729 -0.374043435 -17.9814091 
-9.92595959 -0.198167637 21.2791195 
-16.1291084 -0.0302488208 18.0988636 
-22.1183491 -0.225902453 -22.8550091 
23.0033379 0.200801119 11.153615 
-1.24048591 0.31255725 24.4982471 
20.4947128 0.0131335314 -4.22453165 
-7.40528631 -0.252333492 -17.5778999 
18.76688 -0.134403989 -20.5970078 
20.7502537 -0.54543376 -11.9079142 
-12.5929775 -0.479634583 -20.2855835 
0.604842365 0.526629686 4.68928146 
-16.4195156 0.218946636 7.49368382 
23.2450829 -0.112344742 -16.7455959 
-12.8370409 0.257098675 -1.94314575 
-2.88663244 -0.15811643 15.4658813 
17.3400593 -0.0921677426 10.7324276 
7.5778203 0.0490820073 16.342289 
-18.7394753 0.199812084 17.8683109 
-10.8835974 -0.161413535 16.8997574 
12.8359585 -0.0528595671 16.2394161 
-15.1965933 0.425133705 -15.3728285 
-19.8722458 0.208306611 -18.3497276 
14.3738451 -0.0799798965 19.4110489 
-13.9680424 -0.4455024 14.0956593 
12.508873 -0.0693052113 -20.2251015 
-24.6754894 -0.0406657085 17.7946701 
7.26994848 0.0577628314 -13.9552946 
-20.7352371 0.34047395 14.6729345 
-13.4154224 -0.30849418 8.14610386 
-3.79413199 0.478638738 24.1137619 
-16.197628 0.470749378 -20.5470448 
-17.979784 0.654456973 21.3779392 
-5.27551508 0.112262309 22.4122734 
19.3664703 -0.371860236 -14.8467312 
-15.50105 0.346550882 22.3949699 
23.0085678 0.0883763805 12.907814 
3.09515095 0.576570809 -19.368948 
-14.9162607 0.312060118 -14.5262871 
3.82604384 -0.352517009 21.036356 
-20.7960033 0.39124155 16.8057537 
8.15380001 -0.352471828 5.10255241 
21.0253181 -0.0281270128 -19.7908287 
-16.6374741 -0.184688598 14.7507524 
9.37244987 -0.140578866 -19.4480896 
-18.3939896 0.315406859 18.7078419 
4.32026339 0.314357162 -22.5639153 
-8.16999149 0.316391766 16.5866394 
17.9576111 -0.0293410402 -24.0144424 
-4.06234217 -0.153647885 8.09519196 
-11.1859369 -0.377614021 20.0346699 
-0.302387327 -0.212565929 1.2217623 
-12.9824209 -0.136972234 23.7775459 
22.4063416 -0.162908331 -16.9645157 
-14.7037086 0.520404935 -17.1503983 
3.23772836 0.414019823 -17.4912186 
-14.0319061 0.1696897 -14.4718361 
20.5260715 0.0984659195 -21.5664959 
18.0621738 0.1113372 10.9597063 
4.98357487 0.138889566 -21.9995403 
7.6252265 0.0855923295 -22.9653244 
-20.9098797 0.310054719 14.4556541 
-10.3539562 0.0370446853 -3.97371674 
18.0010796 -0.184493944 12.5373993 
18.9118748 0.0659151077 -21.6557541 
-9.73941135 -0.412258357 -17.9916725 
-24.435791 0.463123351 -11.1554947 
-12.268158 -0.147378355 15.5220327 
-1.23226404 -0.18962945 -12.9805403 
1.53121781 0.00741768908 14.4606552 
10.4542513 -0.188013673 -16.4753666 
-22.9767723 -0.197986513 19.8770847 
-23.4702244 0.371476173 -12.9308939 
15.6477079 0.12126676 -18.4880352 
-15.2140207 0.311769634 2.44640684 
-22.3970623 0.578990221 15.2514982 
-22.8227196 -0.0281484965 3.89406681 
10.9534121 -0.196392253 -17.4698048 
-22.6432896 0.553881526 -11.7298689 
-21.2742634 0.426854193 15.3552208 
9.62142086 0.275763154 17.5140457 
12.2738008 -0.264787614 -15.0297365 
-22.1140385 0.596004367 -11.6330242 
3.31625843 0.27527532 13.8361092 
-2.58949804 -0.405883998 -3.52955723 
16.6585312 0.283877015 -15.2877893 
-17.892889 0.559056044 -18.9955521 
24.7636509 -0.361565083 -17.2541428 
-16.6440334 -0.085464932 15.2619829 
-1.19578207 -0.184844345 -2.68591261 
-10.3499851 -0.0629782304 14.936739 
-8.59206104 -0.0585643463 -3.93897462 
-6.29948854 -0.212945923 10.8452883 
17.6076908 -0.0247091129 17.2517223 
14.2809725 -0.0732399151 18.9197273 
15.3664074 0.210106328 13.9210787 
-17.5589867 0.53604126 -14.1477194 
18.8104973 -0.358347237 -14.7966824 
20.4036522 -0.0953371674 11.7584276 
9.04965878 -0.128948882 -19.4354534 
-23.1888256 0.157685608 18.2247257 
-23.0490685 0.404912621 14.3460093 
12.0865192 0.0642770231 -22.9699039 
-2.34635496 0.347043723 -21.3089428 
22.2600517 -0.146195173 -13.6865435 
17.1003323 0.190754771 -17.5378323 
-5.568748 0.543805599 19.1388302 
10.498991 -0.166909784 -17.5512657 
-12.2855864 -0.290840834 18.9330292 
-21.53969 -0.0507228971 -2.97490835 
14.8460417 0.000786471181 19.8668346 
-22.0572014 0.907463431 -9.04664993 
0.619632781 0.402984381 7.17976475 
-3.34779954 0.4701069 22.9101982 
-4.25955009 -0.610143602 -14.8860111 
-22.6243668 0.1361994 19.0312099 
5.07502985 0.40539363 1.69364095 
-0.819375336 0.451148719 -18.9857788 
-17.2363529 0.394964844 -14.7286263 
15.6371851 0.0635789111 -22.5119152 
-23.4603271 -0.141826943 11.2458553 
15.7092314 0.172591642 10.7489758 
-15.0986071 -0.416824818 15.9770126 
-22.1087208 0.553437471 -11.8538513 
21.1609058 -0.419665486 -15.9723091 
9.65622902 -0.117030963 -16.3983326 
16.1277122 0.0529246181 10.7420006 
-17.9485321 0.442207158 -14.1595907 
-18.1800938 0.484215528 -15.1567402 
-20.3399048 0.335808754 22.2227364 
6.68963099 -0.286138505 -18.384531 
18.2883339 0.0466742702 9.43053818 
15.4181976 0.22133708 11.334878 
3.92757964 -0.308613807 17.7577419 
-23.3688393 0.674618006 -10.3704243 
-5.17280197 -0.582607627 -15.0181036 
-3.92926884 -0.08819215 6.07540798 
22.1593513 -0.19893308 -14.0589914 
-7.59724569 -0.363945335 6.75091267 
-23.2500534 -0.326682091 21.5681343 
18.1254959 0.12870945 2.1902442 
-8.85045052 0.373001605 14.6944704 
-20.1111794 0.433574826 -11.8394299 
-21.4063644 -0.0103842132 11.0735149 
-23.4399471 0.37110886 14.3962612 
-19.1994743 -0.0680735409 14.530447 
23.0108967 0.216231838 12.4733744 
-3.36545539 -0.188315928 -5.03394794 
23.0890694 -0.134099185 -16.8009663 
14.7782526 -0.190660954 -16.1208344 
-14.1247578 0.192131802 -14.9242973 
-16.932539 0.423673183 -19.1502266 
19.9561596 0.477551728 8.98873043 
-16.3906879 -0.220564023 14.971693 
8.0981226 0.132213935 16.8326111 
-6.0437789 -0.530090034 -14.5696373 
4.53282928 -0.419151008 20.1402969 
20.1688614 -0.0813199729 -18.2905807 
-14.7172461 0.481516212 -16.2519646 
-16.2158623 -0.0391074568 16.1945286 
21.8596306 -0.0262056813 12.8521452 
-22.4339371 0.81746304 -10.5232153 
-2.16295886 0.465362936 -19.3004761 
-2.45142055 0.408816338 -18.4361229 
-19.2900333 0.420918643 -14.321454 
6.72283649 -0.0371379927 -23.843277 
-16.6851788 -0.0147123849 16.3097725 
-4.56487751 -0.46813494 -0.970459044 
5.9815712 -0.335435063 22.6921425 
2.43872023 0.0699860305 -5.01319504 
6.55371428 0.0065654004 -14.0568619 
-15.1617603 -0.358528525 17.050127 
20.5477657 -0.375549018 -16.4558945 
-23.7466354 -0.670112431 23.8584633 
13.3628016 -0.0929381326 21.4021893 
0.578117013 0.13259989 -24.6865673 
16.7468166 0.094528608 18.9677601 
-24.6613331 0.476120442 -8.57295418 
-20.0419464 0.196208626 17.0402203 
-6.9241581 -0.0638485551 -23.4279213 
-8.80854225 0.181608617 16.4831562 
-20.0907764 0.297089905 -8.70846653 
15.9828129 0.067451641 14.1721897 
-21.1911736 -0.0558577888 -17.0309391 
0.878310084 0.0707802549 1.79599667 
-24.1438293 0.522401333 -12.3382673 
-22.362215 0.515206397 14.8052635 
-5.09993029 -0.556959331 -15.8010654 
7.18949318 0.0224689841 17.9656429 
-12.1985512 0.132549897 10.0048141 
-14.5179176 0.103151396 -11.5522604 
13.4844093 -0.40554142 -7.62818909 
-19.3251534 0.00756994495 14.2121792 
-21.3190746 0.701592505 -9.36622238 
-3.34441423 -0.0968705416 -17.2583275 
22.11586 -0.283133507 15.9907436 
-4.07621288 -0.444484621 11.5720625 
-15.1921368 0.657415152 -18.7890377 
23.9632339 -0.281809598 -17.2375107 
-21.5806732 -0.151188388 23.2725334 
-22.4823055 0.198007628 18.2209911 
8.60282898 0.263919145 15.3633842 
9.58653259 0.126324952 14.5227556 
-3.84146786 -0.313092679 -17.0795307 
-4.09604454 -0.45927918 -16.3583508 
-4.15921021 -0.228371263 -19.3093452 
21.74617 0.385810345 11.0782099 
-4.03608036 0.520394385 23.0646305 
-20.4299469 0.369127363 15.3982773 
-10.2504492 -0.316375196 19.8756275 
-17.1937237 0.07999897 17.8989944 
-14.0788059 -0.0976898894 22.2483692 
20.9268913 0.286654234 -1.44786727 
-22.9164925 0.459874809 15.8690767 
16.1907711 0.199045449 -16.8654003 
-0.159651458 -0.0873115361 20.2540264 
-24.4358826 0.553153157 -10.5518637 
1.21641076 -0.0476769544 15.2487326 
-21.8442287 0.384193212 14.6631021 
-17.6035976 -0.143819347 14.0806913 
-1.32664883 0.0643402338 -16.8083706 
13.6323891 -0.0983954296 22.3370743 
7.55968904 0.0146547873 15.7941828 
-14.5488596 0.0719294026 23.3563747 
24.7817841 0.0769566745 15.0513544 
-20.4931641 0.142321154 -17.8663979 
-10.3550262 0.195269212 -1.62127507 
-22.8467903 -0.0578312837 5.29290676 
-19.1676807 0.506582737 -16.424202 
15.8010454 0.0883855224 18.717474 
-4.1138978 0.316037416 24.8355083 
-9.98825645 -0.387537658 -17.088129 
20.596632 0.0487863831 11.3355694 
-11.5571413 -0.351847112 -18.7749176 
-3.68407083 -0.431331635 0.225011304 
10.7232952 0.128615364 -4.00251818 
-23.1486397 0.118295774 17.7077579 
2.82352877 0.293119192 13.2385082 
21.5433903 -0.470531344 -15.4896841 
4.98930311 -0.0231868904 10.5729322 
-0.0790970922 0.41892755 -17.5756321 
-4.96408892 0.0367583893 24.2564735 
18.4558678 -0.00504550152 17.3618088 
13.2666035 0.0206168126 16.0263443 
-23.4207325 -0.202205196 19.5782051 
-21.7726727 0.406416565 17.3276901 
-12.248065 -0.323001415 18.2389469 
-12.1145802 -0.295034558 19.0547142 
17.8813229 -0.0669107735 17.1169395 
-14.9282932 0.275633126 -24.560585 
-7.89306259 -0.0444356054 23.3220692 
20.2449799 0.467846721 9.90186882 
-5.95339441 -0.407989949 0.0813473314 
14.9082003 -0.106081232 17.9755535 
5.57685614 -0.119108588 -24.4375401 
12.2336569 -0.341257274 -14.7167664 
-16.6383705 -0.0120652625 18.2963467 
-10.8671293 -0.474543452 -17.2195511 
-17.1759338 0.471529156 -14.3754005 
-23.8136406 -0.199939296 6.23265648 
4.25871325 0.25755465 -18.747282 
24.0815067 -0.758417428 -24.4081459 
-4.22011852 -0.368281722 9.48148918 
-22.2204933 0.734962583 -10.979064 
2.4970715 0.488502175 -15.6368208 
24.9706707 -0.135240003 -15.02349 
3.88518548 -0.171271205 17.3001213 
13.2610674 -0.146567419 18.0000763 
-2.88533258 -0.0308365934 -16.732523 
22.1308422 0.0815679207 12.6452036 
3.91553044 0.376977146 -14.4817038 
-21.3020458 0.667883098 -8.47417259 
-10.9117966 0.0275252108 -1.95464408 
-20.5988026 0.327259451 16.7307644 
-3.81865001 0.418410003 -23.7694359 
-3.85440564 -0.0762201846 -20.1305771 
5.99207163 0.0756634846 -1.52471769 
-19.854908 0.236613795 -10.4747114 
19.4129314 0.471462995 0.563709378 
12.4902239 -0.0206952728 -17.9114532 
8.1049757 -0.0647327155 -1.32566106 
-18.3140888 -0.111419678 11.4331007 
4.10571241 0.303846925 -18.6388912 
22.2035809 0.598134518 2.7966249 
-19.5632381 0.47116369 -12.5990486 
-18.2543831 -0.390489757 6.43636322 
19.3890057 0.188222006 -24.4981537 
7.64445162 0.0427366979 -1.91690016 
13.0847836 -0.000482378062 8.42346478 
-23.3336105 0.27898711 13.370204 
-22.1678486 0.923515916 -9.20407391 
-4.94278479 0.235981032 14.7187452 
5.55835342 -0.0590192601 -20.9114571 
16.8928185 -0.640263438 -6.13563347 
-9.01217937 0.138821125 17.2810822 
-7.9964838 0.151717529 20.1514359 
10.82374 -0.24669911 -16.7778473 
-6.09643698 0.454043031 17.2238522 
21.685091 -0.198869124 -18.5397453 
15.7344484 0.148098618 -24.7263012 
-18.9247932 0.335995197 -18.9283886 
10.0050392 -0.136741012 10.5674324 
-11.2835093 -0.424194068 -17.6101379 
-23.5185051 -0.0204159617 -14.2699327 
23.2495461 -0.374764949 -18.1534004 
0.598400176 -0.0178633407 16.9893417 
-1.00623167 -0.309750319 14.309989 
13.8090916 0.10065686 -21.5468235 
-17.8389015 -0.105118677 16.4448624 
-10.2100716 -0.325777888 19.699995 
22.1925621 -0.255243272 -17.7125683 
-11.2989025 -0.101443693 15.0065365 
15.0682364 -0.161238372 6.32927465 
-8.41114044 0.416487813 14.2015715 
-22.1225948 0.535938263 14.9493828 
16.6922379 0.31475094 -15.4443121 
11.7255735 0.0259682015 -19.8272038 
-22.770977 0.435946703 15.3273134 
23.0273228 -0.118619822 -14.7745638 
14.1211052 -0.120188951 -18.4186649 
25.0925579 -0.373589218 20.0525036 
10.3229742 -0.19372116 -24.6480999 
10.1047249 -0.207574978 -15.0251818 
-6.39696407 0.321092337 14.9314919 
13.4694777 0.0536453947 14.102294 
16.0320988 0.0390099809 -23.7700233 
22.2530251 -0.372272909 -23.1266994 
-20.5338821 0.458378881 -10.7455788 
18.2790375 -0.372113287 15.0257397 
-3.17125726 0.190696359 20.0036411 
-6.0257268 0.423675686 19.4082699 
17.2967548 0.107740358 -19.4206619 
19.3246899 0.21205993 10.7127514 
15.4436932 -0.053423617 15.9684095 
16.1122589 0.0905068293 11.8257437 
0.914228499 -0.281733394 23.015276 
15.1402712 -0.116030298 17.3703651 
18.2354965 -0.0631308034 -21.5958672 
11.9117155 0.00231440738 -20.3891373 
8.05403233 0.502988994 -7.16436481 
0.974123061 0.454963803 -17.8631516 
-18.0317173 0.524974287 -18.2257633 
20.3599796 -0.062742874 -4.1512785 
3.67205572 -0.0725568384 8.87065506 
-22.3451004 0.452123463 14.296504 
-8.61744404 0.206232697 16.5065117 
0.523038685 0.427000314 -18.7862339 
17.8234863 -0.179436788 -15.4571781 
17.6307678 0.00919615477 18.1392803 
15.2040157 -0.144844696 -16.2040348 
-17.7644272 0.272715807 18.7466946 
5.77806711 0.000214167172 -23.7130165 
-20.1789646 0.138708621 17.8101673 
13.7648268 -0.605753839 0.608974516 
16.5273781 0.242114216 -15.2022095 
-15.5863466 0.34623906 -2.55661702 
-5.81643343 -0.151308686 24.3595371 
2.98128176 0.127719343 -6.42634821 
23.257412 -0.00085710315 8.13133621 
13.6758738 -0.103401117 22.5417824 
-2.02489138 0.474913985 -23.297411 
1.28964388 0.37949276 -16.5914249 
-7.76804352 -0.134210676 11.0308771 
-22.4391193 0.585866272 15.4006052 
20.6583004 -0.0949576199 -19.0088024 
-22.1546631 0.469421417 16.0677433 
2.70124197 0.18991971 -6.29722881 
-12.6239023 -0.334140688 -21.5455647 
-19.1847 -0.0753554478 11.9241838 
-5.68411875 0.531880736 19.7254715 
1.05296028 0.173168868 -2.44555879 
7.51585579 -0.321474046 4.1169138 
2.76659131 -0.479388624 20.9822979 
19.9861927 -0.501847982 -15.7949543 
-22.5279312 0.410700232 16.3817616 
-6.50620794 -0.208576947 -18.2900772 
-13.9416256 -0.140279874 23.6331959 
-17.4098759 -0.118192293 15.9036856 
22.8447342 -0.0449743532 13.7050371 
5.03433371 0.132647961 -16.7064877 
-19.0078754 0.4150213 20.6183414 
11.1907368 -0.326239228 18.1726532 
-22.7134056 0.797988355 -10.2684078 
22.9458275 -0.04393401 -13.7461872 
-0.364214063 -0.0601089746 19.1736431 
19.9415035 -0.194034547 -19.9894962 
10.0841141 -0.0628325641 -17.4004917 
1.15882349 0.414016157 -15.4116497 
-12.6402998 -0.0816284567 -17.5763416 
11.0088072 -0.129059628 16.2165508 
-20.3134212 0.251672089 16.5517998 
16.2497883 -0.276382923 0.267102361 
9.5963707 -0.31679073 1.44414234 
2.15833473 -0.104740828 17.7818031 
-0.748612285 0.000312361401 -14.3164644 
8.60484791 0.263738036 15.7348404 
9.74179077 0.081748493 8.68216419 
-1.93483806 0.212442949 21.1687946 
22.7351341 0.061960306 12.8650475 
-6.12045908 -0.194483131 12.2362709 
-11.3264084 -0.25372377 17.9883251 
