ply
format ascii 1.0
comment created by gply, a Houdini tool.
comment converted from .[b]geo
comment for more information about Houdini, try:
comment www.sidefx.com
element vertex 1272
property float x
property float y
property float z
element face 0
property list uchar int vertex_indices
end_header
-4.3444438 0.594513416 -23.2195053 
9.12892818 -0.0284331981 20.0860844 
12.182703 -0.0833257362 20.8578053 
24.4119034 -0.103647865 -2.93959332 
-8.69152737 0.272662491 20.8859501 
5.89702272 -0.191609919 -21.0014687 
-13.0442343 -0.678553641 -23.1999722 
-9.77166271 0.0460524037 -23.8035202 
1.54452908 0.00782192219 -24.1251945 
-16.8618984 -0.118609451 -21.6711502 
-0.542172551 -0.39155671 21.5078106 
-5.60805893 0.464931369 -19.5877972 
-4.49399757 0.530879259 -24.0299225 
8.35112095 0.179401487 16.8898087 
-7.94063282 -0.0702217817 20.2547073 
6.34880447 0.404461205 22.1727562 
-2.65245271 0.0963701904 24.57407 
-6.98065662 0.214228079 -23.4693851 
-0.83538568 -0.149573937 25.0448818 
-3.27614355 -0.224713892 22.8077164 
11.5119505 0.0407876223 24.0535011 
3.38344359 0.183685064 20.2440434 
-19.0304146 0.336002678 24.701746 
-2.93684077 -0.394848675 21.448719 
-5.08405018 0.673892856 -19.598465 
3.70675611 -0.192779765 -20.3979588 
-6.68703079 0.349648923 23.8575687 
-8.87819481 0.102040105 -23.0509148 
-1.28992414 0.0929392576 -23.1268158 
3.69594216 -0.250994176 -20.0898094 
6.754632 0.28917858 21.7915382 
6.94857311 0.285912126 21.726223 
6.95745516 0.215074524 21.9686012 
5.42237568 0.298133612 23.9206104 
-3.57876587 -0.350038797 21.4821777 
-5.44450855 0.456383377 24.3149204 
-4.62269831 -0.353542954 20.7182007 
-0.510198176 -0.474470615 19.7920551 
-6.47866058 -0.0570789501 21.723156 
17.8118877 -0.439006805 23.8448753 
-5.50739861 0.583835006 -20.9058895 
-0.487677723 -0.443055749 21.1420383 
-0.345255196 -0.0719251856 -23.6769943 
11.448041 0.13677837 24.6733303 
3.93752337 0.0256204903 3.25611901 
6.45326281 0.0208092779 24.3128014 
-10.8339748 0.0469321571 -24.9215107 
-11.2478647 -0.0917686075 -23.6941376 
-0.0513116121 0.252217084 -19.7037048 
16.5932198 -0.192552164 22.2331486 
-2.3326323 0.464400709 -22.7822208 
-10.5216303 -0.32131052 -21.1684208 
8.78286552 -0.0591264963 23.5859833 
-0.423840672 -0.318876237 22.7897301 
-8.44809723 0.14370726 -20.4477329 
-4.02523422 0.519359469 -23.1849232 
-7.19505215 0.313776135 22.8988972 
-4.6770916 0.69884932 -23.2313995 
6.14171124 0.408856571 23.1268311 
11.1803999 -0.130055577 22.4547195 
-12.5363989 -0.653587759 -22.2511749 
-8.19367504 0.192596421 -21.8773746 
-1.08431792 -0.0937313884 23.9533749 
2.36257291 0.0428197645 -23.8494282 
-7.64091825 0.151442915 24.5970783 
7.10160303 -0.0619456246 -19.8042336 
-20.8161545 0.558601975 -22.0511932 
-21.9706535 0.705781102 -19.4096622 
3.14835739 0.0587259866 -24.3034592 
3.91245198 -0.137467518 -23.5041122 
-4.52261305 0.576095819 -23.6452999 
11.1075439 0.0233631525 24.0992107 
-7.59625769 0.142036736 -23.6993294 
-21.9396591 0.0786467344 0.404770821 
20.5124702 -0.261364192 21.512867 
15.5134363 -0.0522306301 21.7051735 
-6.2742939 0.438930452 24.5817814 
3.90769815 0.192197487 20.6170006 
-1.44471669 -0.0846784785 25.1027107 
12.8642159 0.0812407061 20.8677216 
-15.2242508 -0.355598927 -23.3644485 
3.022439 -0.0335520133 -20.5499516 
3.25199652 -0.211848423 -22.5914097 
10.645607 -0.00628427882 19.9370975 
1.05481875 -0.0396853685 21.6473637 
-0.734143555 0.114112236 -21.7032242 
-4.00696993 0.596413612 -22.7292633 
-8.57099056 0.0803244859 -20.9741421 
4.25417709 -0.161509275 -19.9066868 
3.39387822 0.0410230756 21.8920574 
-5.7714591 0.474640965 24.4622879 
-2.05939198 -0.0412477143 23.6498032 
-2.23833203 0.527784884 -22.4038982 
14.2292709 0.00272213994 8.30816174 
1.38317215 0.00532563264 21.9516029 
15.822361 -0.108699836 21.5258331 
-3.0537982 0.168991923 24.3543243 
11.7929115 -0.181011483 0.0334673449 
-10.7667656 -0.130009428 -21.9324608 
8.10810184 -0.318706989 -23.6658974 
-3.66484237 0.3178325 -24.6999092 
5.84435558 0.317585886 21.5467072 
2.21371031 0.176489711 20.1594429 
2.37605023 -0.0917476937 -20.7145214 
-6.37292624 0.426545173 24.6303406 
3.08704925 0.123283431 23.2723351 
0.0518613309 0.0980185419 -21.4226398 
-4.39912796 0.677611828 -21.7983017 
-6.14695358 0.501984537 -21.5834618 
7.99142027 0.275079489 21.4934158 
-5.62490654 0.558021545 -21.1876106 
4.15864038 -0.0201285612 -24.1623955 
3.60878921 0.20151709 19.7897606 
-0.282649308 -0.369950473 22.7998638 
-18.717659 0.345618129 23.5561066 
2.03389502 -0.0344081074 22.1394844 
-1.99155593 0.295032889 -19.6741791 
11.7661991 -0.0917044207 19.8479519 
-23.7209167 -0.477362543 11.9879742 
2.58181429 0.133161515 19.6178474 
-7.2451272 -0.19674854 19.1351719 
-5.14753199 0.0642562658 23.5397682 
-21.3923206 0.780990958 -23.3596573 
-6.60190487 -0.362746835 19.6870232 
21.2591839 -0.357451558 22.0288849 
-4.58590269 0.0951448306 23.1300983 
9.01087666 0.0158338491 19.5861664 
-2.64584112 0.553488016 -22.616066 
-3.71796036 0.507187486 -22.8786469 
1.53385794 0.0690213516 20.4475155 
-4.38522434 -0.22115764 0.582153022 
2.47362852 0.0784668028 -24.2279015 
-4.7218194 0.751224875 -22.1860828 
-3.99288702 -0.214385301 22.189436 
-4.66736841 0.919414163 -20.2996674 
-12.1393566 -0.526400328 -22.3601837 
0.211930782 -0.00842140429 -22.7230988 
-13.8325777 0.504188836 7.28128242 
-17.3686657 0.0768223926 -24.0568123 
0.635155678 0.112978533 -20.5673389 
8.99686718 -0.0343518034 22.3509846 
2.67391205 -0.0673621371 10.7960587 
12.689867 0.322437018 22.9159927 
-11.3735962 0.551107228 16.092535 
0.124136537 0.038219355 -21.9881821 
-6.29882717 0.539798439 -21.6170025 
1.35551322 0.149283394 -23.7094345 
6.64916325 -0.0218438506 -20.3048706 
13.4925756 0.386043787 21.8627243 
-0.512359977 0.239936367 -19.6251678 
-5.01783323 0.598691881 -23.9907246 
-4.59348202 0.852492094 -19.9917622 
11.5709972 -0.063723132 19.8929176 
-5.46292448 0.599841356 -24.202383 
16.0346279 -0.046182096 24.1438923 
-7.43606853 -0.0975273475 20.9744186 
-0.962208688 -0.0218962654 -23.8134861 
9.30098248 0.009320952 19.444416 
2.8152082 -0.0224998686 23.6298656 
-6.11991119 0.471510857 24.9880371 
18.6206493 -0.460364252 20.4268417 
-16.4956589 -0.292039961 -21.1585236 
5.35711861 0.368530154 10.5989723 
-2.6974175 0.571304858 -22.4926949 
0.92598474 -0.0726513565 -3.33178353 
4.40979004 -0.134396493 -23.4014034 
-18.273304 0.166538835 -22.3642673 
4.65060663 0.255194038 23.8392792 
10.6571093 -0.00982969068 20.6155872 
-0.169508398 -0.0923199877 -23.7101784 
-3.55683541 0.464074641 -23.3383427 
6.39849472 0.171959832 23.4302845 
22.3993874 -0.475600094 22.6172295 
-7.08274174 0.260013789 22.6857967 
14.8427086 0.405730188 19.8243217 
12.3570747 0.11960794 24.1469135 
8.19626617 -0.258322239 -23.3006535 
0.845581472 0.110445485 -22.0674896 
-3.69102669 0.547434926 -19.6224384 
15.9964638 -0.0972535387 23.7922268 
-1.30762589 0.295341849 -19.9339962 
7.70927238 -0.239587665 -20.7686481 
-6.52610588 0.528329611 -21.5736446 
2.35372305 0.0142307738 25.0329094 
3.21414018 0.213210911 19.6014767 
2.40176034 -0.0397004373 -23.0846119 
-9.25509453 0.0327813514 -23.0151939 
-7.29676867 0.273586631 -23.2307739 
5.01950264 0.281232655 23.8609161 
-14.0837641 0.41130805 9.38470268 
16.0479412 -0.0967946202 20.8502464 
-0.114840947 -0.197667763 24.5375423 
-0.0598410964 -0.367255777 20.5635567 
-11.0688534 -0.100686915 -21.9296875 
9.8708992 -0.116019472 22.6830521 
-7.69810152 0.315767139 -22.9662189 
1.03375721 0.0975824967 -23.7810497 
17.641552 -0.279779673 24.8425369 
-0.998893678 0.150794238 -21.5310783 
13.7636862 -0.209415168 -1.1489892 
1.43872011 -0.0825085491 -24.7904778 
-4.10849762 0.0276574064 23.4397354 
0.578876615 -0.206944004 19.8401108 
-2.05325198 0.536702573 -20.7211094 
5.85442924 0.151377037 24.6997871 
7.41110039 0.370806783 21.5248489 
-6.77744818 0.306369126 -23.7432117 
20.2782726 -0.560477078 23.2146244 
-7.14154053 0.395628154 -20.2665253 
6.7371521 0.081677191 23.0748787 
-18.3171806 0.135107964 -23.4272213 
3.19551778 0.199514121 19.8341408 
2.53025198 0.0213648491 22.9452152 
-24.2743378 -0.35587734 2.75330496 
13.4413528 0.0320009105 19.8584957 
1.76635075 -0.606824517 8.28520775 
17.2073402 -0.364066273 22.5319691 
-5.58141136 0.544189632 -20.2742939 
-9.21204758 0.070888266 -23.4250584 
-6.81548786 0.538214147 -21.3922882 
7.10202312 0.381486624 21.3153362 
-7.84915638 0.0735059306 -24.8765831 
4.25934029 -0.156740203 -21.6463814 
-14.268611 0.146346912 -2.24358726 
-10.9103889 -0.49802506 -19.9874878 
5.44111443 0.345817477 23.6114178 
-5.12506485 0.80236268 -21.1856499 
8.17004395 0.21824123 20.8282509 
-0.948003411 -0.571608901 20.2929077 
1.80230629 -0.0568320379 22.7004299 
25.0343456 -0.0357627198 23.9343643 
-4.09980774 0.573640585 -22.0602608 
-12.2440252 0.292223722 21.2034779 
-3.20569777 -0.30750221 21.5569019 
2.79950666 0.0276064146 23.1752129 
-11.6474924 -0.558693051 -20.2491722 
7.90603495 0.313316196 20.2861595 
3.60219693 -0.132887915 -21.8873844 
6.90961075 -0.0265798923 -20.2207355 
-6.17018175 0.454880625 -21.1277351 
0.613434792 -0.0688514858 -24.1025162 
-1.76652968 -0.563877165 20.7614498 
2.76531506 0.0901792496 -24.3916435 
-3.52995205 0.619988859 -21.6104012 
8.10034561 0.103940427 22.1918983 
-11.1991625 -0.129701763 -22.3025246 
11.357213 -0.0180176906 23.8120708 
4.20545721 0.265619874 24.0781422 
22.4510574 -0.333848834 4.86616516 
-3.43684816 0.241326615 -24.5196877 
2.13066649 -0.0338788442 23.6781063 
-4.08771563 -0.0288073774 22.8987446 
8.45709515 0.111469217 21.7307892 
-0.763099313 0.243393078 -20.1733932 
0.116691947 -0.191099763 24.5034752 
0.26633513 -0.0845278129 -24.1289883 
-8.55728912 0.18937993 -24.1960373 
-3.57371068 -0.425751835 -2.46791601 
1.89370298 0.200861394 -22.8938713 
10.1169901 -0.102434888 24.4266548 
-5.28786469 0.758044958 -23.095211 
6.43765259 -0.10741929 -22.1559601 
10.3024693 -0.117252029 20.7249889 
11.1257133 -0.136772215 21.161478 
-21.9906006 0.684142351 -21.8374825 
10.5622311 -0.0787412897 21.0763664 
0.743597984 -0.100000821 24.650425 
-4.47451019 -0.392492086 20.5355225 
-0.940713882 -0.153297678 24.3967648 
11.9206753 -0.0685667545 22.8320923 
-10.6937895 -0.362311035 -21.0860023 
-1.25294745 -0.309081674 22.321043 
4.25782871 0.202032387 -25.1562939 
19.4042854 -0.197790712 -18.7212677 
-0.440945745 0.250924438 -20.1617374 
-10.0569077 0.218987092 -24.6871223 
-9.6545105 -0.108444415 -20.6926136 
-6.32791758 0.509292781 -24.8621292 
-1.2660203 0.032880269 -24.2812405 
-8.2614193 0.185639516 21.791193 
0.843867898 0.0564591289 -21.6129704 
6.44191647 -0.116991542 -24.1906071 
-10.909008 -0.0404377691 -22.8798943 
-19.5243282 0.293480128 -24.5680523 
-2.05959797 0.631625116 -21.0307522 
3.45045185 0.0678893924 2.8568058 
22.1728764 -0.127964392 20.0773678 
4.50018597 0.223212093 20.3694725 
-1.22458935 -0.428962469 21.7927341 
8.31280422 0.156974733 20.7091751 
-3.19776654 -0.386110127 20.7463341 
-0.890271127 -0.256004691 22.7804565 
4.99401283 -0.125811249 -21.5029297 
-1.37676978 -0.566750467 20.8030071 
6.58974743 0.377461672 19.7966442 
1.36759114 0.215433329 -23.4271488 
2.30663776 0.188812226 20.1846657 
-2.69578934 0.505593002 -20.4158554 
-10.9413099 -0.348502368 -21.1549244 
4.89499378 0.257926315 24.4555607 
2.1894629 0.0451247431 -23.1975822 
-2.90780902 0.352857381 -19.5410194 
0.730431318 -0.166001245 22.5867519 
6.06236744 0.00175675703 24.8115902 
-10.8682547 -0.0173142422 -24.1658154 
5.67544365 0.502479434 22.9192696 
-3.41174984 -0.366537601 20.9642239 
15.9217072 0.00532643404 20.4620762 
-6.66610003 -0.0459198356 21.7828178 
4.83363438 0.245435148 21.3910694 
13.0404902 0.327129215 21.7111588 
-10.4134216 0.198881835 -23.9282551 
-2.18997049 0.650696993 -21.6988945 
22.8459301 -0.441833615 23.345335 
15.6902084 -0.110023692 -5.84460258 
5.62915134 -0.182779357 -20.5213089 
-3.8319521 0.427281737 -24.4483929 
-3.9216013 0.595752895 -22.0648556 
3.97665834 0.147306979 24.8672905 
13.699913 0.0571233854 19.525486 
18.6055374 -0.579353631 22.0766277 
1.44360554 -0.0585849881 -24.4911118 
-8.0993042 -0.0127652567 20.4021149 
-4.72025633 0.767019689 -19.6146507 
-2.99727559 0.276567012 -23.822794 
-1.60948861 0.359441161 -21.6228256 
-2.69693875 -0.0621529929 23.5690441 
2.53718901 -0.0247198623 -22.4154606 
-20.1838055 0.0493864678 19.468792 
6.62587547 -0.0903766751 -20.6557541 
4.56740427 0.247599468 20.497942 
6.7742219 -0.00784225017 23.9049244 
-10.2169466 -0.231550157 -21.4065266 
0.737463653 -0.0821079835 25.1108284 
-11.8127432 -0.390184045 -21.518528 
3.37499738 0.197628677 20.1182423 
2.42416716 0.137497514 20.54352 
-12.3571577 -0.530535102 -20.0801353 
-0.342279285 0.266711295 -19.8705654 
6.82590532 0.446084678 19.8470573 
-4.17620039 0.643490374 -21.4747429 
5.04791117 0.26682207 24.4240589 
16.1882305 -0.0996890068 20.328455 
0.279186964 -0.270350635 22.0755787 
1.79630995 -0.0313468315 24.9308891 
-1.7856077 0.408994496 -21.967905 
9.35323715 -0.0416881293 24.936779 
6.23521996 0.0793588832 24.2153854 
-2.91781855 0.535174012 -20.1112843 
7.71140862 -0.40798381 -24.5189629 
-0.877847791 -0.0040410636 -22.5142612 
-7.722013 0.294561267 -22.2049332 
17.0236168 -0.13050501 24.4271355 
-18.135952 0.220097944 -24.1735229 
2.61624026 -0.00777031016 -20.9442158 
-18.1904106 0.933956683 -1.50219166 
-2.15961266 0.650416076 -21.0787315 
9.53250599 -0.0555758215 20.5310078 
-0.422915697 0.16683507 -21.1959839 
-6.27156019 0.394516408 24.3129883 
-7.60968637 -0.298085451 4.50069189 
-7.1623764 0.0659567788 21.5860291 
-18.5077019 0.315672308 -20.1566391 
4.3968029 0.209923461 21.0714359 
-1.9845947 0.555673659 -21.6800194 
2.14827371 -0.0292195361 24.690012 
-15.9273014 -0.167264283 -23.0366726 
-2.32029343 -0.541162908 20.9395103 
-2.69971275 -0.100098699 23.4176197 
-3.33245945 0.472310305 -19.9040012 
17.2776508 -0.368414909 19.7145882 
-2.7990191 -0.0103104245 23.7237301 
1.3034234 -0.0807312727 -24.569561 
1.36769664 0.0492891707 20.8902721 
-11.6353092 -0.215989664 -24.0615997 
11.6474943 0.0306428075 23.9567986 
1.00123644 0.146317914 -22.54529 
-5.22172546 -0.242011204 11.9094372 
1.78352749 0.187795162 -23.3394279 
-19.5816479 0.269150317 -23.4942951 
4.61619902 0.245049924 22.3501053 
-0.160230428 -0.038826935 -24.4838963 
-7.79285383 -0.0478546955 21.3881302 
-3.31983829 0.581538498 -20.5091114 
6.7521596 0.0427506864 23.5538597 
-1.91533113 0.310357541 -23.034193 
-3.58567905 -0.371892482 20.837038 
7.93035793 0.346852183 21.0594501 
3.27249265 0.108514652 24.6230392 
-3.60317135 0.417659879 -24.0856667 
7.28176737 -0.209269285 -21.4042931 
4.4306035 0.0447222777 -24.68433 
16.5938892 -0.238560349 20.2147865 
18.1199703 0.173469871 -8.5221138 
14.6983395 0.241195142 20.7360001 
2.63768148 -0.0306279268 -20.4596558 
-12.1799955 -0.498584121 -20.1445084 
7.76197052 0.419656485 21.0200672 
-0.118603438 0.00637575192 -22.3501625 
-15.8279505 -0.219469219 -22.0963707 
6.1339469 0.486579239 22.1597214 
-3.43094587 0.000695597322 5.954391 
8.97521782 0.0463448092 21.6701336 
-19.7459259 0.364500314 -23.5411148 
-11.872921 -0.469734132 -22.142004 
9.63747978 0.00824255496 24.3180771 
2.16179466 -0.0628290176 24.3726616 
8.17949295 -0.0495594703 22.8083801 
1.60027146 -0.129989877 23.3161755 
7.26847601 -0.221568927 23.9512138 
-2.29152417 0.206838354 -24.5629635 
-0.998491645 0.306152731 -19.6723156 
9.54669762 -0.179524973 -6.29723787 
-1.22763371 -0.222747073 22.7509022 
-1.92660356 0.544059336 -21.0313377 
-8.87434101 0.276224434 -24.1749115 
5.7205286 0.309343576 21.4934654 
2.61399245 -0.0273961741 23.9279671 
-16.2911129 -0.197580606 -24.7548714 
5.82763958 -0.0540538989 -22.5546303 
-6.03491306 0.567315817 -22.301733 
3.87617564 -0.205158323 -22.6526108 
12.9600039 0.405709893 23.1872215 
-1.13258886 -0.378852665 22.1487617 
-2.11222982 -0.501604259 20.1638985 
-7.11227512 0.246169686 -23.3112812 
2.43168116 0.000256838743 -22.1671047 
-15.3304052 -0.417746693 -24.2729969 
-0.319547564 0.189856544 -20.9272194 
2.47080016 -0.00463915989 -23.72966 
19.0502663 -0.54738462 21.2448578 
-2.17554426 -0.583509564 20.6419773 
13.6913824 0.104688935 19.9634514 
24.2186222 0.138622671 21.95117 
17.7218552 -0.484105617 23.3717365 
-2.47791529 0.59010011 -20.6911182 
16.9155655 -0.241194308 22.3968544 
1.69991493 0.116850831 21.3027 
10.8464909 -0.0595394969 20.4407158 
-10.7124147 -0.0207058713 -23.0383034 
10.5598946 -0.0926586762 24.9746628 
11.8283577 -0.0946606994 21.4254646 
-2.83053946 -0.402021408 21.0422382 
-4.17215252 0.719707787 -20.9659557 
-0.672608912 0.0507985651 0.282572597 
-2.46425819 -0.0687659904 23.4471455 
1.09141624 -0.0303313285 -24.4342575 
3.59971428 0.189216956 23.9076672 
3.1827476 0.0200295802 21.8801517 
1.68566287 0.0172941536 19.5806789 
-5.43181849 -0.232465565 3.62480688 
7.17174053 0.408437252 19.7117062 
0.248098537 -0.0851618126 25.0042248 
5.49710941 0.242584676 24.4048347 
4.68196821 -0.246709183 -22.7217751 
5.63875818 -0.0562166162 -23.2761059 
24.6040688 0.0174716115 23.2322788 
-2.45014524 0.0508381315 24.5896854 
0.502894163 -0.0350469723 -23.9161377 
-2.87782693 0.451622009 -23.142683 
4.35229683 0.189761341 21.5841293 
-2.22339296 0.117955118 25.1509914 
1.19773638 -0.00743493624 22.009449 
1.82214022 -0.0298975315 24.6678982 
4.23454285 -0.154675379 -20.0580597 
-5.00558758 0.74881804 -19.9740009 
4.06190681 -0.138180494 -20.7562752 
3.23913217 0.0663041696 21.283987 
2.78991461 0.0203882884 24.0097599 
-0.820562243 0.123773061 -21.4771652 
10.8592844 -0.0995578542 21.2088509 
-1.86727214 -0.454563409 19.862936 
-18.7839279 0.324632466 -20.3634396 
-15.4389734 -0.631770849 -19.8517742 
-2.033849 -0.256796777 16.7541409 
11.5723486 -0.537162483 -5.69030571 
14.1723909 0.162563756 22.3657722 
-13.3312044 -0.668877423 -22.5093327 
-5.89409637 0.503467619 25.1746635 
8.12447548 0.19706288 21.8520241 
15.6703882 0.00554833375 21.1305447 
8.83010292 0.0630068779 19.508894 
0.110329613 -0.341235101 20.2532654 
-2.5151782 0.504420459 -22.7456951 
-15.1733513 0.342441678 12.3116102 
12.5388813 -0.14152734 19.7935181 
-6.46784306 0.335824192 -23.394104 
12.9807339 0.351296008 23.515583 
4.41335249 0.205621541 22.8110962 
-3.42303944 0.278113365 -24.2634602 
-3.13800645 0.498772562 -22.709753 
-3.23864198 0.275419384 -24.0413284 
-4.50748253 -0.555497885 19.1121159 
2.01494551 -0.121872298 -20.2522106 
-2.19387627 -0.437671721 19.7714844 
2.49350572 0.1582966 19.7498016 
-16.1906872 -0.0611246936 -22.8571301 
-2.20044208 0.477236539 -22.867136 
-4.1194334 0.336482614 -24.6968594 
-17.8074493 0.360712081 -19.7528896 
-4.47880602 0.579205453 -23.4722176 
4.8765564 0.247332886 23.6402931 
-6.78823996 0.434586853 -19.653677 
-23.3196907 0.352995187 -19.9251022 
-9.80426979 -0.296410561 -19.8355637 
17.2470913 -0.426927269 22.18964 
-17.0217743 -0.0320262015 -24.4949341 
-1.597224 0.223496243 -22.4405861 
-4.03237772 0.122985296 24.22262 
0.795476675 -0.151592508 21.0034065 
23.3825321 -0.482154548 0.707020342 
-9.84485722 -0.290269196 -19.6666412 
1.60416198 -0.0839832053 -20.6781139 
-0.115295395 0.033272393 -21.9257011 
-3.76658678 0.589866042 -19.9059544 
-2.48095536 0.55519563 -22.4760914 
-3.36089087 0.0145885386 23.7636776 
4.22385311 0.176341712 21.8159332 
1.44820309 -0.0904805064 19.8172703 
6.38961124 0.191348135 23.2447376 
-4.9245882 0.716890931 -23.4597435 
-1.28327203 0.3767021 -12.4167223 
3.69117427 0.227771506 24.5058975 
2.89326787 -0.0154651459 -20.6522446 
5.5789957 0.509943247 22.9949245 
4.25370359 -0.111756459 -23.6166668 
-3.33784723 0.541662812 -22.4998493 
-7.94986153 0.258636504 -21.0461769 
-0.177278653 -0.3125256 21.0479984 
18.9419861 -0.42727989 23.5460663 
-16.7273483 0.3019512 -1.93039846 
-18.4616718 0.200351849 -22.2049103 
-6.16106844 0.508782148 -22.4951687 
1.75461423 0.0620036311 -23.8334389 
14.4024019 0.211997986 21.1158695 
0.0468391553 -0.331892222 22.4422779 
-3.43947339 0.61660701 -21.774847 
-1.86918974 -0.582365036 20.933054 
-12.911869 -0.418706626 -24.9049435 
-4.31802893 0.750077128 -21.0508347 
-6.24379635 -0.300204545 20.232708 
-7.22159052 0.394758761 -22.7161427 
-11.4761229 -0.1419902 -23.6269894 
-14.604497 0.0280665215 18.0278034 
-0.46032387 0.162829623 -21.013092 
0.993130445 -0.554416776 8.75119591 
0.983914852 0.155180469 -23.2599773 
-2.37731767 0.461197793 -22.8815613 
6.01277733 0.375253409 21.7777863 
2.1245687 -0.0092475079 23.4479332 
0.691983521 0.0829385072 -23.0952454 
0.763616621 -0.212847427 19.4068413 
0.228466824 0.18480818 -20.7420177 
6.41374922 0.367315054 20.6410427 
5.40438032 -0.112092569 -22.0127487 
-9.29740047 -0.0763350502 -20.3991013 
-18.2551861 0.164884984 -22.5417862 
-2.21008492 0.597884297 -21.4715099 
-9.6568079 0.0275911167 -23.1486092 
3.44750404 0.0906174034 -24.4858494 
-18.0378017 0.31490168 -20.9050884 
16.6526585 -0.148414478 23.5521126 
1.69289935 -0.0227389783 -20.3074646 
-2.55176473 -0.240857184 22.4874649 
-2.763695 -0.429032356 20.0359364 
17.5518703 -0.517913282 22.9839039 
9.11938763 -0.0766035393 23.6078453 
9.48236179 -0.0596469641 20.2761822 
2.89965558 -0.0293969698 -21.0609684 
-1.1049664 -0.503331602 21.5290413 
-1.29701078 -0.359372675 22.1930752 
-1.84479427 -0.37708047 22.1834831 
-0.512274444 -0.0625446066 -22.9804974 
2.76917315 0.0910447538 24.8187103 
-4.61520481 -0.409914643 20.1499176 
-3.93256974 0.639710426 -19.6934891 
8.94575214 -0.117320031 23.5600338 
-1.18678069 -0.590689361 20.2737045 
3.9497714 0.138399333 22.9166584 
2.38491464 0.00188412424 23.578289 
-4.38454676 0.767489731 -20.7596607 
1.24943042 0.113537833 -22.2968731 
-1.75939143 0.227880552 -23.0765247 
-5.58469391 -0.450255454 19.9108906 
7.11608315 -0.20221968 -21.364193 
21.0255356 -0.625082135 23.8625336 
3.98668742 0.121645868 21.3426571 
-19.3731155 0.487359434 -19.7790737 
5.17395687 -0.116653956 -21.263937 
-17.2240887 0.0203681067 -20.8169861 
-5.09668589 0.754282773 -20.2798958 
-19.6870842 0.519976556 -19.4582825 
-0.0537444949 -0.436952204 19.9608002 
9.92045975 -0.125992835 -4.09167957 
-12.8507156 -0.48338899 -24.4381847 
-18.3524551 0.139652565 -22.868927 
-3.85893822 0.546286702 -22.7891178 
-6.7444768 0.52129662 -21.2618351 
3.43285942 0.146879405 24.6505299 
0.50696069 -0.0171367452 -23.6830959 
-15.5798426 -0.306679636 -23.4109077 
-4.61563301 0.715737224 -23.137331 
2.0036099 -0.0498316139 23.2684479 
-7.52297163 0.268310487 -21.3517494 
-5.29472542 0.688406825 -20.953289 
-6.67925644 0.425379425 -19.8426533 
-4.12143993 -0.460676998 -5.64748478 
-7.00402927 0.524238527 -22.0645447 
17.5631218 -0.446896464 23.435524 
3.98609805 -0.106826924 -21.6050186 
15.8069706 0.205574557 19.6027184 
-2.74131536 0.146941707 24.7116356 
-14.0969601 0.262005717 6.06123781 
-18.7787895 0.388280541 -20.6645355 
0.386755496 0.164948359 -21.3436222 
15.2451696 0.302289724 20.603199 
-3.95597529 0.0134766642 23.8454971 
1.35993195 0.0353260525 21.6804466 
8.09029102 0.0366190933 22.4601498 
6.32490587 0.0458335914 24.3044949 
4.06107378 0.206339359 23.4365559 
23.9102726 -0.428392231 0.172421753 
-8.44381714 0.13313739 -20.5884418 
1.60283613 -0.0316564925 19.8810406 
-2.85751724 0.606912374 -22.3027115 
13.0487776 0.379250824 22.3078556 
12.9765024 0.376495868 23.7557373 
7.40915203 -0.301166743 24.2895336 
2.60467553 0.0121047776 21.2483025 
3.30363798 0.0606696159 22.3325901 
-14.0877056 -0.633800983 -22.196949 
-5.13923216 0.372147411 24.5492592 
-1.18166149 0.0810820907 -22.1253452 
2.26794314 0.0170551669 -22.6381207 
-1.07660687 -0.466069996 21.7099285 
9.97898388 -0.144731447 21.885479 
-3.4310832 0.520487607 -22.6487904 
19.7264824 -0.622170269 24.6271362 
-2.21808434 0.508514762 -22.5487671 
-0.0867056251 -0.268190861 21.5790367 
7.09301472 0.0161202475 22.9970589 
1.05461764 0.0553958938 -21.9432526 
9.10069084 -0.02845647 20.3886127 
-18.3269005 0.105479345 4.77933121 
17.0396461 -0.368157178 22.0537834 
-7.33625603 -0.0269905459 21.2882099 
-12.5471516 -0.471512467 -23.7193737 
-6.37147236 -0.176316693 21.2735443 
5.91722393 0.510545075 23.0316257 
-1.27383304 0.327417433 -19.6644497 
-1.95225132 0.406742275 -20.477602 
10.5074291 -0.058873985 23.990593 
-1.11814904 0.000339430524 -23.0302982 
5.23014355 0.252046525 21.3437786 
18.8189507 -0.419199944 20.3005085 
5.86798668 0.2303036 24.2423077 
7.03965425 -0.0628286079 23.4279861 
3.48280573 0.0622760803 21.0388088 
-1.90603566 0.125999331 -24.0437336 
2.52192616 0.0324220769 20.9602661 
4.63844824 0.227518931 23.2187061 
-0.994312882 -0.546859026 21.162159 
-2.43193698 0.622028112 -20.8448544 
-17.5030842 0.0917524174 -24.0022011 
-1.91133368 0.416535556 -20.7124367 
21.7513866 -0.153894395 19.6156807 
2.10577393 0.0618127882 21.6097279 
-4.34099865 0.660643995 -21.6188641 
-7.71672201 0.375596374 -19.8042889 
1.41781688 0.223993093 -23.1551189 
4.45014238 0.215086713 20.5642986 
3.40344596 0.148757845 22.7291832 
14.3890772 -0.255628705 12.6776733 
3.23397875 -0.0979228094 -20.4317703 
-10.0119524 -0.205159217 -7.47047424 
-0.323165238 -0.206791788 24.6508694 
0.315977842 0.0732271224 -21.672842 
-6.50460243 0.565757751 -21.7281857 
23.2975903 -0.1213025 11.9046764 
-1.08539581 -0.216560557 23.0034618 
-10.280201 -0.363547951 -19.6897316 
6.37202644 0.244520172 22.9243984 
14.4652014 0.448028475 19.7567425 
16.9887371 -0.235663682 22.5559807 
-7.54298592 0.357594907 -22.394907 
-2.58883429 -0.172927007 22.7935562 
-0.60839355 0.0747665688 -21.7791214 
-20.6752872 0.659801424 -23.1742821 
0.945020497 -0.0642527044 -24.4635315 
7.42492914 0.440835029 21.2943363 
1.40830731 0.034392897 -21.7184753 
-1.65350127 -0.299818188 22.5312061 
-15.9825296 0.492636591 2.05428243 
1.1897316 -0.0671364889 20.7570267 
-4.7667098 0.90125221 -21.2780895 
-3.26789236 0.619331419 -21.4643192 
-14.4988136 -0.678732038 -21.1828632 
10.1173496 -0.105824135 20.8073273 
-5.00859165 0.718312323 -19.6232052 
-1.92577863 -0.518567324 20.1240845 
24.2129574 -0.0470929369 19.817709 
1.91701269 0.179126889 20.8003769 
11.6406679 0.0701270998 24.1069546 
3.68225002 -0.130024448 -21.6953735 
10.179678 0.0110264225 16.0565147 
-8.83526993 0.151407018 -23.3189049 
-6.78669214 0.425044358 -20.4393749 
-2.49415493 0.480246633 -20.2283688 
0.937135577 -0.0664231777 21.7694721 
-23.1382408 0.329986006 -24.7322903 
2.31295729 0.181296781 19.9024467 
13.0208273 0.198849276 21.3164845 
1.38493466 -0.093710117 -24.8967609 
-2.52529311 -0.47396028 21.3130798 
-3.77279854 0.470363021 -24.05966 
7.53907442 0.373559207 20.2503128 
-2.36601138 0.432580203 -23.0322495 
2.80100489 0.107093595 24.9762535 
-18.7276115 0.304925114 -19.572504 
-1.10246408 -0.273721963 22.56003 
-6.63783598 0.27023533 -23.2926731 
5.38653374 0.166620165 24.8222618 
-13.4168139 -0.724877119 -20.7921772 
-1.1909368 0.212577432 -20.7339764 
-4.96540165 0.716183126 -22.9786472 
6.22005892 -0.00437158579 24.6585941 
-7.85654163 0.238612875 -23.3723316 
13.9306936 0.196124852 20.045681 
6.04643869 0.383615851 23.4251156 
1.36149931 0.0863563567 -19.7891064 
-10.5178919 0.192637518 -23.8996372 
10.5376825 -0.132684931 21.5943336 
-4.89629555 0.578649461 -23.9420929 
-1.88397145 -0.40798679 19.6157417 
1.94985723 0.184344321 21.2348461 
2.92855239 0.0717201456 21.6659794 
-4.09008551 0.674338043 -21.3435726 
-5.11322355 0.729317427 -20.1611328 
-17.1370754 -0.0887932256 -21.7907219 
11.6809845 -0.130833805 21.4640541 
-10.8599796 -0.0137670934 -23.0333195 
-17.0987186 -0.101019599 -24.7503624 
-7.21253872 0.133736715 -24.3385906 
1.41393626 0.0604657829 -24.0453186 
0.232899934 0.144609407 -21.3432789 
-8.05384827 0.0363903418 19.6472912 
-17.1863384 0.0349931605 -24.2382927 
20.4240665 -0.603445053 23.5898056 
10.7477617 -0.0723313987 21.0054073 
-2.27408576 0.364356697 -19.6277618 
6.31955242 0.0782922283 24.1320171 
1.10646927 0.21123077 -19.8449287 
18.5700054 -0.446286529 23.8779716 
-0.0390271619 -0.334087372 23.2562351 
-17.134058 -0.0765506923 -6.6062398 
-16.4747944 -0.0494376011 -22.5047684 
2.73650956 -0.113587365 -23.2295399 
12.1855364 0.0624334216 24.2852898 
-1.18641591 -0.00432623969 24.0458717 
0.93637073 -0.104389593 21.4687233 
-0.178393796 -0.498058438 19.5213547 
2.2256906 -0.00171805744 -22.1097736 
-2.19356155 -0.231785089 11.482872 
6.55324268 0.127879158 22.9850025 
-9.50407696 0.110196337 -24.3889503 
-22.9922409 0.231155917 -21.3552628 
-1.49650371 -0.0886437371 23.2669392 
-15.2208271 -0.439966559 -24.9789448 
-8.23719788 0.178009748 -22.0465603 
4.76897192 0.191668928 20.8473396 
-7.7829299 0.157056823 23.3884411 
1.06332517 0.0819017366 -22.1192913 
3.07342887 0.0968525484 24.8307819 
-12.0938435 -0.275610566 -25.1660271 
22.8362255 -0.0850737914 20.7483559 
6.72083426 -0.273246974 -22.3072834 
-0.198155046 -0.0713410825 -23.8835926 
1.20701385 -0.0196947847 21.3039513 
-2.08430219 -0.39616245 19.634531 
-8.28054523 0.197476029 -20.0597172 
-1.88618362 -0.524413288 21.4797935 
1.13450634 -0.0623589642 22.3529377 
3.04730773 0.0980135351 23.4302826 
1.52435541 0.197058842 -23.4665146 
6.03735018 0.0130091365 -24.4198952 
-6.70081568 0.523241818 -22.0586243 
-9.03532314 0.0561758429 -23.0441513 
-4.92818689 0.78473711 -19.903965 
-2.65874147 -0.200204238 22.6357918 
3.99151993 0.24691835 24.3487988 
-13.4761448 -0.714695394 -22.941452 
-1.43844187 -0.309789538 22.491293 
-13.9738359 -0.732101202 -21.3905621 
-9.188694 0.291500866 -24.9624653 
4.60524607 0.191718981 19.4576263 
-24.2293625 0.000497282133 -19.5483761 
-11.6137323 -0.209694564 -24.306076 
-10.1538525 0.112124719 5.63311672 
-23.3098164 0.0868728459 -22.1938953 
0.593679428 0.0269397665 -22.7024727 
3.43359494 0.165343657 23.5158443 
-1.79395497 -0.0493015461 23.4028816 
2.94567704 0.134259865 24.4182796 
0.37490043 -0.196448892 20.1742573 
8.48251724 0.167778671 21.4179726 
-16.9680309 -0.105305992 -22.4532509 
5.35423756 -0.17868799 -19.357029 
1.63596916 0.111748174 20.4847717 
-6.76210785 -0.285409719 1.40902567 
-0.713845134 -0.00549062109 -24.2626686 
13.1015768 0.383906782 22.858242 
15.684226 0.126978695 20.528553 
11.8800802 -0.0369626954 23.4025192 
-2.4227922 0.594087541 -22.1821346 
6.05531931 0.473471582 23.1538296 
21.7219086 -0.492027968 23.5080986 
18.9152069 -0.477581561 22.828537 
-15.4947424 -0.531951129 -21.0606098 
1.26270425 -0.0783275813 20.0376701 
-6.46942043 0.427098036 -19.8924084 
5.95465422 0.339190871 21.6428795 
-1.90237129 0.277484238 -23.1856422 
-2.13422203 -0.0421294942 23.3014698 
-22.5884495 0.286035985 -24.1761246 
13.119606 0.164537013 24.7985649 
-1.06904256 -0.534627557 20.883213 
-10.2683458 -0.100027211 -21.9717712 
-3.75805068 0.585722029 -22.0203648 
-3.59709215 0.434293628 -23.7893486 
4.82656384 0.222718045 20.4894848 
1.87978256 -0.0592157282 -19.8499565 
1.12756741 -0.158782199 22.8469429 
-10.9706545 -0.140571192 -21.8902607 
5.91580582 0.299209803 23.9920883 
-0.213658094 0.254850835 -20.1498947 
-5.12314415 0.747663021 -21.5996361 
0.558413208 -0.0999924764 -24.7348328 
-3.65477371 0.637804091 -20.7945423 
4.98396158 0.277154088 23.7003746 
12.1657009 -0.102289245 19.857069 
0.253284216 -0.222460985 20.2307472 
14.5919037 0.117367983 21.8449535 
-7.29704905 0.348155379 -21.5207748 
-2.41401172 -0.275118023 22.4322491 
14.6444006 0.428985983 19.8003159 
0.717083395 0.0427913144 -21.1577759 
-4.25891399 0.515026271 -23.696022 
-15.450284 -0.476481467 -24.9816761 
4.78220987 0.271315157 22.9598045 
-4.18311882 0.641847014 -22.6286678 
-6.76217794 0.430897772 -20.6896782 
-8.94186497 0.274820298 -24.0974255 
-22.16856 0.633422136 -20.6987705 
-4.73524094 0.675474942 -23.4707584 
-2.01532149 -0.275118083 22.5090961 
7.57586908 0.0393024683 22.5247688 
-0.175938755 0.0960682034 -21.3972664 
12.2950468 0.143768221 24.8926983 
-4.95408297 0.764618576 -20.0752716 
-2.10235763 -0.291984022 22.3584442 
-7.69904852 -0.126325652 16.5476246 
-2.4505043 0.499234915 -20.3691654 
4.7307992 0.261515111 23.0851536 
-1.11449456 -0.293190807 22.3904858 
2.40148497 0.183146492 20.2442551 
1.18081701 0.0282400046 -24.0983677 
-1.44212902 -0.0734387934 23.4281216 
-8.75155258 0.00425196066 -21.9723587 
7.78947258 0.438174129 20.7422638 
-2.04341865 0.385199726 -22.9228973 
6.30091953 0.356032014 21.3796749 
-3.44610143 0.0550462753 -10.95399 
3.8215487 0.235117644 19.4974499 
22.2735729 -0.150490567 20.2944126 
-0.895674706 0.147922799 -21.6525536 
-10.1039906 0.0239498504 -23.6929932 
-3.03334165 0.448446721 -23.0791607 
12.1657 0.135953993 24.7262993 
-0.315021873 -0.346149743 23.0654488 
6.2615118 0.328528702 20.2234058 
13.3016682 0.228062734 20.9537697 
-6.28142548 0.537766159 -22.173996 
11.3261509 -0.15575093 21.321188 
17.177227 0.202041999 5.18038702 
0.409822255 0.0568916872 -22.4083443 
-11.7045927 -0.386168242 -22.444418 
0.355924368 -0.224561915 20.5371914 
-17.692379 0.216904789 -20.7622185 
4.03053665 0.264371812 24.1986389 
5.55137157 0.264485776 24.2557335 
5.54184246 0.380208939 23.49119 
-8.5030489 0.221361607 -23.4553318 
9.48148155 -0.0108688287 23.1419888 
2.02426362 -0.000550061464 -24.5192013 
1.73566675 -0.108934 23.1669044 
-0.799550891 0.269289345 -20.053339 
-12.6787338 -0.48807013 -24.1722317 
0.0781260952 -0.257454306 21.4352798 
0.739147604 -0.143251494 22.4244747 
-1.11107171 -0.15451324 24.6879215 
7.49902058 -0.0974011794 22.9550648 
-11.1761599 -0.385064304 -21.0391617 
-9.11796856 0.241042137 -24.6447105 
5.48496723 0.166779459 19.616354 
17.9261074 -0.558837473 21.9925442 
1.70608795 0.098794885 -23.6462059 
-8.23753357 0.172232762 -22.2199135 
0.988006413 -0.165799722 22.8241482 
8.14984417 0.195799097 21.2825851 
1.55910552 -0.124811769 23.4719868 
8.53380966 -0.0260984637 22.5209312 
5.6209774 0.431816697 23.4100056 
-1.67803645 -0.541181386 21.3690434 
-4.82657528 0.835823417 -20.2874947 
-18.404953 0.185360447 -22.4030037 
4.91683245 0.290448546 22.1418991 
1.09286809 -0.129915252 23.9916706 
15.0619335 0.362504572 20.1622505 
0.197796345 0.226940081 13.3633318 
-4.49528122 0.749675572 -21.473547 
0.597603083 -0.0831576362 24.8266315 
0.138590142 -0.353060067 19.7039471 
9.65866756 -0.0375077799 22.8480053 
5.20966721 0.323648155 23.7151527 
11.8245649 -0.117278658 21.7629395 
-4.84067869 0.793851972 -21.8261185 
-10.9785252 0.218038917 11.163991 
3.87780666 0.215235516 23.6267433 
5.59503508 0.123233333 20.5977612 
11.9739876 0.0255093332 24.0250816 
0.273338884 0.0329460204 -22.5032616 
-19.0782585 0.169263095 -22.9265079 
-10.2691679 -0.301192373 -20.8071766 
1.56335044 0.255240172 -22.8795395 
-9.43607998 0.0932362825 -24.2478828 
10.9665575 -0.0830190182 20.4748478 
2.52602053 -0.0218992047 -22.5964413 
19.3764572 -0.164541334 19.3542309 
-9.15210533 0.0470311977 -20.8974609 
3.70379639 -0.111738525 1.58576572 
0.413714111 0.0640693456 -22.2578049 
-5.07140589 0.697589695 -19.7525082 
14.9922047 -0.0496895723 22.6456375 
-4.67726231 0.887668967 -21.3470993 
-19.4076443 0.496678978 -20.5607586 
-14.7283621 -0.461303324 -24.205328 
-5.9734931 0.591410995 -22.0979347 
0.595213473 0.112567343 -21.382288 
1.52477956 -0.0763261691 19.5096283 
3.69874048 0.0852704644 21.7805271 
16.6865063 -0.207201958 22.0912056 
10.4978046 -0.151378423 21.7374821 
1.93716276 -0.05702696 24.4451523 
-11.0542011 -0.0649281368 -23.8502254 
-6.22414398 0.385596424 -20.1587734 
4.37823915 0.198685005 23.065094 
7.29576349 0.36358434 19.8412628 
2.29318261 -0.0123312939 -22.2493782 
7.91143274 0.214880615 21.7979603 
-13.4435854 -0.713450074 -23.2972069 
22.1336784 -0.456625998 22.5423889 
-9.03785992 0.16424264 -23.69104 
-5.92983866 -0.523200572 12.8556519 
-10.5883856 0.157495663 -24.5329304 
4.56838942 0.19696185 19.7844372 
-14.4841547 -0.647077739 -22.4472809 
1.45060194 -0.0905003622 -24.6385612 
5.05394554 0.213715032 20.8437138 
2.44782639 0.0102769183 21.6162701 
-23.3197079 0.127752617 -11.83599 
-2.04421306 0.649778068 -21.41436 
-12.1992598 -0.49420616 -20.6105099 
-6.32516479 0.426376581 -24.346014 
-2.08609891 0.127997324 -24.2979145 
14.0659084 0.310013324 20.4085617 
10.8529081 -0.152679205 21.9735622 
13.6622953 0.203942627 24.2689686 
1.11937857 0.083901152 -23.923912 
18.1955032 0.127373919 10.6070356 
22.3261509 -0.637337863 24.0885487 
-1.71044075 -0.0635587052 23.8107796 
-0.317443699 -0.334290504 22.0643749 
-10.5631075 0.206199408 -4.4680686 
-4.37773275 0.557174444 -23.7821445 
19.1984291 -0.502690434 22.4137115 
-7.47380304 0.383124083 -19.6085339 
-6.27781439 0.475590199 -24.5769272 
5.63163662 0.332516819 21.6407948 
18.8492546 -0.324520081 19.7193451 
18.9554482 -0.478872329 25.0082493 
8.67520237 -0.222108886 24.5956879 
3.22220993 0.165291414 20.330204 
15.0492315 -0.0278277248 22.3366985 
-10.9832478 -0.0629067495 -22.2102242 
-12.6358099 -0.490696758 -23.8934765 
-4.92407846 0.569967985 -24.0925655 
2.06679702 0.144933477 21.1497345 
-0.64675945 0.234129965 -20.0783558 
-2.5479672 -0.068345204 23.5685635 
1.7079004 0.0207239389 -23.9780502 
12.5924606 0.217838228 23.9201775 
-1.36810207 0.0961093307 -23.5140858 
-14.5160723 -0.677166224 -22.2679501 
10.4656048 -0.138150409 22.6001358 
14.4814644 0.24693124 20.8389702 
3.87652826 0.237101495 23.9216671 
2.64785528 0.0770952925 24.5990143 
0.961090505 0.279381067 -19.3770199 
-2.83657885 0.0237380825 24.0004387 
-8.43833828 0.166590288 -19.5338955 
-2.29867411 -0.107456841 23.1155834 
-6.94429302 0.556529164 -21.9409924 
-7.01695251 0.298126578 -23.1834068 
-13.0704536 0.00673394883 3.19425035 
-1.70550466 0.292271852 -20.2515392 
-10.3260508 0.1761989 -24.0179768 
-18.0605068 0.175391123 -23.8277454 
17.0337086 -0.198427737 24.0442047 
-11.1648855 -0.122476213 -24.1767044 
-2.16055059 0.541544259 -20.4905148 
-2.06506419 -0.572720051 20.9335136 
7.66138792 -0.246858686 23.5368519 
1.60537767 0.0435157865 -21.894413 
-3.8710649 0.640675962 -20.4076271 
6.07809162 0.237652212 23.899559 
-5.65420246 0.488465279 -20.1230831 
-5.39365435 0.724964857 -22.8908043 
-5.4557147 0.602737606 -20.7466507 
-4.55066013 0.907579243 -20.1434956 
-7.62166929 0.0713763237 -24.0963326 
-3.66269493 0.436871052 -23.9538479 
16.3481693 -0.178108543 22.7828178 
4.43491602 0.233765736 20.8476944 
4.96466684 0.266367733 24.0885735 
-10.5425148 -0.352983326 -21.0218964 
0.322625726 0.0183038358 -22.6497154 
6.18559074 0.116949119 24.0520744 
1.1472224 -0.00440323399 -24.2774105 
3.77387643 0.138276115 20.8617764 
-12.9678783 -0.727839053 -21.9155865 
-7.80744743 0.25722295 -22.111433 
-10.3622942 0.253072262 -24.4406643 
4.20992947 0.189422086 22.9439869 
-1.49159515 0.14230071 -23.5568657 
14.8737621 0.409378082 19.7307091 
6.01598263 0.346129894 23.5720596 
14.4840641 -0.065525271 8.64343262 
14.3924379 0.126542494 22.299408 
12.7846136 0.27797991 21.9539642 
-4.01153851 0.725273013 -20.9441681 
14.0809517 0.164554551 22.9214916 
0.336722195 -0.0795506462 24.8796463 
-6.01104593 0.520776212 -21.7105446 
-17.2818432 0.0735507682 -20.3336239 
0.879501581 0.119229317 -22.7645493 
1.87987185 0.404571176 -12.4642782 
1.62374806 -0.016993627 22.118 
1.84037745 -0.0669203922 -2.53589916 
1.7755537 0.0577911772 19.8199921 
-2.60619879 0.498772442 -20.3098736 
6.28040934 0.451962024 10.9301033 
-12.9071722 -0.554655492 -20.5574951 
0.870232701 0.0794248879 -20.6961803 
-12.9657307 -0.496533543 -24.538044 
6.61579657 0.0267067216 23.9405975 
-4.52558661 0.666652083 -23.2091656 
6.80876398 0.041490484 23.2196655 
-2.15115619 0.487223297 -22.1062088 
5.91022253 0.47077176 10.3637657 
-4.2535429 0.713660359 -20.4313354 
1.22480118 0.233531803 -22.9302387 
-0.768606484 -0.296513408 22.6549072 
9.90813732 -0.161424816 22.5226212 
12.3202553 -0.143963367 19.4931107 
0.655437768 0.0708209723 -23.4412098 
2.44288754 -0.12134324 -19.9950409 
-9.30061722 0.0894994065 -23.8395462 
-2.04417515 0.451046169 -20.4299793 
-10.6552496 -0.419337183 -19.8670235 
21.7399082 0.0377586782 10.3567715 
-12.2780695 -0.498766631 -19.753376 
-11.505826 0.205213487 7.11696482 
7.2338686 -0.0648939386 23.1481476 
-12.7096128 -0.549808323 -20.9920654 
-1.64490151 -0.0550757274 24.4153728 
2.60141373 0.016282212 21.6615868 
-2.40658617 -0.324351817 22.0552235 
-8.6794405 0.0706198439 -20.3009148 
10.9785099 -0.115220368 23.0140266 
-10.2812386 0.0114419963 -23.4503002 
0.466662765 0.0851467103 -22.1313229 
-10.2770939 0.0667703599 -23.6487675 
20.6209183 0.271748692 1.42307222 
9.83361053 -0.135942027 21.6512661 
-1.68013072 -0.543028414 20.9060116 
6.20542955 0.380411893 19.3405018 
6.5481205 0.401780099 21.5678825 
7.95523024 0.383315861 20.6427555 
-0.838141561 -0.0938924253 -0.850343704 
0.489480168 -0.240498379 22.2691555 
2.69796085 0.0244333204 22.2492867 
-14.368474 -0.58319962 -23.3300209 
12.826561 0.0568094887 20.7191048 
2.65615892 0.00406772038 24.108366 
5.92321825 0.339751691 23.6843281 
4.10296535 0.158633783 21.396841 
-2.58464646 0.286485136 -23.8028622 
-15.2116299 -0.520956695 -22.4871407 
23.1146584 -0.170774221 21.1875191 
4.43855762 0.220570743 19.5100212 
24.3795586 0.116630949 -5.44521284 
0.471185535 -0.191159442 20.4408321 
1.87185466 0.156609207 20.6569862 
13.5832767 0.413700849 21.1279545 
7.16913605 0.399091572 19.8729458 
23.8806572 0.0116629479 20.5817204 
4.55247259 0.195066273 22.9213924 
21.1631012 0.0601173379 0.725895107 
-0.799458385 0.134142518 -20.9711876 
8.13070011 0.154224604 19.7477303 
18.3031387 -0.456726611 23.3740406 
-2.35379338 0.468630344 -20.2507877 
13.8029013 0.369107515 21.3898849 
-0.860291481 -0.0901738554 -24.7702045 
12.1589518 0.00173054729 22.8274994 
1.63150907 -0.0930786282 22.7342587 
18.1217422 -0.465309322 23.7628689 
-2.55098104 0.348101854 -23.4478168 
15.0012894 0.0420348085 22.0068531 
12.3269291 -0.0674867332 20.7529144 
1.93655503 -0.123885632 -20.9781876 
0.0316903479 -0.340515137 23.1110668 
-15.7062607 -0.241625026 -22.5289364 
-5.88965702 0.637963295 -24.1033039 
14.0140324 -0.0349602848 8.52367878 
24.0675144 -0.172848716 -1.90028846 
11.6971378 -0.132748723 20.8147907 
-0.381138384 0.03551073 -21.7263985 
3.89579296 0.276955575 24.3832111 
13.6007614 0.348706722 23.3268032 
16.6399384 -0.234828994 21.4943027 
0.983477473 -0.066176787 -24.6102219 
17.801878 -0.542921066 22.1574287 
-5.41717148 0.690255463 -22.270956 
21.6395226 -0.12286219 19.3729439 
8.68680477 0.0738258287 20.8972015 
-7.66620779 0.288902909 -21.0637913 
-2.48132348 -0.423801154 20.0058403 
-8.39083862 0.113581821 -20.8736153 
2.28700757 -0.161976546 -19.8438129 
2.44321728 0.0505565628 21.9109554 
6.48032141 0.349549085 22.1439362 
5.07826281 0.341321707 22.9241371 
-2.91365004 0.325241804 -23.7198105 
6.35772419 0.340188891 20.0285454 
-18.1094227 0.166198879 -23.1575336 
6.66534424 0.478485346 12.4487572 
-14.1977301 -0.459955156 -25.1158504 
18.9185867 -0.547384083 21.8924732 
-20.9350967 0.590226233 -21.272562 
2.65300536 -0.0724961236 -23.42136 
8.56800556 0.0698489696 20.5267487 
0.724188566 -0.0672114268 -24.1935005 
6.20922661 0.47570163 21.9891491 
11.8483171 0.00758092292 23.8701839 
8.64349365 -0.20398213 24.2398071 
5.77483892 0.234066024 24.3480473 
-8.95518494 0.0613149665 -21.0465965 
-13.3494396 -0.737693846 -23.4523373 
-12.1056175 -0.391054362 -23.3460026 
-15.6956177 0.414434314 2.29827642 
14.1410065 0.158988416 22.5089397 
2.43891954 -0.0123703098 -21.9233513 
-7.59527445 0.400649786 -20.4304199 
-6.11925983 0.514675915 -24.5250225 
-0.5631271 -0.324848235 22.8440819 
-15.6119709 -0.32869938 -23.1728172 
7.62973499 0.396835446 20.3821316 
1.91219544 0.179377601 20.3587646 
5.67090511 0.508407116 22.7483387 
0.449758351 -0.0641806722 -24.1831188 
4.40084362 0.211164728 21.2451 
14.4610815 0.166918248 21.4297886 
0.173384279 -0.308763891 22.583353 
9.00579834 -0.114476413 24.6942997 
19.3222752 -0.516007185 21.3467216 
-18.3755817 0.176753595 -24.1237793 
-2.13864279 0.0498571694 10.3416262 
2.77479219 0.0291319471 20.9797726 
4.49971342 0.177953228 24.6555004 
15.6521797 -0.145423383 23.1021881 
-6.18730593 0.481579751 -22.6368999 
1.02221501 0.167279735 -22.8139229 
-11.7823858 -0.209847569 -24.3429146 
-4.97269773 0.856165648 -20.901432 
-3.89889765 0.56462431 -22.6091347 
0.112709649 -0.0901432931 -23.2609406 
13.069643 0.422658622 22.0677719 
-7.67091274 0.26594919 -21.3321838 
5.70955229 0.209114477 20.9533978 
-1.93105209 -0.256868422 22.6803646 
24.3042393 0.165459052 21.5801525 
15.8940897 -0.0664662272 20.9289093 
13.2751875 0.416723341 22.7647877 
1.43340242 0.000487575307 -20.4407864 
-17.395174 0.17857109 -20.1140862 
-16.9198742 -0.0234758947 -24.4237652 
-2.11211181 0.465706468 -20.3342667 
13.3816395 0.410783857 23.2567902 
0.440988541 -0.230554804 21.1186218 
-16.4901829 -0.182474494 -21.718647 
20.1640644 -0.672122717 24.0989056 
6.85199451 -0.0909880847 24.0508976 
0.214517772 -0.316553712 22.4118938 
-9.3392992 0.0521345884 -21.7680283 
0.350842714 -0.0624649748 -24.7331772 
-2.40198827 0.367530793 -23.3080215 
1.99240601 0.175063625 20.86693 
5.57990551 0.549749732 22.8251362 
12.9979506 0.373048961 22.1927433 
1.31847942 -0.17383492 23.1277866 
-15.6371298 -0.383343399 -21.4727268 
-8.43669319 0.110824786 -21.8689022 
9.39591885 -0.0708813518 20.9114971 
-6.76331091 0.424391508 -20.0783501 
9.18221855 -0.000539302127 22.0371971 
24.6181736 -0.240033209 24.8791962 
7.58631039 0.196571499 18.5025444 
2.60650134 0.102872327 -24.3206482 
-0.487584442 -0.337189794 22.4212017 
-7.16330147 0.401139587 -20.1308155 
13.029891 0.0626800805 20.5154572 
-0.833334506 0.285074085 -19.9560642 
0.308595538 0.119180389 -21.4906673 
12.3093739 0.139423609 24.7732067 
9.07469559 -0.00648190966 19.9068222 
4.43565607 0.215355694 24.4283447 
-11.7777424 -0.276255399 -23.2643013 
-3.02417755 0.156597957 -24.6622086 
13.4536171 0.107300386 20.1796303 
12.8107338 0.331946403 22.0873013 
-1.00186229 0.144664139 -20.747963 
-2.98169374 0.599599898 -22.2314186 
-2.78172231 -0.416265011 20.5746803 
20.4913387 -0.241620257 21.2238503 
14.1493101 0.282459348 21.0081635 
20.6113796 -0.535046637 23.2413521 
-5.09395313 0.64679271 -23.9394913 
-1.77624583 -0.450334579 19.7430248 
23.301527 -0.410412401 23.6345272 
-13.7758646 -0.639594436 -23.9353237 
-17.1953239 0.0438565649 -19.8774986 
-0.333106607 -0.42923072 20.9570808 
7.5185442 0.480200946 20.910059 
14.177763 0.28538692 20.6721001 
11.4683867 -0.143530473 20.4680004 
14.8038826 -0.117870048 24.401289 
-1.45047712 -0.027806269 24.4026756 
-8.11199188 0.194062591 -23.4711475 
14.7352076 -0.0870067775 24.1869106 
4.78344965 0.223401561 21.6715126 
-10.3669786 0.24010095 -24.2891369 
-13.0971184 -0.569689214 -24.1330929 
8.3660202 0.138391957 20.8858967 
11.0990629 -0.176354825 21.8422928 
13.1181774 0.320952326 23.9917316 
14.3373957 0.394772649 20.0165997 
-1.59413314 0.179322109 -23.0265369 
-0.654928446 -0.165416181 24.7660542 
-12.4311037 -0.538719475 -19.6901741 
-0.997741461 -0.0197311621 -22.6835327 
1.2445991 0.0151107404 21.669342 
