ply
format ascii 1.0
comment created by gply, a Houdini tool.
comment converted from .[b]geo
comment for more information about Houdini, try:
comment www.sidefx.com
element vertex 1266
property float x
property float y
property float z
element face 0
property list uchar int vertex_indices
end_header
2.6822803 0.411102772 19.5316315 
12.4702864 0.251326501 6.71553612 
-11.1571999 -0.371038198 -10.5631475 
-1.61520565 -0.120125264 9.81137371 
-10.9532375 0.15268898 3.84553576 
-10.0877275 -0.0923803374 10.7206659 
-1.23544323 -0.107071653 -2.93812346 
-7.52924395 -0.332749665 8.18952942 
-19.0475178 -0.184747651 18.3815422 
14.945755 -0.175625563 10.6272154 
-23.6891651 -0.225039318 3.16383076 
-1.05298162 -0.00884696003 9.88457108 
18.37537 -0.0363272652 -14.5688314 
-2.33443761 -0.0888958201 11.9480009 
-8.38909721 -0.373253435 2.89562678 
20.1408691 0.124687217 10.8855257 
-18.1809654 -0.197700202 -14.0593052 
-14.9080629 -0.0166234598 -5.77102852 
0.775647521 -0.0503440388 -7.79345608 
8.31038094 0.245077282 -3.70144773 
0.124395214 0.0111986147 1.49092007 
-18.9650879 0.453545213 3.11389279 
-0.549824953 -0.567419291 6.33804321 
-19.5742722 -0.106493004 -7.7773366 
-3.8189559 -0.0945765674 11.1033897 
10.0552168 -0.137515351 21.2280674 
19.8256187 -0.0797142461 -15.6924467 
10.5180855 -0.481937557 -12.9205732 
10.5393543 -0.151207089 -2.6659894 
-22.8872967 -0.339332283 13.6936026 
-4.68876505 0.132245868 -9.96193027 
-7.07801294 -0.215502098 -12.3961496 
-20.0619907 -0.159698635 -11.0052338 
9.0585146 0.249308884 -1.37617135 
24.2704506 0.218587533 -5.8227334 
9.42581654 -0.0588404983 15.6059351 
13.4865255 0.0661770627 -16.6194992 
-1.38648808 -0.395456225 5.79043055 
10.0475302 0.502469122 6.98055506 
13.9134884 -0.179580644 -3.08204031 
-24.627409 0.0783258751 -7.43642378 
-12.8111401 0.20312117 6.65454149 
14.1346807 -0.145166337 9.58301449 
-5.55173874 -0.310031563 -0.355557114 
-17.1543617 -0.321965545 -9.16841984 
23.6341133 0.471705616 -11.9600172 
10.8828344 -0.698743403 -7.19507408 
-5.02254725 0.30559808 -13.2126436 
-15.4006348 0.25846976 8.01099777 
-6.50115919 0.226132303 -17.4242287 
-0.612146914 0.37785095 -10.5827055 
24.0032043 -0.49975726 8.6092062 
18.7322769 -0.364198804 18.8293552 
-18.6193428 0.423320234 -4.03598833 
-19.4239101 0.680686533 1.4792012 
-2.59942055 -0.198424906 -6.23568678 
-12.7769127 0.0971880779 8.87769985 
-20.4945526 0.492457807 -18.998415 
-14.5059347 0.0237009656 4.00842571 
7.57809019 0.565687001 5.82868433 
12.3889418 0.122860804 22.0089741 
-7.30233765 -0.59281677 11.2966528 
-10.6873426 -0.0623029917 9.42402267 
-16.1783028 0.14368163 -4.62812805 
13.2214794 -0.00896597467 18.7425499 
15.6732435 0.0256282743 17.1590633 
2.16561246 0.150678232 -8.95008659 
7.37633324 0.13815482 -4.65839672 
3.35032511 0.224133879 -6.17952633 
8.24210739 0.158914328 3.07340193 
6.8715539 0.310684681 -2.00568843 
-13.2343159 -0.0659880415 3.88921976 
2.67653728 -0.469441205 7.07197523 
-22.4343338 0.0471939631 -5.66223907 
13.4064331 -0.255617678 11.2383251 
24.1731377 -0.0793891698 15.0178528 
-12.6990776 -0.379267633 -11.9032907 
-0.00453773886 -0.0283384956 24.9220848 
16.5631638 -0.126040459 -4.53592396 
-21.5985336 -0.0687722415 -6.42885303 
8.0513134 0.213683128 -3.84650135 
1.01102412 -0.0322109461 -7.61114168 
-19.8053322 0.000749745872 -14.3382578 
-24.6987019 0.389236808 21.8173866 
16.4574242 -0.462136954 -20.003828 
19.1221695 0.511891842 13.6586418 
18.2858677 0.0660071895 5.03224516 
-1.49733448 -0.190179318 -7.04620266 
-11.4620152 -0.175984681 0.753639698 
-6.90604162 -0.183384091 -12.8951941 
-3.92445612 0.266535223 -18.4835663 
-3.17139435 -0.372520149 -4.50122452 
0.790664732 0.212070078 19.0024471 
-13.9927492 0.0713612288 6.19068575 
8.37912178 0.0597941838 18.5729809 
-11.475173 0.136277795 -5.44290257 
-1.88814247 -0.15576078 1.13677609 
9.48596764 0.193387166 10.8276844 
4.37567043 -0.00636678049 -18.9372616 
-9.33532906 -0.163614437 -6.02214098 
-24.4031219 -0.294176847 5.30148554 
-10.5876541 -0.313962102 -0.392070383 
-9.6551609 -0.381723523 -11.0625877 
-7.68582487 -0.223004416 3.04175377 
-18.3391514 0.504574955 0.986021519 
-8.59862518 -0.382168055 -3.7261672 
-23.2306843 -0.241011515 3.82009268 
6.043468 0.368171066 10.623086 
5.38026524 -0.26036796 2.51619124 
-0.968080401 -0.0893109739 -2.94346261 
-9.39663792 -0.25367856 -4.60590649 
-13.8789444 0.0534752309 18.7818604 
-0.303844154 -0.284796149 -6.627388 
4.62907553 -0.300275326 1.61176848 
18.1529255 0.022203574 -12.6343384 
-5.74858236 -0.375774622 -0.355127931 
12.528801 0.24184458 6.02016973 
-11.2352257 0.077707164 7.74618483 
13.1990433 -0.305656523 -3.72948289 
-13.9499731 -0.252187759 1.44093561 
4.29952955 -0.157351792 5.74620104 
10.1855717 0.139739811 4.80866528 
-13.1879234 0.152285591 21.9583282 
-17.6363525 0.267701805 8.77101231 
7.59531879 0.172714606 -8.64798927 
18.9256516 0.15765734 -4.46042871 
-3.92610264 -0.0830243081 5.68139935 
-16.3896065 0.351777136 2.13927579 
22.1077785 -0.0413412079 -17.9185467 
11.8995848 -0.327384084 -4.02320671 
-10.4473734 0.268784463 17.8756962 
22.6501961 0.00252914336 -4.21938276 
23.4241161 0.0848643109 -9.62150955 
-17.2190609 0.430778474 -3.11019826 
-2.51488662 -0.194653898 -7.53027296 
24.4767494 -0.44596234 8.0612812 
18.135725 0.154766038 3.87460899 
-4.06434727 0.391076535 -20.1227436 
18.9692497 -0.424314111 20.8505421 
20.3802872 -0.037319053 -1.29379678 
13.9066906 -0.113439351 15.5011749 
-19.485796 -0.111403205 -13.5565214 
-1.39256346 -0.119489312 3.22148418 
7.68609238 0.233514875 3.27986383 
6.69879341 0.582125008 6.65106678 
6.87844038 0.324514151 -6.32644892 
-22.1298695 0.0122030284 -12.2510195 
-0.664254546 -0.249878123 -4.14573956 
0.823500335 -0.31487307 5.38221979 
16.3413544 -0.299380779 13.5904703 
-14.6155071 0.248991564 7.66597939 
-8.16816807 -0.282113314 5.29491758 
4.62298536 0.108366907 7.57844687 
-3.73911929 -0.139369756 -0.444380254 
2.81910872 0.288002104 -6.9698782 
-2.9083097 -0.0432328098 13.307395 
-20.6484032 0.199147329 4.8069973 
-9.28295326 -0.165312454 3.70355034 
-8.31793022 -0.499213248 0.138857484 
2.32365274 -0.14309144 9.74268436 
-1.54491961 -0.0223182961 10.6792183 
13.9772882 -0.461801291 -10.6276064 
-21.7751865 -0.0240625963 -4.72697401 
14.4465694 -0.00314702373 -0.410674572 
10.3768969 -0.0957541913 -15.7375393 
10.9382448 -0.55875808 -6.37638569 
-15.6677284 0.335016131 9.04252529 
23.5351295 -0.505088449 8.8444128 
13.059638 -0.125987202 -0.914258182 
-13.2282715 0.147096112 -6.55010319 
16.5083637 0.0401761867 -0.555491328 
-22.16745 -0.044135984 -11.6161032 
-4.51726961 0.001755593 10.1418886 
-7.24902534 -0.389515221 -8.05345917 
-11.383358 0.121425897 2.80913186 
-6.1568799 0.353827477 -17.3198566 
6.33340836 0.317358196 -7.61777306 
-16.7376442 -0.0395280272 17.3684158 
-4.58538294 0.050179217 8.05051804 
13.7875605 -0.697641313 -6.94322968 
4.50437403 0.405236244 -8.07284451 
4.68378162 -0.163202181 -14.5918789 
17.663538 0.0925505832 -6.535285 
24.4924755 -0.118724883 11.4301605 
-24.8619709 0.0794294775 -3.66405559 
-4.35350657 -0.274557769 -3.64912438 
15.3667431 0.265003979 1.285146 
9.26180172 -0.169083044 21.5351639 
-10.8292179 0.165993288 5.73000288 
-10.2625446 -0.329096198 -10.1116533 
1.72392476 -0.277151853 -0.781249702 
-7.65728807 -0.413975388 -7.54160357 
-11.5307665 0.119644694 7.58181667 
-6.21365929 -0.560177743 -4.42913818 
14.2861137 -0.392381519 -5.98679638 
-22.1331863 0.359593511 -3.00636435 
-17.186121 0.404382467 -3.42896962 
5.81852627 0.380660057 11.0439348 
19.1287365 0.371673584 -7.94199753 
6.19501305 0.352777451 -6.06931067 
-14.8559437 0.491214484 14.1068754 
23.4995651 0.239127293 -7.65690136 
2.32999277 0.357164592 -12.0661888 
4.51570225 0.0470007472 7.11386061 
-12.287693 0.196657777 -5.66162825 
-17.8678532 -0.0312207751 -6.64790201 
1.27453196 -0.413803548 10.1374645 
-4.88901615 -0.417494923 -4.04071283 
-19.0230103 -0.0690874159 14.6723108 
18.6771126 0.256872475 -7.34579563 
6.30885935 0.519938111 7.64949083 
-7.6706214 -0.286279202 3.71940827 
-2.6988821 0.00254300563 -11.0964575 
-11.2506466 0.192331955 6.72662306 
16.9639435 -0.415089369 -18.6051502 
-1.77125096 -0.290598959 4.42907953 
-4.55491114 0.1186947 6.75776339 
3.02168536 -0.360875845 7.79495525 
-17.8429699 -0.179648444 -15.8784723 
-19.6407776 -0.349588007 16.2891369 
-6.3813343 -0.54162395 -5.39904547 
-5.79748583 -0.211834118 2.59939098 
13.7154455 -0.460129678 -11.4566269 
-10.2074032 -0.402742416 -11.1428337 
18.0661125 -0.105676778 8.83201694 
-18.8447723 -0.217687055 11.0536699 
15.6562195 -0.384988993 -13.7706203 
7.13895321 0.619864881 7.81248426 
21.2843533 -0.452020675 5.93166971 
-18.7534943 -0.107823424 17.0927315 
-12.9122334 -0.288670629 -3.2104013 
17.7146587 0.0182938017 -4.89009666 
-19.7488976 -0.265121609 11.7956352 
-23.4302597 0.0339715332 0.487227499 
-11.5726042 0.23302795 -7.26705074 
19.792284 -0.349694341 -17.4413719 
4.59888554 0.353856266 18.1286621 
23.6370735 -0.09069065 -1.80279589 
-24.8684673 0.323908985 -6.28736258 
23.3128548 0.130077586 -9.49499512 
9.9671936 -0.0445228107 0.334313095 
-15.7863188 -0.0121504785 -7.18615818 
24.0481968 -0.116824433 -24.2817268 
-9.19910336 -0.276475936 -10.8245344 
-19.3404026 0.676451266 -1.40462542 
-23.2452793 -0.298497587 9.07317352 
-0.485505164 -0.300768495 -6.49377537 
9.29220867 -0.49851647 -11.8684511 
13.1540394 -0.236038491 -2.744627 
-3.70498824 -0.301592737 14.362442 
9.2787962 0.0342453085 16.3980026 
-1.90250468 -0.329536468 18.0453167 
-17.2713737 0.426550061 -2.76991582 
10.8252783 -0.712058485 -9.49135971 
23.3091412 0.513819218 -12.1179781 
11.7041407 -0.302561164 -5.10747528 
-11.1981106 0.497329026 19.4117603 
5.62291288 -0.124312334 4.11076069 
17.4838562 -0.126650617 12.9658413 
13.2119551 -0.688672245 -7.26925802 
11.7873783 -0.0766752139 -14.929718 
-9.17081165 -0.324313939 -0.0559010841 
21.2719631 -0.398192823 7.28808546 
-5.23681021 0.647923231 -15.0807066 
20.1982841 0.0825417191 9.89564991 
3.16510201 -0.234988332 -15.9587402 
-23.0741978 -0.23057352 4.06061935 
17.277277 -0.135938495 11.6435795 
22.1355324 -0.091582112 10.8958406 
12.5876398 -0.352774531 -3.47435832 
-14.740715 0.107286841 -6.7925272 
17.1290302 0.0764915273 16.2121258 
-12.8808155 0.170803398 8.23443031 
22.7204075 -0.446621239 7.06983376 
6.45616913 0.208400309 -3.95241952 
-13.9547415 -0.087216422 -6.89116716 
-16.9992275 -0.414131045 24.6190567 
-10.2513952 0.0361044668 6.10137653 
-2.19762731 -0.0497930795 12.5050402 
0.976866663 0.172576651 -11.3370743 
7.6534462 0.207299843 -12.0141268 
2.86608267 0.145045012 17.0685863 
-13.0164776 0.050162714 -8.69700241 
24.7365208 0.00224108552 -22.4178009 
2.85835195 -0.17170462 -19.3093414 
-16.5980797 0.0755423009 -6.65311575 
7.13549376 0.313925207 -10.9588299 
17.9128361 -0.181580901 -13.6585655 
17.487318 0.437807411 -9.59955311 
-5.39714718 -0.162582308 9.66477776 
14.702529 -0.480722994 -17.0177155 
11.495471 -0.581953287 -6.47262907 
-23.8179817 -0.0776161402 6.43087578 
-23.4645138 0.0460763238 -6.19044828 
-13.9218168 0.0144992014 4.54251385 
3.4015255 -0.0603879243 -4.23339224 
-12.3815432 -0.172124073 -24.9416542 
-22.901659 -0.308357477 -7.71493053 
15.3554764 -0.00696580857 8.41572094 
11.071702 -0.629694164 -6.73213196 
-15.1437302 -0.0996831506 17.7953663 
-1.72616076 0.416720182 -13.3769999 
2.37268186 0.405695468 19.6939373 
-13.4293737 -0.705107212 -15.0440121 
24.7056541 0.407010794 -14.2787981 
-7.44341278 -0.442741573 -1.4404043 
5.43356609 0.363888651 -3.76853418 
3.11058927 -0.328505367 0.677637577 
16.0711098 0.195843399 2.12029767 
-13.2297106 -0.0174199007 2.29841638 
0.605019271 0.0114860144 -3.71194124 
-23.9010201 0.0385834277 18.739912 
18.9790535 0.327912241 13.3789129 
-13.3811064 0.0859404877 11.1564751 
-23.823185 0.36402154 21.4446774 
-18.8601837 0.735006869 -2.42503405 
25.0066547 0.0684098527 -3.67359924 
17.3257256 -0.0182898212 15.4562578 
22.4667225 -0.45017013 -0.564204574 
-18.0945244 0.299781293 -19.4774075 
-11.0870886 0.256063312 24.800108 
-7.15632296 -0.0883150324 -9.30430794 
23.7748909 0.338874042 -11.8621855 
-25.0540524 -0.105356261 -10.4105959 
11.5196857 0.100935206 4.26631832 
7.34003878 0.559117258 5.07893038 
7.49766016 0.0460354351 1.42216408 
6.46675205 0.492751658 -10.4183559 
21.8780632 -0.310561001 6.91023111 
-1.71377754 -0.198027909 -6.76236963 
9.2177887 0.147994682 -3.22268009 
23.8700619 -0.143267035 -0.59311986 
5.92630529 0.405309916 14.1903458 
-4.60009623 -0.268691868 3.73036051 
16.916069 -0.159391448 12.0621653 
-6.37309456 -0.562094331 19.8306046 
-10.3338776 -0.489360392 -13.1307964 
-11.1363611 0.0572152026 -2.80284047 
1.29349351 -0.416232735 6.40582371 
-18.0310802 0.137328416 -5.35960484 
21.5528164 -0.0217065271 -17.6838169 
12.3489723 0.251514316 6.95388889 
6.01098967 0.288177639 -4.83483362 
6.70551443 0.453169912 17.245121 
4.49385166 0.0575556979 13.0726948 
6.44917774 0.274155229 -7.53468227 
-19.5302849 0.163667887 25.0332241 
-3.31255817 -0.46814087 -8.17606163 
-10.8935595 0.170450464 -6.03711176 
-23.2285175 0.570612431 -17.7165985 
-6.61056232 -0.068149738 6.41870451 
-15.2043705 -0.268097818 -10.6865625 
8.07495785 -0.0342772529 -21.9066753 
9.81061935 -0.185041204 -6.00971746 
24.9635696 -0.358737826 7.83833361 
-22.9170246 -0.318541199 13.3155727 
23.5969276 -0.204472974 12.0731335 
-8.87227917 -0.100006662 16.9695892 
-5.46686554 0.00972830597 -8.42236519 
-19.6660538 0.3403579 -20.3367424 
0.261932164 0.079804264 -2.65034962 
-20.9171734 -0.140526891 18.8304653 
14.4458904 0.329006821 6.23074007 
17.7732792 -0.189925626 -13.3181 
22.5516872 0.0372010134 -17.3515816 
6.81607485 0.550360441 8.59841633 
24.7006512 -0.112776853 11.1458216 
3.29239345 0.217221275 12.4777174 
24.566206 0.163777411 -12.9226208 
-17.9180813 -0.163129687 -14.5411177 
-1.57487357 -0.212301612 -4.65927458 
17.692482 -0.134249389 13.170743 
-3.02497768 -0.299542755 15.3466492 
-15.8108854 0.328851879 -2.83550882 
9.48467636 0.11691048 -2.7687943 
-15.8058844 0.27146697 9.5963726 
6.51291084 0.597153962 7.29547501 
24.6207485 -0.197903037 10.6568546 
-12.5354328 0.364975005 -7.13940907 
-9.4854393 -0.0751693323 16.0994358 
-21.4301224 0.181852803 -14.1669617 
-6.14085007 -0.417342395 12.450983 
-12.3596582 -0.511605978 -13.7040863 
17.8433666 -0.026735967 6.18012381 
-11.2939539 0.16215694 -6.82137823 
1.76767719 0.0835223198 -7.98934889 
-2.60463476 -0.242997527 1.31024349 
-15.154582 0.0955233574 11.8926878 
0.460485339 -0.571099818 8.17324924 
6.46068048 0.547410607 7.11899471 
1.75401175 0.261771977 15.050621 
-14.4398899 0.221692428 12.6637344 
-1.19776607 -0.1007277 -2.059304 
6.24615049 0.224298045 5.02640486 
-5.10542107 0.307723612 -11.4188786 
12.6647739 0.245979041 5.83619165 
3.38216782 -0.383473217 7.50715637 
-11.5058613 0.247731119 3.21320462 
-3.19710016 -0.265336752 -5.40480137 
-13.1986322 0.0427389778 -8.26281643 
-13.8409233 0.000304446643 -5.80613565 
15.2638254 0.100918971 0.421481252 
-22.3324356 -0.376714081 18.1799088 
12.0675993 -0.0574259274 -15.1316595 
-22.3702888 -0.337227583 14.5270319 
15.16891 0.046777647 7.40131474 
-4.83938408 0.343277216 -12.3060169 
9.98855877 -0.667056978 -7.98352671 
-10.1537447 0.198251158 -5.6994791 
-5.75089264 0.20102039 -10.8717489 
-6.5987525 -0.684853196 13.3356791 
-21.0956821 0.00512761343 -7.1833725 
-8.96432304 -0.217679828 7.97278881 
-0.863264561 0.357628316 -13.7518024 
-15.6753292 0.159685493 -3.94563603 
23.9660263 0.349742323 -12.5931654 
23.7787666 -0.262967944 -24.4149761 
-12.0581579 0.204806536 5.98499727 
12.4982014 -0.43576026 -3.96938324 
-7.82003546 -0.429771662 -13.9464817 
-24.1721973 -0.0580347069 -12.4795179 
1.28462815 -0.542745829 8.04065228 
4.38331079 -0.0336883329 6.90704012 
13.5712748 -0.292297214 -19.1365185 
-7.61849451 -0.299890459 18.1497917 
9.97664833 -0.164902896 -5.71721315 
-1.1481359 -0.0433803126 9.75571632 
-14.8142729 -0.39712286 -12.8884497 
-21.638113 0.506075501 -17.2782574 
-15.5209332 0.232446983 11.3863087 
4.733778 0.135609329 13.4299574 
-4.64719772 0.194285303 -10.6483088 
17.7961979 0.10963957 4.9038291 
6.05430031 0.444258541 13.0728445 
23.9544487 -0.0867736265 -21.8922749 
-15.9884453 -0.00117315724 -7.85290909 
11.997879 -0.0484237522 -14.4324236 
16.2913799 -0.366895556 -13.004837 
-18.1798935 -0.249975562 12.8319368 
-19.4251804 -0.347725511 16.5639572 
21.6950455 -0.237143055 8.79528427 
11.3551178 0.162415609 4.88763189 
2.23161387 0.182429627 11.5105286 
-11.376832 0.128494784 -7.49505472 
14.9693089 -0.218413576 15.6862316 
24.3259869 0.192307293 -6.99239826 
-12.0390196 0.0826579854 2.63416886 
21.2157593 0.354018241 -7.83339787 
-8.31831074 -0.0858651549 -11.5224161 
-3.49055743 -0.242478907 4.24272585 
20.6700478 0.489183098 -13.1576738 
12.3999376 0.196026936 7.55001163 
19.3745594 -0.244214267 5.97093201 
-8.74046326 -0.245775387 -9.02157974 
20.4888535 -0.183655486 2.90772295 
-7.35679054 0.169527277 -17.7145424 
20.8458328 -0.467101961 -23.0917053 
23.030447 0.230903789 15.5323648 
18.6507587 0.124774575 -3.72032237 
-3.10633254 -0.251161069 2.99171567 
-21.9418697 0.354397207 -3.0551126 
0.765565753 0.0124684293 -3.75916004 
-19.0963135 -0.0223641451 9.9270401 
-8.34987736 -0.0862266421 -11.3670378 
19.5483398 0.101072676 16.9886322 
-2.4297955 0.0302298591 13.7989073 
-7.72742462 -0.204064623 5.13626385 
21.1574097 -0.13372615 -0.550909042 
4.57596445 0.0676337183 -3.3421433 
-0.635043204 0.378045112 -11.2574348 
-7.11547756 -0.550051391 11.0225143 
-12.5388689 0.195562139 3.904917 
-15.1731195 -0.127299592 2.25272942 
-21.7505932 -0.178631455 12.9870844 
23.0432034 0.239105374 16.84128 
3.53634238 -0.274089903 0.428215802 
6.88926315 0.334465265 -6.5121398 
-16.6074715 0.348406464 7.55785275 
-1.44539189 -0.0840506628 9.97690678 
19.9068127 0.474897027 15.3850346 
18.2620335 0.0782068968 3.11887932 
-5.28291321 -0.176995188 3.30974507 
16.0954533 0.105590835 -8.73084545 
4.9103322 0.164107874 11.3957176 
24.5465183 -0.0669297501 -11.2119961 
-1.45978677 -0.170783997 8.49495316 
-23.3188229 -0.0245455243 19.089941 
-12.2459793 0.365716845 -7.15260744 
-24.4514942 -0.174334064 17.0038395 
-1.41386724 -0.165113226 8.67660618 
-11.5160351 0.124221444 10.9514771 
-0.697100103 0.0919601843 -8.38503647 
-8.2471571 0.0685575679 19.1962929 
-9.53698254 0.0221065134 -6.59729052 
22.0277786 0.417916775 14.6321983 
6.47317457 0.384557575 -5.60116053 
-13.5642643 0.0332410298 -4.99254179 
-12.7893076 -0.363223225 -11.8163252 
-10.152317 -0.281818867 -9.69000816 
-17.8167706 -0.229159012 -13.3913698 
24.123333 -0.049979344 -9.82552147 
13.7303476 -0.177358627 -3.94450521 
-4.09466362 -0.372360587 14.8465233 
-6.97197199 0.0311252419 -10.5078583 
-14.1821575 0.00710567366 4.50157928 
4.3808527 -0.0725223795 -1.34764457 
17.4073238 -0.287308514 -19.7464333 
6.16494894 0.26718083 -12.4651737 
3.36211658 -0.285559714 7.81880808 
-2.45551205 -0.0769309625 8.37014484 
4.34096193 0.126335382 9.98703003 
-4.48469305 0.545754731 -13.6700335 
-3.72004128 -0.168074504 12.9560862 
-24.5447922 -0.264673442 10.8329687 
5.34809971 0.360425025 -11.4819431 
24.1189232 -0.645502567 6.43841171 
-22.0788956 0.235644758 -14.5231695 
-9.44998932 -0.254180968 -4.47741222 
13.4551563 0.127680376 -17.3399029 
12.0456247 -0.215681374 -2.09299302 
-23.3088894 -0.0961934403 -6.8389535 
11.2175589 -0.0658175498 -0.662314475 
-11.2999153 0.151097089 -4.94698381 
7.82642412 -0.00345630548 -16.5819702 
-7.08481026 -0.430136263 -8.06935215 
13.2329874 0.150453851 -17.9433212 
24.4817677 0.342980236 -15.8450975 
3.06935215 -0.170328736 -22.2250309 
-23.0649757 -0.307331145 9.63560486 
-0.835606575 0.240571767 -17.5145645 
-23.100132 -0.111185752 5.93393183 
-20.7344437 -0.115583047 -7.29508209 
-10.9164562 0.140012294 6.14272261 
-17.8955975 -0.15890488 12.9654818 
-6.99013948 -0.214125991 3.02166533 
-4.7388134 -0.311948061 12.2835541 
19.4705486 0.453276962 -12.0407305 
-1.72698033 -0.0908620581 -7.41550779 
-17.5778847 0.472028852 -0.412951231 
10.5245447 -0.634258032 -7.17720652 
7.2559185 0.121575132 -12.7905617 
3.96765852 -0.192274109 -0.0736000463 
-9.90412331 0.115055613 -5.37808609 
-8.59391403 -0.382670671 -4.85474539 
5.31876802 0.34713456 -3.64129663 
0.994496346 0.086175926 -15.5530138 
14.500123 -0.457646787 -9.40486526 
3.48896289 -0.389196396 6.54633904 
1.0503974 -0.0258280449 -0.524150014 
-2.9818337 -0.3518233 -2.8307755 
-20.3423729 0.0563170649 10.2855835 
-7.32736778 -0.433232635 -6.34909964 
-8.63295746 -0.364475012 2.02922106 
0.904178917 0.335083157 -13.1081667 
-1.82128596 -0.238982379 5.45934248 
-13.7724514 -0.217053533 -9.58868217 
-9.3074379 -0.381117046 12.3556881 
14.1691332 -0.501586258 -6.28350258 
12.3022232 -0.414938778 -3.98494744 
18.630228 0.0936651677 4.54120541 
-4.45229149 -0.322352439 -4.28003216 
-17.9069901 -0.402240217 -11.274538 
23.5841217 -0.0667901486 -2.73938584 
9.0769453 0.24127838 -0.71183455 
-6.24461365 -0.540451765 -2.79402351 
20.1772823 -0.139304906 3.09847069 
17.2615128 -0.0412950888 6.16323137 
-19.683979 -0.0994603336 19.0016594 
5.25175285 0.294001341 -5.34811163 
-7.2642355 -0.237910643 21.3038673 
-7.88026714 -0.224672183 16.5571117 
-20.6839619 -0.010126682 20.5274487 
7.62598515 0.336607426 -2.91349244 
15.0896873 0.38264063 3.20196247 
-19.267643 0.0934584066 9.21460629 
7.77722263 0.187625021 -5.5141139 
0.437926233 0.137078494 -9.36071968 
-16.9245243 0.404335827 6.11553669 
10.3139458 0.0192522779 24.82761 
3.25313234 0.0952552035 11.0060205 
-0.183168918 -0.200848535 9.97517776 
4.33061028 0.362803847 -11.1543703 
15.195858 -0.350686491 -14.9718895 
2.76270366 -0.299378037 4.30316114 
11.0759821 0.0349307731 3.854146 
-20.8060284 -0.00612277724 9.34819603 
3.54609227 0.207820803 13.7244577 
15.2541771 -0.0636709332 -0.741521597 
-13.2410984 0.0434212014 -7.67129564 
-18.4387302 0.00345386495 -5.45338106 
-2.80164433 -0.189475417 -6.26997471 
6.45529413 0.206712112 -4.53249598 
-14.2909584 -0.414046675 -12.6780787 
-9.56137943 -0.397382408 -12.3545237 
-3.40010571 -0.360564023 -9.28495216 
-15.114892 -0.380072176 -13.6899633 
9.21565819 0.263842613 0.211339548 
-6.45710182 -0.360535383 12.2306585 
-7.8284359 -0.133636057 -8.80025673 
19.681551 0.253637999 -14.8239155 
20.6535091 0.639448583 -12.0686922 
2.60951304 -0.208064243 -16.4440365 
20.7797756 0.348169327 -13.7869511 
0.032159254 -0.0924470425 -3.61475897 
-1.67818034 -0.0779515803 -22.5170784 
12.8727865 -0.307862699 11.3204918 
-1.49551666 -0.0798651353 10.120368 
-0.0658152401 -0.165779144 18.0547752 
14.5671549 -0.327614903 -10.0518608 
-0.606376708 -0.040053539 3.02854419 
-0.333705842 -0.28672877 -5.59187603 
-22.6079102 -0.106021471 -11.3301287 
-16.5693092 0.25015825 -4.61602974 
8.99745941 0.11619053 24.5048637 
-19.0503521 0.774209201 -1.9437325 
-3.98351049 -0.275470316 -4.95462132 
19.2045574 0.601691246 13.9221792 
9.48761368 -0.163296774 -5.28037786 
-10.451479 -0.0461883172 -7.04606009 
-11.5026627 -0.0433609337 -22.9755344 
16.2012329 0.0339555666 -0.647326827 
-19.1492367 -0.275345087 -9.41315174 
20.2774162 0.452952415 13.5468912 
9.74820042 0.0968970433 -0.845587671 
-8.23855591 -0.379802555 4.00374365 
15.9795542 -0.112865098 -10.9253683 
0.779907227 -0.0476152971 -3.18404508 
13.4210749 -0.339990616 -11.8844948 
16.4135456 0.198758408 -8.26102829 
23.5958099 -0.539505661 8.34598255 
0.863405466 -0.00661880895 -4.30694723 
-13.2782745 0.123663805 -6.00300455 
9.64134121 -0.17976971 -5.78788233 
-23.7057972 0.12138404 -6.29434872 
12.6573648 -0.388302147 -5.76152229 
11.3713446 -0.0551958419 18.3527737 
11.1046095 -0.0340619385 1.73973751 
-16.8866558 -0.217258558 -10.7685299 
-21.2650585 -0.00843005069 3.63454652 
15.4887934 -0.202584758 -10.2637682 
16.9002228 0.193435401 -9.90021133 
-6.02364397 -0.330039442 10.3353767 
-16.8361645 -0.152139857 -10.0511284 
10.6453581 -0.642954171 -7.05189753 
-3.64176702 -0.383040428 -4.08379316 
19.9365082 0.318915755 -9.06626797 
-21.7283859 0.162579373 23.882843 
17.8945084 0.384815007 -8.25199413 
-19.1453571 0.272622436 5.90411329 
-10.6870165 -0.0785939544 1.79826379 
-2.71678162 -0.278191835 -5.84458399 
-8.33191204 -0.320934594 -7.57949829 
-3.87186503 -0.347925514 -5.60039663 
-0.536599576 -0.118985504 9.65434837 
-23.9756317 0.00267452979 0.168936312 
3.70418191 0.355649859 -10.4913692 
24.9613438 0.0572298169 19.4850044 
-0.798599303 -0.15201889 -7.43061495 
-14.5657034 0.216644689 12.5877743 
20.3401909 -0.538903892 -22.8253765 
-8.78361511 -0.277251065 3.50455523 
-15.9172382 0.343549967 -2.89626503 
-13.3617535 0.103169233 -6.21919966 
7.84989071 0.236243114 -6.74302483 
2.14555788 -0.0348739699 -23.8984756 
-14.6979542 -0.226750433 -10.022975 
-13.2342777 -0.632517397 -18.875782 
7.08986855 0.206851766 -9.24812794 
-6.39017296 0.00971421041 -10.3962526 
-4.40687513 0.0241594128 10.4066772 
-19.8102245 0.201271117 24.7965622 
1.91983712 0.0994777903 -8.04682541 
-19.4455147 -0.115632266 19.4804249 
2.48272467 -0.360695451 7.84770203 
7.83817816 0.186461926 -6.29935312 
-12.9157639 0.0111316182 -9.77441502 
-11.2735853 0.137509003 11.1549816 
13.2886333 -0.613018572 -9.62600994 
-0.394551188 -0.0550179295 1.493994 
18.6619778 -0.204185233 7.6717124 
-1.31625009 -0.0176301692 13.5919695 
8.84008312 0.372198939 11.3433113 
6.72754478 0.44623059 17.0906887 
-2.33539295 -0.304302514 6.68351698 
5.81573582 0.452669352 -11.0990524 
-14.6293402 0.108631074 -7.47901392 
15.5890026 0.0794752464 18.4178162 
-7.44245768 -0.146647051 4.5971818 
-1.7056669 -0.225126639 -4.78775501 
2.96601868 0.141922235 -24.6396332 
14.4764595 -0.519001782 -22.6266499 
9.56924534 -0.476905465 -9.52512264 
7.56599188 0.228623852 -11.9187889 
-9.31668854 -0.370647252 6.68234491 
-0.0327085033 -0.0162937231 -8.29129124 
9.65324402 0.0563064404 3.11100602 
-17.0513153 0.356692135 -4.412467 
16.8700199 -0.0744859576 6.54053068 
17.1462612 0.419843286 -8.47077465 
8.50781536 0.0539144538 -16.029604 
-11.305213 0.335771173 4.09558535 
-5.3688755 -0.383230835 -6.36833668 
19.0356636 0.24113512 -9.61533546 
-6.19689417 -0.372716099 -7.57211685 
-8.02131176 -0.070763886 18.8098183 
20.6918049 0.0568428971 11.341651 
-23.1131611 0.0904569626 0.709771276 
3.89366484 0.0598077066 9.43839645 
-0.868203878 0.331813693 -10.5705585 
-4.25778627 0.0466572866 6.08789349 
-18.0828209 0.27532506 9.56989765 
-10.8900232 0.229191333 -5.11636353 
13.9647675 -0.110360719 -15.3924284 
-20.1596127 -0.337940842 16.4221687 
13.1082859 0.159672901 1.16271293 
3.88282895 0.382717699 -9.70626354 
0.964471936 -0.00543694384 -3.43967414 
14.9371233 -0.236618817 13.0374193 
3.26664734 0.309511155 -8.90904808 
-24.6758785 0.0856175721 -3.45159864 
1.81978416 -0.470804542 8.87600613 
-6.77230263 -0.164089322 3.92258477 
-22.807457 -0.121358469 19.6494007 
-5.56099367 0.561485171 -16.5453644 
14.7940502 -0.0926091075 -3.18319654 
-10.6526432 0.0126237925 -6.97249508 
23.6363678 0.39177838 -11.3435822 
12.6419773 -0.0943342894 16.7243042 
-15.7662992 0.413247794 13.6030369 
13.7062531 0.603049219 4.30365276 
-10.4102125 -0.244925544 -0.856464624 
-9.29035854 -0.0816569254 -7.20658588 
8.43280315 0.135491312 -4.33552742 
-0.190944687 -0.192603201 -4.45810366 
-13.8970318 -0.251098692 0.485496193 
16.0080223 0.258400887 3.76597738 
24.5137043 -0.102205105 18.2011738 
8.48085403 -0.0166197661 -5.14601707 
-7.48325491 -0.550397038 12.5446253 
-20.2155991 -0.0278840438 -10.0548077 
5.9554143 0.0798176304 -18.8251534 
20.9708958 0.0250794273 10.1705875 
-8.03508568 -0.0961909443 18.1780701 
17.4613037 0.342236608 -10.0550594 
-24.664526 -0.272156298 2.81248975 
6.4470458 0.320627153 -6.44308901 
-8.7852335 -0.336873889 11.7152901 
22.753046 0.26132521 -5.9656496 
23.1655827 0.371434152 -13.4288683 
13.1747398 -0.0500806421 16.0552788 
-20.0039902 -0.134440497 -12.9334993 
-10.1615047 -0.0797368065 10.2637224 
7.86427736 0.249371335 -11.7630177 
-4.27690744 -0.228005603 4.47989082 
-21.0030365 -0.0101823052 -7.69463205 
2.46652198 0.142322287 -10.6120129 
-12.2320604 -0.247828782 -10.9345398 
-3.78711367 -0.422602057 -7.74928188 
-23.9413567 0.130590409 -6.44569302 
21.7087688 0.00201450312 -17.477951 
-21.4977741 0.135916904 1.85214305 
21.4673653 -0.290330321 -19.9030457 
-9.34641361 -0.0653149486 -6.86740875 
13.9648333 -0.268382281 -13.1061859 
19.6218853 0.361737281 -12.9416981 
-5.85103941 -0.0460537672 6.63170815 
-18.2039795 0.429737359 6.17261839 
12.2794294 -0.703851223 -8.27919388 
5.47189188 -0.226060763 -16.6198959 
2.68012023 0.163779318 -10.8286724 
18.5178356 -0.301720113 18.253376 
20.1992512 0.227605909 12.0197659 
-13.5770712 -0.695094168 -14.7980824 
-0.676156759 -0.37763834 -5.91112661 
-14.6203604 -0.244633004 2.40276766 
1.63950086 -0.221698686 -18.8182373 
-2.34414053 -0.136594966 7.67860508 
12.4523544 -0.125800148 15.9296875 
-14.3586836 0.335430831 16.183445 
-16.2098236 0.104373202 14.8632994 
1.13492393 0.238631263 -12.8946257 
14.1470127 -0.00527145015 16.593811 
1.06924057 -0.117649734 2.47432184 
-13.2968636 0.110779099 10.5263491 
15.420639 -0.436530441 -12.6553125 
-5.62073755 0.129009858 -9.85660648 
3.35013723 -0.2462852 3.11483479 
-23.6996555 -0.166120932 8.55208588 
-1.82104957 -0.0944700614 3.02071476 
13.1590099 -0.32601282 -4.94865751 
14.0230083 -0.250434399 -17.5181923 
7.23134756 0.319634855 -0.893307447 
18.7087898 0.00508969324 -1.6022588 
24.2957115 -0.00119221455 -0.430527449 
-18.7209682 0.189795628 -21.2098217 
20.3014812 -0.314370066 -21.2043381 
-20.3342743 -0.0478080809 -13.6795139 
8.44440937 -0.00347072026 -4.99174309 
-12.7979183 -0.348141938 -20.7022305 
13.070466 -0.308184564 -3.27213097 
3.83911037 -0.303638488 5.42913294 
19.306263 0.389597058 -13.1310072 
18.5318241 0.325495094 -11.6668358 
-21.0148602 0.0244596973 -4.56541157 
5.61224222 0.161151126 -2.44191408 
13.4178171 0.399519533 5.18408346 
7.51340437 0.240356207 12.1498318 
11.9199028 -0.350613952 -5.36280251 
10.42346 -0.793676853 -10.5489006 
-12.995286 0.155400142 5.24886179 
-7.42837524 -0.597843707 12.1707439 
18.2739201 0.334419936 -10.2062597 
-15.2491751 0.193096057 -3.36479664 
8.36408424 0.342910349 -0.299230367 
17.8338127 -0.215567306 -20.9224663 
5.16763306 0.20232816 -12.6401701 
25.0698738 -0.0523712486 -0.359699786 
-24.7302818 -0.37947908 15.2980862 
-20.6265965 0.213276818 23.5167866 
1.86599684 -0.407282859 7.16808748 
12.4277868 -0.686674058 -8.18139172 
-3.22292328 -0.0176829565 -10.9738789 
-9.59018612 -0.219648719 -9.17751026 
-13.2033386 -0.189246044 -0.289463937 
-11.4055233 -0.10535422 -2.26233912 
-16.2938347 0.389858633 -1.5653137 
14.3704796 -0.136606127 -2.91156387 
-12.9674397 0.036485061 22.996212 
8.46738911 0.500728965 7.95963335 
16.8897972 0.13783659 -7.33088589 
-11.0601931 -0.463954985 -12.0724335 
-12.1920023 -0.508238494 -12.4602127 
-17.4330883 0.629252613 1.59517574 
-18.7002792 0.251246601 5.21041346 
23.8969898 0.0183524154 14.672966 
-24.9079876 -0.0943601131 -10.83603 
-23.4934082 0.0732298419 -1.2987932 
-16.6083241 -0.25052318 -12.5717106 
-6.42445803 -0.689053476 13.4497938 
-18.5129929 -0.249779552 -7.92719126 
13.899087 -0.319218546 12.7051048 
-11.0623922 0.079252094 -2.97881532 
5.1344347 0.501173317 -10.2488966 
-5.88857412 -0.23078081 7.53262806 
-19.4463043 0.125209302 21.4055824 
0.676362336 0.333357513 -13.1664562 
-20.1171322 0.0142485602 10.4864626 
15.7013884 -0.0648081228 -3.18399954 
17.7778225 -0.48096925 -24.4747124 
-7.63213062 -0.305929005 18.3364811 
-17.5038204 0.286940396 9.1133585 
-2.79949474 0.0244122781 -11.2136412 
9.41769123 -0.236242458 -6.52054405 
-5.21060562 0.287048072 -13.35956 
23.6094933 0.0721283257 -3.84698582 
-22.452692 0.230065435 -14.2981157 
-6.81972647 -0.462894231 -7.73241234 
-1.43499851 -0.0682695433 2.51920652 
-0.699221313 0.114031971 -1.66047323 
-6.51910686 -0.539869845 -5.19611692 
-23.4807091 0.264311045 21.195507 
-13.2928534 -0.289590418 -1.82371604 
2.48077941 0.0530220754 13.8487053 
8.83007908 0.511244416 6.6422658 
7.79904699 0.0573912449 -8.98886395 
-8.01155472 -0.473207206 -3.21011496 
21.9895287 0.495308429 -10.9100676 
19.8892326 0.148452386 0.496516615 
11.3507528 0.160120234 8.22583866 
-12.9147558 0.188782454 10.4669275 
-17.1429367 0.301825494 -4.98900795 
22.1977158 -0.360867739 8.31571388 
14.7227373 -0.264040202 -13.9062109 
24.5202999 0.0602981262 19.5289402 
12.9311504 -0.369388044 -4.42341185 
-8.11168957 -0.464390635 -1.36455321 
-3.81018019 -0.39453733 -6.09290123 
2.46369934 0.0949540585 -6.24788761 
1.89363146 -0.449263245 5.97697735 
-19.6823139 -0.129133344 -8.35794353 
16.3159294 0.128456831 4.7519331 
-2.28081703 -0.203557774 -6.29925871 
8.89804459 0.262116343 2.43308282 
2.80114436 0.149216756 -12.4502478 
11.3233604 -0.279671311 -4.73974037 
18.5571804 0.353549659 -8.82725716 
2.11609578 -0.207841948 1.67344832 
-5.66667938 -0.167508379 -7.95843267 
18.7971764 0.263308764 -9.23267937 
1.00575435 -0.109562673 -3.00624108 
0.825594544 -0.318192571 4.69702482 
-7.92015266 -0.0578377731 -11.9084291 
7.28118658 0.216541931 -3.2947557 
-7.02285147 -0.395770401 -6.5921526 
-11.16992 0.164378777 -6.18983603 
12.7415714 0.106782347 -18.1467628 
-12.1924458 0.260435551 -6.17762375 
15.925149 -0.322371572 -22.265543 
-7.57157135 -0.279006064 3.5904417 
18.8268528 0.101544194 3.34513044 
-11.2546854 -0.10325215 -2.24119759 
-21.5669689 0.0730445981 -12.9102345 
17.7357998 -0.0919646174 -0.281892955 
-11.2081814 0.0922695026 13.9608307 
-1.58899701 -0.310358882 -6.19089317 
0.473104298 0.0368694998 -3.21216559 
1.55458403 -0.266151845 4.18948603 
1.62579012 0.112615466 -13.6167488 
-4.0674963 -0.0283154063 5.78138304 
-2.80557823 -0.416645437 -3.83819509 
24.2254467 -0.53951478 5.87017202 
-17.9583359 0.554871321 1.35281694 
14.8251753 -0.0109834336 -1.75692701 
-1.42711258 0.196533859 -19.7888966 
18.7215309 -0.298818022 -18.3079891 
5.81054544 0.352734804 -4.45286655 
12.9041119 -0.283688337 11.5820408 
1.85075593 0.113656074 -10.9271641 
19.2896595 -0.377304524 -18.6102543 
-12.9207983 -0.638033152 -14.4705477 
-2.18015838 -0.0984192416 2.92828679 
5.47316265 0.295615256 8.04256439 
2.66864061 0.129580572 -6.43302822 
-13.2517004 0.183387309 5.50405884 
23.775198 -0.49637115 9.1075964 
-6.04188013 0.124535471 -13.2738018 
4.25177288 -0.179215789 4.50550556 
12.8783426 -0.608527064 -9.93684101 
2.27963424 0.153623253 -9.09560013 
5.17841911 -0.213770628 3.47848225 
11.3818817 -0.055263076 -15.5119743 
8.50445557 0.411243469 1.46802378 
-20.6585846 0.0209663976 9.35590744 
8.09918594 0.275223166 0.634306431 
-0.48037523 0.266260535 -17.2026997 
16.8668003 -0.320911199 -21.2276459 
-23.2757015 -0.478755206 12.1888094 
0.711485803 -0.309710652 10.2688665 
-16.3780632 -0.236167476 -12.094059 
4.43918371 0.192517549 -11.6268377 
-6.8618784 -0.380033582 11.7665339 
12.2325535 0.0716055185 5.02972984 
13.0373344 0.0499157682 -14.5273476 
10.9174433 -0.200257987 -3.1219449 
12.2721596 -0.198249072 14.9099541 
5.20432949 0.295467019 -4.15679216 
1.56197906 0.0794390291 13.3591022 
23.9539242 -0.263406783 10.7855272 
-7.69263029 -0.498864114 -0.533333659 
-2.19224191 -0.0725695193 11.9811068 
-4.24323606 -0.0787260458 5.59625769 
14.4456882 -0.387728631 -9.7709341 
14.5149822 0.154759243 7.23341417 
-22.5200195 -0.494085163 16.7718487 
-2.04211521 -0.205347866 4.20277357 
-12.7279129 0.270887911 -7.23493147 
-0.952529073 0.363082439 -10.9991074 
20.4955559 0.51882714 -10.0582113 
-19.6211815 -0.0533378087 -13.5697222 
-16.2815819 0.0586623587 -7.02212477 
21.4385185 -0.340975881 7.14611959 
16.7660427 0.00917449966 -1.25569773 
13.2145958 0.00348821655 8.23014832 
21.2220116 0.146130979 13.0246391 
23.0880661 0.30925566 -11.1629801 
-3.76665401 0.072228387 7.82366371 
2.52974987 0.0186095629 14.3612518 
0.0372699797 0.226887912 -16.2198925 
-12.660162 0.0822618976 -4.52803946 
16.8054657 0.0624915138 -0.631568491 
19.6496944 -0.364434779 -19.2412014 
-23.4692554 0.152549073 19.6622066 
-23.8801765 -0.172703966 -7.80306911 
-4.61877441 0.106167756 -9.64561081 
-9.8945694 -0.179654062 2.83267164 
19.8901749 -0.33017531 -18.3914719 
-13.5779352 -0.068921037 -4.7120266 
9.72432899 0.28866452 9.97786617 
-18.6938286 -0.219475061 -14.7802572 
-20.3266869 -0.18487598 -7.19343328 
1.63350987 -0.148626387 3.57276058 
10.7637177 -0.426748484 -13.6514797 
-16.7844601 -0.413351238 -17.3205166 
0.159483239 -0.0875483304 -5.36502695 
-3.85540032 -0.329486966 -7.19335175 
13.4468174 0.0336787701 -13.778512 
14.0553417 0.0139589123 -0.484670043 
5.45216894 0.264549047 7.74055243 
-5.07011938 0.593471169 -18.0369205 
18.2351322 -0.0419371948 10.9584389 
-24.5933399 -0.0387814268 -12.0192719 
10.3699179 0.0272825491 3.74105072 
-4.78183317 -0.294679344 4.34180593 
13.6603947 -0.300743878 10.5381126 
-9.84762192 -0.23703666 12.6652975 
-7.81024694 -0.237082556 7.80770254 
-0.563751221 0.106649563 -1.09949207 
-18.8525066 0.360957772 -4.0530901 
23.1004601 -0.230604753 -21.9504833 
-8.16108513 -0.442381889 -5.85347319 
-12.8326445 -0.11072392 -0.594096422 
10.6631937 -0.378346115 -13.9363356 
-22.8746586 0.288297087 -3.29218292 
-0.0297640711 0.242447406 -16.9248161 
3.01148367 0.262556911 -11.1064043 
-5.71381712 -0.62461704 15.332963 
8.3845396 -0.169028357 -9.68337536 
2.9359107 0.271109492 23.9439564 
-2.5095315 -0.312570304 5.60167265 
-11.2607908 0.246251136 14.8704262 
-13.4005852 0.0995194763 21.634367 
-17.9021015 -0.296302766 -8.0309267 
16.6165218 -0.17821157 11.1284122 
12.0068216 0.0918489695 -17.0847816 
-18.6979618 0.806180835 -1.82756257 
4.65950918 0.091180183 7.24004221 
3.84575844 0.0670671389 10.6066341 
-13.3919268 0.131745845 -5.57938719 
-18.7682381 0.186074942 -4.54344797 
-13.9889603 -0.422290117 -23.2307491 
-21.4751511 0.10433621 -13.3882113 
13.6452808 -0.208210498 -2.54391742 
4.87324095 0.0916309878 6.91963768 
20.2897072 0.552026927 -12.2323866 
16.9469471 -0.102624215 7.95676565 
24.8734913 -0.00950506888 -1.72262371 
3.92385721 0.244413137 -6.95937347 
-8.94511509 -0.3469401 -12.119607 
19.5108814 0.0471928567 -0.274502367 
-8.71030998 -0.273582935 3.64385724 
22.4866219 -0.103876956 -3.66580439 
14.3513889 -0.524329364 -20.4106827 
-5.32137203 0.205154687 -13.2250595 
0.371358067 -0.0727813244 21.5494843 
-1.13573098 -0.456374019 18.3670063 
18.0262756 0.255112022 -11.0665274 
-22.5258656 -0.025509607 -6.04779005 
-23.3739128 0.0941404626 -12.7108479 
-24.1361732 -0.196891382 2.64868569 
8.6722517 -0.108266547 -8.0277195 
2.59717369 0.311470926 -7.49833965 
8.01406956 0.0938081369 -15.2851305 
19.6606617 0.476897538 -10.965642 
3.28721261 0.0467932746 -12.8093624 
7.10301971 0.517634392 21.512373 
19.5253181 -0.0250679925 3.48534536 
19.6162968 -0.0159200337 -15.5758171 
24.8928585 -0.354153007 5.90779495 
10.9222889 -0.671465516 -8.80984306 
-5.60667276 0.582354248 -16.7255669 
16.8513069 0.253490031 -9.55262566 
7.6877203 0.257868201 -7.94126463 
12.9768238 -0.654414058 -8.90448475 
17.2679844 0.499049127 -8.44851494 
23.5844574 -0.40788573 3.8606739 
22.3445435 0.387850881 -12.9411411 
11.0398664 -0.723200321 -7.83834219 
18.4614944 0.196844295 3.57209039 
17.058075 -0.034361016 -4.32324743 
-4.78582716 0.529787719 -18.6531944 
13.1031246 0.277473211 5.94526577 
-12.4865112 0.329291463 -7.52535439 
10.3040142 0.373709559 9.1361351 
19.6929779 0.0364621654 -0.870731115 
-24.4075966 0.344142407 -5.72586203 
6.82260752 -0.175323427 -24.8417034 
12.2721453 -0.591919541 -10.6079664 
21.6274204 0.57481128 -10.3052502 
-3.36216116 -0.0212491415 11.5551395 
-4.21144581 -0.369022965 20.4180737 
6.19022512 -0.100442357 3.51301932 
20.8839779 0.294960946 -7.81237078 
22.6795254 0.537756026 -8.50590324 
2.21802855 0.252369642 -8.38409042 
-1.35384774 -0.161725119 16.2393341 
8.65874672 0.219424903 -2.91137981 
9.04700184 0.0740096718 14.6554127 
-2.95681024 -0.0164207742 11.8382339 
6.26717043 0.146639884 -1.49920845 
7.32452726 0.0657291859 -13.4320049 
-15.0488052 0.0183800645 -5.1064682 
-11.2160835 0.324386239 15.9213562 
0.731992602 0.0258097686 -4.15347147 
8.23395252 0.117354728 -20.2948399 
-24.2451324 -0.281151682 16.5272865 
-16.1149769 -0.404477596 19.3133907 
-14.8808556 0.0739694461 -6.95126677 
12.289484 0.112042867 1.14943504 
20.7163582 -0.416716635 4.57483816 
4.23709726 -0.177715674 -14.4953213 
-13.1027794 0.153153732 -6.84343863 
8.86960316 0.597988844 8.18331623 
-0.982832134 -0.542895019 19.4801216 
-3.74129248 0.360081971 -16.9056473 
6.01362324 0.359669328 11.5024757 
-14.9566126 0.217708543 12.8135624 
-10.3162441 -0.0767744631 -6.95181036 
-4.56426144 -0.30120495 12.7062359 
20.5354595 -0.503457904 -22.8831081 
-19.3117256 -0.214700386 -8.98313618 
22.4568272 -0.0280670095 12.5392361 
-22.1808224 -0.214705527 6.10089016 
12.7586651 -0.0640937313 15.2434464 
19.111414 0.0963499546 2.91235828 
12.865016 -0.0594081841 -24.4153595 
7.95672321 0.559946954 8.12726879 
-6.74609852 -0.511325896 -2.7554369 
-4.11703157 -0.451774389 -6.61975193 
-4.63919067 0.0893379673 6.48541164 
3.30893397 -0.114729144 8.46144676 
9.05739021 -0.133720502 -5.1386795 
5.17080688 0.311151385 -3.72872519 
16.1033478 -0.122684062 16.6348248 
-20.2515202 0.098523885 9.27750397 
-22.2273273 -0.00660579419 -5.45898962 
25.1854687 -0.239202723 0.878134429 
1.9557277 -0.194484174 -20.5864506 
-11.2119732 0.11540056 10.6915379 
-1.68599069 -0.0587778278 14.8437252 
4.01111412 0.146568432 -3.62926626 
18.7373962 -0.0255407784 4.62531233 
9.95720196 -0.0897647813 -19.2243099 
0.418046445 -0.0212361477 -3.87714791 
16.6240597 0.131904647 5.34302187 
4.47696781 0.220575675 -4.65886927 
7.44869423 0.0596921369 -14.4413662 
14.3203821 0.457341462 1.9604131 
-0.0491544902 0.196674123 -13.6841612 
23.2893562 -0.0515497215 -18.9832058 
-2.26055336 0.114020161 -11.0933809 
-16.2746372 -0.420600206 24.8290691 
10.8815699 0.0541907102 3.63883471 
3.3055079 0.0862303674 16.8392887 
-21.2509365 -0.131692365 8.06834698 
-4.15829849 -0.37274605 20.0431519 
-23.0371056 -0.0657748058 -11.7143927 
10.8810406 -0.0833960027 -15.6212912 
17.5057659 -0.143400833 -2.22526097 
10.0186434 0.243957341 9.95959759 
-0.626896322 0.130490929 11.484251 
6.16184664 0.201633513 -13.4299126 
-1.74626768 -0.0815427378 -0.250177383 
21.6309319 0.506331742 -8.84848785 
6.01993942 -0.220996529 2.55073953 
-2.28994131 0.367221475 -16.0816116 
11.3257637 -0.653646827 -11.3225937 
8.41288757 0.277770311 -3.1731472 
-23.3284683 -0.326621443 11.4862576 
16.557663 -0.16026336 -11.3765116 
19.4867325 -0.224857196 7.18798208 
-13.3399734 0.400339663 16.9242306 
-9.93651867 -0.0974068046 7.30805731 
-10.7568588 -0.173017636 -1.41387594 
-20.2024193 -0.0554646403 -13.736084 
19.4018307 0.0777678117 -0.197635442 
-7.56357622 -0.394883871 8.59073448 
6.81485653 0.178524062 -4.19140148 
-14.6362247 -0.0362865068 -6.23860455 
-15.100666 0.172265738 -3.39878082 
-10.5265303 0.183224052 4.78604174 
-22.1222363 -0.203960076 -7.77181625 
-17.1380329 -0.305586934 19.7144222 
19.4932289 -0.252763391 5.72416162 
-3.37128448 -0.349452317 -4.76366186 
-5.76090622 -0.830226362 17.1812458 
15.1504316 -0.265929967 12.4403753 
21.0468712 -0.42511943 6.11432314 
-13.2265482 -0.308398038 -12.2614498 
-9.49835682 -0.113865949 -5.79301167 
-24.1858101 -0.217669204 1.68791807 
12.1077442 0.080496788 -18.896862 
14.2353382 -0.319804549 12.6725178 
5.61776114 0.308438033 10.8408537 
25.2086372 -0.284056157 3.45915389 
-16.591341 0.175647542 9.39599991 
-2.23782086 -0.0390263572 11.6940928 
-23.5123081 -0.522647321 12.4451046 
-22.8699741 0.35883975 -14.8794975 
12.6743345 0.281421632 6.41797924 
-15.2214289 0.0381994322 17.1805305 
-2.740695 0.0729469582 10.6022253 
18.7067604 -0.203399256 6.40034533 
-18.4021015 -0.215440869 -14.2953005 
5.06743145 -0.211082116 3.55682826 
3.24331188 0.275921017 13.1938906 
-4.58089447 -0.0613839813 5.94366407 
4.82973957 0.520676136 -8.71331501 
17.7653332 0.441399902 -8.6262722 
20.7261505 0.0503787175 10.3061333 
-23.9416523 -0.370552868 13.4740696 
-22.5730782 0.176206514 -4.52848148 
-8.23190689 -0.476178199 -4.14616871 
6.11956453 0.305408567 18.1734028 
-9.47631454 -0.238035485 -3.12530518 
-11.9308977 -0.214740276 0.941014051 
0.911387563 -0.0161137227 -7.83375978 
11.2057962 0.17499505 6.70123386 
14.5264235 0.112901822 7.58892584 
15.6209469 -0.0190748982 -1.75448382 
-1.86347771 -0.178644463 2.47290659 
-1.76366448 -0.298092961 17.7688828 
-19.8833866 0.033453621 -6.01130342 
-9.62933922 -0.104845196 -4.99337816 
16.8991318 -0.491286844 -16.7276287 
10.6108408 -0.196443915 -3.21562767 
-16.398138 -0.48339349 -16.7235584 
-7.08768082 -0.630576968 13.7865477 
-23.7780571 -0.21434693 -8.59693909 
-18.1304169 0.287543952 9.33383656 
5.93249416 -0.132891566 0.808174074 
-8.02303696 -0.481104404 10.6198235 
-10.4416008 0.391016155 -25.0997658 
-10.4015102 -0.0183405448 -3.5851388 
-5.41176176 -0.235498145 -7.47667027 
3.23343992 0.179732099 12.3357515 
-15.8993969 0.0810094252 -6.61478329 
9.06748104 -0.351621866 -10.1978321 
13.2374191 -0.276864231 -2.25446439 
-2.81980944 0.25874269 -20.3075943 
-20.7992439 -0.0481621101 -8.61613274 
-22.6174221 -0.174181297 2.70059443 
-17.628973 0.0465956666 -6.53668356 
23.8241615 0.311800748 -13.5037527 
13.6805134 -0.132696092 11.8726549 
10.9100685 -0.727336824 -7.70810223 
19.6403198 0.195512086 0.929014206 
8.72637272 0.0962191522 -20.4622746 
-4.88730907 -0.0797003135 9.51179695 
-6.75320911 -0.643804908 18.082922 
0.413841844 0.268985897 -14.6122675 
-5.88460207 0.392833173 -16.3436871 
13.7046671 -0.140511766 11.7465858 
23.8217983 0.105393685 -10.5824547 
7.5535531 0.32710731 17.0729637 
-21.5502548 0.000458400697 -8.04572201 
-3.42098832 0.13946259 10.2306023 
5.07710314 0.357496947 -6.40432262 
-14.1786633 -0.272562772 -9.91646099 
21.1487522 -0.142398939 -17.4240913 
14.0178928 0.495123923 3.49750829 
14.9906712 0.350715488 5.77212572 
8.29420567 0.0420483686 22.2934818 
6.3616972 0.523592293 13.326643 
-5.30578756 -0.167599156 9.0432663 
0.168018699 -0.605017781 6.5703845 
-6.53376341 0.337575197 24.1784496 
24.1754208 -0.461352706 8.78566456 
-11.9086227 -0.105739504 -3.28761744 
-9.6430254 -0.141741633 -7.56872082 
7.48362255 0.0829659104 -12.8009472 
14.4904823 -0.00735567184 8.48123932 
8.91300201 -0.196450487 -7.79368401 
14.6584949 -0.282618821 13.8389454 
4.01604414 0.217753753 -6.78843546 
-15.8369246 -0.0227524173 -9.66558552 
7.26436758 0.302208483 -2.70623279 
9.88471127 -0.301668942 -6.60180712 
13.6798725 -0.20409596 -12.5593653 
-12.0988569 0.138643935 9.51229286 
8.42169476 0.0062788818 -8.04344559 
-11.7544622 0.142823324 3.07283497 
13.5456991 -0.641295791 -6.12636614 
-12.1838846 0.0828593895 -8.56592369 
5.75792885 0.33480832 13.8197231 
11.1866674 -0.067016378 -0.810952067 
14.7746181 0.37072584 5.94488716 
