ply
format ascii 1.0
comment created by gply, a Houdini tool.
comment converted from .[b]geo
comment for more information about Houdini, try:
comment www.sidefx.com
element vertex 1267
property float x
property float y
property float z
element face 0
property list uchar int vertex_indices
end_header
-5.4582901 0.150135145 -2.25314498 
-12.3442469 -0.0942761824 -1.07428157 
-16.8040981 -0.151894867 -17.7274914 
14.9588442 -0.108516715 3.37909532 
-11.0305271 -0.111926183 1.20551276 
20.4223213 -0.605912447 15.8165836 
-16.2847538 -0.0118785705 -4.94338942 
19.4312134 -0.330334216 -6.54726601 
11.1834202 0.189498857 -10.7607889 
-14.6850119 0.465101212 -13.9918594 
3.33337045 0.125458404 9.94355679 
17.345871 0.209611177 -10.7504063 
-13.4112129 -0.310124099 0.427397311 
10.2459478 -0.0511269607 5.40833235 
-19.4642963 0.30439651 -6.77186775 
5.9917984 -0.0944980904 3.76471448 
11.7738962 0.238988504 -5.70619965 
-23.0190449 0.880525529 9.92747021 
-12.3858309 -0.686243176 5.50607777 
4.39523649 -0.07030949 -1.41207623 
15.236146 -0.331547201 11.2293205 
15.1878662 0.589694619 -5.65105009 
0.369027495 -0.133205503 4.25445461 
10.9442587 0.340332508 2.54237056 
2.08760571 0.020477986 -1.76718926 
16.9035034 -0.191082135 -15.0202608 
3.78692126 0.0982786715 10.4695816 
21.6205273 -0.109206721 -16.4601059 
-15.6730938 -0.089077659 -4.65478706 
6.68301535 0.128841519 13.6537743 
-21.9986382 0.519993126 3.01019263 
-21.2699585 0.680542886 7.93092918 
-10.8698816 -0.342372566 -7.1687727 
-14.2917948 -0.0870745257 9.72193527 
-17.74757 -0.41801092 -2.17222381 
-21.5014782 0.720743001 6.3016367 
5.79304886 -0.0124934819 0.500819564 
-18.7120876 0.215320587 -6.19150877 
13.3210049 0.544077277 -5.86996937 
-19.6697502 0.674212992 13.0309362 
7.41103554 -0.152092725 -2.05399466 
17.3847351 0.0252074115 -5.20637226 
-5.14893723 0.167606935 -2.29839802 
2.40343666 -0.0868901908 -4.1023984 
-11.7395048 -0.00114978105 -8.54020882 
9.23692799 -0.439942449 8.32778263 
21.1354256 -0.0348210074 0.505432963 
-6.00881386 0.117122188 -2.96928358 
24.4408607 0.0251428597 15.3893738 
-23.4518166 0.822314978 3.40011597 
-24.3828201 -0.389191151 -13.6286917 
-12.9067545 -0.462631255 6.97984886 
1.45564663 0.0863257945 11.3590336 
2.09991479 0.26388365 9.34822941 
12.3898335 0.0232938416 12.7522364 
25.0483284 -0.36427024 -9.27060795 
-10.8627319 0.361943126 -18.7738266 
10.7035789 0.0131434305 -3.24627638 
15.5659399 -0.101895608 10.4621115 
20.5109348 -0.58327812 8.09216309 
11.2831879 0.210392714 0.226973727 
15.005517 0.603574395 -5.44704819 
-6.35693216 0.0155882649 5.06401348 
-23.0276451 0.134099737 -4.48837471 
-5.64920712 -0.0109458063 3.9355824 
-16.7169342 -0.346169561 3.19785213 
9.38662338 -0.0914015695 -11.6139479 
-2.62610197 -0.139351726 7.05671358 
14.3495398 0.202895612 1.98702908 
-3.57483935 0.427110314 -2.264781 
-21.9186859 -0.0392014869 22.0005989 
-5.66854239 -0.398337394 -23.2324276 
2.38030887 -0.115987428 -5.47981977 
-7.29853821 0.0435782149 -14.6060247 
20.5569096 -0.58857429 -8.19729137 
1.99393559 0.465330303 6.37538004 
-20.61759 0.078074351 -4.02520657 
-1.14720941 -0.0488950796 1.48889589 
-6.00435066 -0.725956261 -19.2386169 
-13.8105431 -0.217714444 10.184701 
16.3955708 -0.200297877 -18.8475933 
-9.41334534 -0.253976405 -7.55302048 
2.36555552 0.340336174 5.67701864 
-12.5105286 -0.157232448 -7.63321829 
-7.89270496 -0.162279159 -3.17016912 
-7.81899595 0.0565482192 7.61273193 
-22.5226574 -0.110696398 -8.68622971 
12.7427883 -0.103920341 -15.1534424 
6.82832813 0.100918546 -15.4358864 
4.50126028 -0.0327251479 1.35694039 
16.1064396 0.456758708 -6.45210552 
18.1245728 -0.0997281447 -14.3350687 
14.5961666 0.190684304 -2.16262197 
6.34654522 -0.162260175 4.24605703 
-14.7209749 -0.508567572 -1.05736578 
-4.45038414 -0.10496667 2.47652864 
-20.6010036 0.223482907 17.6270657 
-11.7097025 0.41289869 -13.9541359 
-0.653541684 -0.0971592665 2.71882391 
21.1427612 -0.764027953 -8.13171673 
15.4374781 -0.18095386 10.1902361 
-6.85224199 -0.270788461 1.71620381 
5.85037231 -0.0928622857 -2.07844853 
15.8913498 0.234624326 -11.7028828 
2.29667711 0.0285295825 3.0249629 
-10.8659887 -0.12880519 1.03841293 
-17.2560406 -0.0442878269 -5.37682581 
12.2517815 -0.466071129 -24.6523075 
12.2067528 0.0839029104 9.9591732 
9.62256336 0.135836393 -16.8258934 
-20.4889107 -0.482837796 24.3153534 
-6.19695187 -0.104575664 -5.90929699 
-4.99780703 0.0697368607 -0.541289806 
-12.4575186 -0.242676452 1.28208423 
19.0979385 -0.305260897 -6.69892406 
6.68361521 -0.588448882 -7.66643143 
-21.1206169 0.0985039249 -3.195858 
-19.0782204 -0.122847319 3.43753815 
7.03441572 -0.166859463 -0.842213631 
-20.3827171 0.533404946 10.8331661 
23.5969524 0.0839938819 10.4056978 
-9.77282429 -0.291962713 -7.74046803 
21.29002 -0.166848928 -14.5662069 
-18.1554871 0.0814343095 -5.71778536 
10.6187439 0.143762201 -10.4444571 
9.1411705 0.271692127 -20.4833508 
-24.7006569 -0.340292364 -9.89375687 
-2.14154172 -0.00646158634 2.20569086 
10.9949331 0.417319924 1.64205754 
0.713776588 -0.0519636981 5.1987114 
18.0651703 -0.369802654 1.98830891 
4.89625645 0.108298659 7.32147598 
-16.2472115 0.23677139 -16.2696075 
2.86298728 -0.280266792 -12.9955378 
20.6384029 -0.348408848 6.83062983 
22.6370659 -0.285840601 18.8659134 
-17.6349926 -0.0905826688 -4.78947306 
-23.4513092 -0.190251276 -16.7384548 
-3.66052938 -0.0267732535 -7.35730219 
-8.49900532 -0.263483852 -21.2358627 
-8.12341595 0.135376304 -8.00307751 
-8.85510731 -0.378561765 -2.93665195 
10.4618788 0.258044213 3.30064893 
17.8346024 0.211819097 -2.40155625 
-4.00567818 -0.220751286 6.85359192 
-19.2704029 0.27275452 -11.14217 
24.0073357 0.0500158705 -3.81260824 
-7.19844007 0.227807194 -8.23925114 
17.1777897 0.180538014 -7.38480473 
-16.7369785 0.193154216 18.7763748 
1.65297318 0.00844045542 -3.21615744 
-5.24368668 -0.108188681 6.57301569 
-18.1002388 -0.295258582 -1.42446756 
-17.9310894 -0.170461684 7.59294939 
24.6962433 0.628615916 5.19440842 
-6.96269321 -0.313089252 24.3440323 
-2.43439293 0.266256839 20.8366814 
5.82749081 0.0684471652 1.35622168 
-13.4625502 0.191597849 21.7379456 
0.317386568 -0.115293264 2.58264852 
9.01396561 -0.00847255252 4.87628937 
-15.275094 -0.120487675 -4.76763105 
-15.1045809 0.308205724 -6.74788952 
-14.4679346 -0.395155668 5.12844038 
-13.0783672 -0.258431673 -0.749899447 
-9.11572838 -0.346361697 5.3213563 
-9.24989128 -0.275544465 0.307055831 
-20.1916904 0.63653779 12.3065901 
7.16777897 -0.148222446 -0.608090997 
-6.17540073 0.0950471833 7.39732504 
21.8528614 0.125808686 -0.825604558 
-12.0052671 -0.175434321 -1.03976524 
-17.3409004 0.0681543872 13.4578838 
-17.9180698 0.270474762 14.075016 
4.69672966 0.0466559492 3.93400621 
-4.28523779 0.0964649171 -10.0985718 
-8.61853123 -0.194897652 10.1663513 
-22.7554073 0.928594708 6.29140139 
-9.00241566 -0.412004292 6.44210148 
-9.35172272 0.230724573 -16.4020576 
-2.41561675 0.0889152139 -0.245824724 
14.7659855 0.0394354872 -15.8200035 
-22.5391884 0.779511273 10.0215826 
22.9915466 0.121311523 2.01617193 
-12.0689774 -0.532363772 8.95238972 
-19.3716717 -0.0462076813 0.944936872 
-12.0432024 -0.394581109 -2.53358507 
4.4559269 -0.364089996 -6.87877941 
15.0051079 0.137258172 -18.0354462 
-10.5584927 0.640496612 -15.103138 
-6.82636213 -0.41566512 -22.9878769 
-5.29762506 0.048264049 -3.81136346 
7.85150719 -0.141391233 11.4754381 
20.5883255 0.0651432425 -3.94203997 
-1.86851919 0.067419149 0.979721487 
-21.2855911 -0.314995736 -16.1869621 
8.80929565 -0.0653158724 5.2408638 
-10.4546652 0.53031224 -18.0214653 
-15.8724909 -0.562940598 1.18896449 
17.9586201 0.00131896744 -6.26603794 
-23.3405457 0.792064726 6.45989799 
12.0713463 0.252524614 -2.09234023 
24.2121296 -0.451759011 -14.7111588 
-18.0050182 -0.205898404 -2.76522732 
-5.11560774 0.093777068 19.057663 
9.64958 0.0858557299 -0.390293688 
-6.51242781 0.0949945599 -8.34390736 
7.40690041 -0.25581193 -12.9504662 
21.7880325 -0.639551282 14.6377144 
10.9731159 0.262410313 -13.120965 
3.60550785 0.425076216 7.92499113 
-11.8956079 0.0877539515 -10.5104523 
8.07557297 -0.0530730225 1.62053776 
9.40733337 -0.349609673 9.82274914 
17.2112484 -0.134677693 -12.7929735 
8.15642929 -0.381263137 8.18290901 
-19.834486 0.204703346 18.5437164 
9.93310928 0.102993295 -18.1751842 
-24.6241665 0.280276179 12.382041 
17.4703922 0.222566247 -8.94324207 
23.944479 -0.767968357 -10.3734789 
-21.5472279 0.728557348 7.72147465 
1.10396945 -0.0323969647 1.85400152 
1.10972643 -0.157752097 -8.40131664 
19.7973728 -0.387841731 -7.87082386 
-18.7060299 0.369792223 -7.7027359 
-5.514328 -0.0011663693 -4.97885704 
-7.75119734 0.0786483064 10.5956821 
2.20307994 0.0703010932 -18.2372799 
-5.50877714 0.0923027098 -3.21416855 
5.08601475 -0.119244896 13.5183344 
-19.7297306 -0.0126019605 0.860042214 
13.9931803 -0.506599844 22.0867729 
-10.3599186 0.42358616 -12.8728132 
16.185833 -0.247214437 -16.8108845 
14.9731112 0.510614574 -9.33986759 
-22.3045387 0.276059449 -1.52925622 
4.94587517 -0.515960574 -8.63646889 
15.5133276 0.508636475 -5.66763401 
18.4063416 -0.294692039 4.36491728 
-21.9724045 0.0991880596 19.8367119 
-19.2013588 -0.0417848341 -0.46435234 
-21.9930611 0.651183486 9.81107616 
10.3716965 0.0728085488 -0.38852039 
-23.1623287 0.890350878 7.4377799 
9.18164349 -0.121869549 15.7361135 
-9.96368313 -0.466768116 -6.09091234 
-5.16355658 -0.117107272 -13.1411076 
7.13020086 -0.189908057 -0.279280245 
-24.5191689 -0.0895570591 -6.62306738 
0.49823305 -0.143287227 2.59487581 
-6.66164732 0.380357206 8.69618416 
16.9122486 -0.28779304 4.50432062 
6.7646327 -0.0578432865 2.36382556 
-10.676815 -0.288853347 -7.45008373 
21.4658489 -0.615918517 -7.2222209 
-20.6660995 -0.108934887 -6.41510868 
-21.5066948 0.244313866 18.4745522 
7.65045691 -0.504813313 -10.4079065 
3.96758199 0.0124414191 0.842234194 
24.5704651 0.0364840738 16.021204 
3.13892817 0.221933797 5.31340551 
-14.7932215 -0.295162946 8.5148859 
-19.2610073 -0.218329549 -3.28952789 
-0.777195394 0.0788889229 -8.08144283 
-22.1313381 0.446783632 11.7298365 
19.0155621 -0.0655693188 -9.14504623 
12.2007313 0.00970789045 -14.9459991 
11.5480108 -0.0362641104 5.89992905 
-1.56647742 0.21441929 11.4891663 
4.99019432 0.292961001 -24.6971645 
-9.03495598 0.670395613 -12.7536535 
12.9866066 -0.191492885 -15.547246 
19.1961079 0.00221677357 -1.87983561 
18.6139984 -0.548400223 9.69359875 
12.792284 0.722962677 -6.4753232 
-17.3227406 0.0224634483 13.1364479 
-18.2409554 -0.324697673 2.60533404 
1.57312799 0.654076993 22.0353222 
22.2991943 0.0970581844 -3.67231226 
24.1967525 -0.789838374 -10.8859749 
8.18383121 -0.0117375068 2.66809082 
-12.4490967 -0.407178879 -5.61874056 
3.54474831 0.403319597 6.20928574 
7.5268116 -0.500545979 -10.5042496 
-23.3703613 0.856719494 9.60489368 
14.3859081 0.804016292 -9.89107895 
-0.455996245 0.245718986 13.1850777 
19.9581852 -0.412940681 16.5767517 
14.8110266 -0.23010689 -22.2557411 
22.7762985 -0.632828832 -7.06185484 
22.8977051 0.138883471 7.70474958 
20.90275 0.0183836985 -4.27190733 
-18.2394085 -0.145758107 6.84827423 
-0.633668482 0.299861938 15.8753462 
2.7427485 -0.285586268 -12.8324575 
11.8339911 -0.0220638737 8.84407616 
24.4227962 0.593590915 1.24950612 
-2.13830113 -0.219330043 7.46060562 
-12.6887197 0.199212953 -11.4003296 
-5.40730143 0.0151198031 9.74234009 
-14.1345253 -0.129769892 8.39481449 
16.7680435 0.00972232409 -12.6684694 
21.5712643 0.0293523893 -3.68785596 
-11.1449814 -0.450966328 -6.29213381 
-15.0461721 0.374453694 -14.4405594 
-18.961277 0.437473029 16.8158283 
-18.7808857 0.323116541 -6.64205074 
-13.3787184 -0.332070887 -0.165710732 
20.3680859 -0.0334357657 -19.4941959 
-18.5770168 0.293712407 -6.94775009 
-15.993474 -0.847960889 -1.79162514 
-20.4835663 0.0326034538 -4.07330179 
-15.2456179 0.463682175 -10.3662815 
-14.2122726 -0.24019897 17.3661461 
-2.03758836 -0.0294222571 4.13734102 
-11.2740784 -0.576981425 4.76003981 
22.4163074 -0.365057796 13.5845041 
1.76739323 0.251345217 16.0181503 
-23.3439598 0.744857311 11.349472 
-23.1844807 -0.199701235 -10.9192724 
15.5259638 0.0835961699 -14.2103806 
-9.645648 -0.546046197 13.6502743 
-6.6762414 0.0727123395 -7.33630466 
-1.61834037 0.250106305 -3.84282923 
-1.53510773 -0.355460882 -10.4101458 
-11.6871653 -0.542185426 -4.69309044 
-20.0414467 0.108627245 -5.06254435 
9.72883701 -0.116351806 -6.38100863 
8.53639793 -0.418063045 7.26628494 
15.5582294 -0.0419240594 -15.52812 
-3.93987656 -0.538518608 24.0269623 
-15.3657084 -0.373382211 4.44528675 
15.6974993 -0.437399328 18.3142319 
-15.0311556 0.382822812 -14.2017889 
-0.498074979 -0.40700379 -16.2883968 
1.85106826 -0.170230225 -6.18669701 
-23.8193512 0.573560178 11.493145 
-13.773633 -0.184266925 -2.78057051 
-18.6297855 0.34301278 -11.7822828 
-19.7999077 0.66872108 13.0796556 
1.48970342 -0.0260876156 -5.27806187 
-1.38069844 0.0689950585 6.16395378 
5.4399662 0.0648632869 4.45133352 
-8.39477348 0.61227411 -11.3562384 
-10.7983398 -0.325643629 -0.0170514081 
-20.8293819 0.391529083 3.28781176 
15.3669271 -0.312165171 7.38178825 
2.73965049 -0.410829455 -10.8539391 
-9.51581192 -0.192842737 1.98229027 
-1.10253417 0.148594469 23.6675777 
16.7350674 -0.390236646 5.9512701 
10.7019501 -0.0348473564 -17.3492317 
-21.99683 0.771938503 8.51228619 
-5.82247639 -0.0303598978 8.22065926 
-12.8121204 -0.396090209 8.26552105 
10.0303717 0.346317172 1.44429612 
-2.79874992 0.237924248 -1.8832221 
-23.3064308 0.222098157 16.1710567 
-22.7695522 0.718008459 10.346467 
-19.8602715 0.00172845577 1.88315797 
12.0133362 -0.0520164333 8.13443661 
-22.1591969 0.884899914 6.27892303 
23.6028023 -0.255887687 13.2306509 
-15.5246344 0.438446134 -17.5704308 
15.0990238 0.487977922 -8.50002098 
-21.3215466 0.847488761 5.63704109 
-8.31351185 0.624764442 -13.3863621 
-7.65311909 -0.067715019 -5.62285471 
19.679472 -0.0826345757 -5.14260626 
-23.6345024 0.904146492 8.07593918 
-4.71031666 -0.284066081 9.03956127 
0.547769964 -0.0889525041 -4.67724657 
0.856523871 0.100290567 13.7373857 
13.4724579 0.672057569 -6.6209693 
-3.34322095 -0.0891195312 -8.83111095 
-8.17272091 -0.0885153115 -4.22557831 
12.1485777 0.382411987 -8.43340492 
-0.575796306 -0.0822992697 -9.0424366 
23.5363903 -0.473491579 -8.0926981 
15.7016544 -0.279169977 6.53568554 
-16.1007557 -0.864048243 -0.200029671 
1.69252825 0.469997942 19.1001892 
-15.0377922 -0.417308927 2.83770728 
-15.3121719 -0.459477276 3.84339929 
4.4758358 0.0757313073 5.11352444 
18.4916019 0.0140268411 -11.008954 
19.9136467 -0.0020756647 -17.6817474 
24.8653011 -0.106994621 -4.85955238 
-20.3332176 -0.454870462 -16.6624794 
5.55048418 -0.098164916 13.1976166 
-6.6650424 0.374211729 -10.2980289 
17.993784 -0.620983958 12.1697435 
-2.91126561 -0.662681401 -17.4956226 
-4.03308058 0.0233123396 -7.29179716 
13.5518837 0.856990635 -9.21968746 
8.88966274 0.177647546 22.3272552 
11.2973194 0.155884847 -0.134526715 
23.2509861 0.343583286 6.91357088 
3.04614496 -0.093643032 11.4361477 
-2.55324435 0.145948246 11.7193975 
24.5671654 0.580704987 9.78526878 
23.5712719 -0.251066327 15.15662 
-1.83502018 0.290732354 14.0943289 
4.20757532 -0.322900832 -3.79725647 
-12.1229506 -0.627777517 6.15099764 
10.9595709 0.150070712 0.0832571685 
11.0430717 0.433462679 -11.9959707 
-16.903141 -0.332880139 3.69267583 
-11.1611347 -0.199737743 -7.48744583 
-23.4389553 0.906241238 7.84683037 
9.04328251 -0.177064076 5.98646832 
-10.9796057 0.0667942017 -8.78958607 
16.9001541 -0.410175025 18.269968 
-0.300330281 0.11834912 7.27808857 
11.9695606 0.402915955 -3.61834836 
-16.8929577 -0.810133338 0.790824652 
-17.9436245 -0.157019734 -4.00157833 
15.3333836 0.202508509 -13.47577 
9.25706005 -0.134140015 16.7700901 
17.8288097 -0.317435294 2.19221067 
4.92344761 0.346809834 -22.0160904 
4.40999746 0.0035158575 0.92509234 
20.4372597 -0.397135377 2.32474089 
20.8863831 -0.02206924 -4.96110916 
-6.42542362 0.00682141539 -1.16392469 
12.4299049 0.371080756 -1.59193957 
-3.9670279 -0.148353308 5.84418917 
-22.5431614 0.228053004 -3.0774684 
9.12030125 0.0357466266 12.7410631 
-12.3506336 0.692649424 -22.041151 
-9.48612309 -0.304072618 1.3041724 
-11.5002022 -0.862496734 10.3481188 
-0.117083669 0.251017183 8.09575081 
4.4198823 -0.141280442 -13.5503197 
-19.9332733 0.153720662 3.22878385 
4.97009325 -0.370086133 -11.2714558 
7.59879827 -0.49819079 -8.522892 
-11.5736456 -0.151460201 -7.79201221 
-16.5310307 0.015660543 -5.96794701 
-11.5323792 -0.443340272 3.50014567 
7.57734251 -0.508885205 -6.46385145 
8.13634682 -0.352448434 9.47202682 
19.6458988 -0.0990743488 -1.33271849 
2.50324821 0.177549854 -18.7843666 
-21.0392876 -0.216165423 -9.81521034 
10.0464039 0.163780615 4.37804222 
5.81951141 -0.121413946 7.00205421 
17.5301342 0.0485798568 -0.995894909 
16.8486977 0.341264725 -6.91825008 
-14.9507704 0.455329359 23.1897945 
2.63973379 -0.360378146 -8.65492535 
19.0503254 -0.287718982 5.53056479 
-14.9753819 0.00194015692 16.9632301 
13.8315029 0.379886091 -1.29911423 
15.7259445 -0.288206309 6.82799101 
-2.16834664 -0.354238123 -11.2791901 
-12.5693092 -0.307203263 -5.00369072 
-14.6757793 -0.483311445 -0.605564177 
19.4229202 -0.251778513 4.78330088 
21.3313274 -0.254761547 6.14780331 
-15.3188648 0.25869745 -15.3795357 
5.42421436 -0.084974505 6.39926672 
1.40387189 -0.409596533 -11.2318134 
13.7446156 0.65496558 -11.2005377 
15.6064615 0.38811025 -9.26741695 
16.0969353 0.188337982 -1.33343291 
-6.9216032 -0.571596265 -19.1140862 
20.2158775 -0.362284899 0.175283119 
-10.7412968 -0.170671135 -7.83916426 
-15.6351557 0.382693112 -12.9009647 
-21.2554493 0.394557834 15.8004513 
-0.899736822 0.0511366166 8.52938175 
-22.0302353 0.236573637 -2.97410536 
4.62706852 -0.0145659102 -0.848990321 
18.6641693 -0.0129692778 -8.51156425 
-23.3176479 0.536550701 2.53911591 
-16.5643349 0.043988239 11.85744 
-12.9290457 0.608802021 -16.624815 
-10.6376553 -0.0331317075 -8.4407959 
9.1290102 -0.0315439366 11.6120634 
-3.66232157 0.380374938 -2.0074966 
-12.7739792 -0.404642582 8.62248898 
21.4547062 0.0607408211 -0.704799891 
-20.3147182 -0.386381209 22.4332561 
7.54416466 -0.32882154 10.5546675 
-0.302217275 -0.0564964637 -3.21828318 
-11.3094854 0.264539808 -11.2829285 
18.414217 -0.414048314 14.9308968 
-13.0269232 -0.526318848 4.22898388 
11.7539959 0.327335745 -8.81669903 
5.69546986 -0.1062354 6.09156418 
-7.86109924 -0.222948834 -1.16468525 
17.6657505 -0.138855204 -24.3119812 
-1.68571842 0.210923046 13.0152798 
9.36443996 -0.125534907 -3.09303045 
-17.0835476 0.0526251756 13.5375681 
2.18388224 -0.32795608 -12.6071663 
19.2798691 -0.487978518 2.80155444 
-0.236649871 0.590883911 20.256052 
-14.7845306 0.352356404 -8.28394699 
-18.9060001 -0.117821075 -2.90296483 
-6.33718252 0.0433837771 5.3432827 
9.14248943 -0.00112421694 -13.0191708 
23.1033039 0.107450701 0.143392444 
-14.7277098 -0.311891854 6.86702013 
-0.0988974869 -0.155868873 -11.156805 
13.2185678 -0.132510379 7.23921919 
-20.0570602 0.548075259 6.19470024 
24.0792427 0.897901177 -22.0646973 
13.2561369 0.414112896 0.669698477 
-14.01684 -0.30530113 0.0736889318 
20.262949 -0.660593748 -9.95824718 
-15.4284515 0.262177557 19.2657814 
18.25914 -0.269265234 6.71827888 
3.45384216 -0.339694768 -9.21850395 
2.99945593 -0.0914882049 11.2832117 
-11.878231 -0.0304803997 -8.37243176 
23.9671288 -0.146962598 -5.09583426 
-20.450098 -0.416320533 -19.0854225 
-5.01251888 0.00203847047 0.591686487 
16.7145824 -0.224178985 8.58132458 
-4.63813877 0.392906249 13.0499983 
-12.8867035 -0.479885966 7.17148876 
21.4769516 -0.379091591 -6.55611658 
1.26875377 0.0886963084 -19.3186207 
19.8072186 -0.100264899 -1.54322839 
19.9298897 -0.516313314 1.35740459 
9.27721405 0.108097471 -17.3094368 
-22.3006477 0.561080039 1.86713696 
-12.4486742 -0.342457622 -5.10333204 
-21.6875668 0.314016402 -0.476335943 
1.55956602 -0.0243555326 -1.31552231 
19.5619621 -0.459803581 2.95836377 
19.1043434 -0.490728021 0.783554673 
-9.06762695 -0.330459446 -1.46951973 
16.2324333 -0.0137360832 1.60746145 
-19.313343 -0.145497367 -2.22882891 
-3.36760521 0.090240173 1.19944799 
-16.0850735 -0.692014933 0.785933256 
-15.8616877 -0.311007768 4.7546978 
-8.35680485 -0.26933223 -5.21884298 
-24.5149574 0.607685804 8.62812519 
13.2412586 0.499373525 -4.79264927 
0.4657785 0.142755434 11.8026342 
-23.1450081 -0.193883747 -10.5334282 
-9.51766014 -0.536863983 13.5329905 
8.8629427 0.00491021108 -0.168702677 
-6.70391226 0.0659032315 -13.0945597 
-0.343766719 -0.47302115 -18.4357014 
-20.2590885 0.58320421 7.29161692 
17.851387 -0.26426813 1.27887368 
-0.518016696 -0.0988923982 3.03897238 
-9.21818542 -0.384785205 7.33684015 
-3.63237453 -0.274973124 -13.7397327 
-18.6931534 0.0634226203 -4.67845583 
10.6864586 0.248076499 16.1663246 
24.3666935 0.577150464 1.79014373 
15.2037048 -0.270495653 6.01360178 
12.9994011 0.461299598 -11.249052 
3.65617967 0.116382256 -16.4725838 
5.00270796 0.238037169 -23.6162643 
17.2190151 -0.178023845 -24.1239815 
-18.6812363 -0.174878851 3.71827602 
-14.6639538 0.541352928 -10.9076385 
-9.81744003 -0.106128134 -9.44640732 
15.8718357 -0.381232083 5.37756729 
-7.25605249 -0.297238857 -17.395874 
-22.7546272 0.51171267 0.503810644 
3.39941812 0.25394991 23.5138073 
-21.7293453 -0.219587117 -17.0829048 
-14.9645615 -0.355863422 5.0362072 
4.52977133 -0.175392732 -2.13583541 
20.3444977 0.0554347299 -3.20089769 
-9.21885109 -0.0491755903 -18.6216927 
-9.41085243 -0.512432575 -3.22951198 
24.6973953 -0.024104258 -3.72199821 
10.5039463 0.255906641 1.78987837 
20.6900387 -0.239003718 -6.30124187 
-14.0190659 -0.148141935 10.024334 
-20.2678299 0.415886194 8.34555626 
-11.4428272 -0.537365317 -3.71731377 
-21.043993 0.644680083 8.13489437 
-1.57160354 -0.0199682806 9.9033308 
-9.55938816 -0.207306191 -8.34259129 
19.2725887 -0.0432283506 -15.3627253 
1.98982954 0.0915662572 10.8938179 
21.4046516 -0.729419291 -12.5036669 
1.4540627 -0.0838665068 0.885719419 
-10.8620558 0.330816716 -12.5626869 
-12.1176167 0.692987859 -17.3034935 
12.8845911 0.369761646 -2.84245753 
-24.4747868 0.609292388 1.27201951 
-23.8657207 0.244055405 15.3773832 
8.28031731 -0.295924783 -11.7704029 
-17.5027771 0.0291112084 -5.86373711 
0.93357563 -0.112876579 -9.06600285 
-18.0035286 0.464799076 15.4596348 
-10.810482 -0.250214159 -7.63178158 
-23.1721783 0.76701057 11.1752901 
-4.97896433 0.101003207 -8.40473366 
8.1187439 -0.343057066 -11.5075235 
-5.03172112 0.178219631 -5.15764856 
-20.2731514 0.284226656 9.86670303 
-15.5304899 -0.421394855 2.98990369 
-19.5219364 0.549737275 11.5199032 
24.7732048 -0.007835228 -17.0697975 
-23.1477642 0.394121945 -0.46399647 
-5.42217159 -0.0764926821 5.87611008 
19.4656143 -0.0774127245 -1.15105391 
-16.816946 -0.183848262 -4.29855394 
-18.3350773 -0.00930573512 -3.48775196 
-15.3270445 -0.310292423 -3.94536853 
12.8950233 0.121159278 12.5939035 
2.40890479 -0.349773914 -8.50463295 
-21.6659279 0.227349892 -2.17399406 
16.8582554 -0.346048176 3.89416051 
5.4519248 0.00897513423 -2.70727634 
-23.9534302 0.754188001 9.84706974 
17.9790764 0.178368926 -9.1166296 
-21.6181202 0.00186806917 -7.9294405 
-23.8630962 0.686588943 4.62696934 
10.5549622 0.30892846 -7.08267927 
-8.3978672 -0.253994197 -6.28370523 
-18.2362804 -0.174405724 4.13364363 
18.7450123 -0.1652136 -7.54327488 
-9.69293213 -0.327783376 23.1268654 
24.5854397 -0.0497950651 18.2632027 
6.37515545 -0.128515154 -0.101317942 
2.95690846 -0.290763021 -12.8910046 
10.3379698 -0.23593539 8.34515858 
-11.3059063 0.523603082 -22.4242058 
0.187816709 0.36694175 8.21508884 
12.761672 0.469772756 -0.564331472 
0.201501161 -0.0563473701 -4.60359716 
13.7241287 0.400907546 0.697641969 
10.2842522 -0.189436898 6.15818739 
-5.11762476 -0.0955925137 3.07993603 
8.66263962 0.33308509 -15.6473637 
21.0808563 -0.0112226373 -2.6136868 
-19.0550728 -0.156644076 1.55921245 
-0.264085472 0.279013246 10.0705357 
-22.4408875 0.203827962 -5.94227839 
20.3084354 0.0264279451 -2.64179754 
-21.8468266 0.718413651 5.7888732 
18.8864117 -0.221789584 -22.5854244 
-14.4882336 -0.331776619 3.47417569 
-15.0076046 0.135798723 18.573946 
0.0401014984 0.210750565 -7.64112949 
11.8693924 0.170813411 4.3120141 
-23.8044109 0.585367084 -0.0320445746 
-11.9851036 -0.483924687 8.41116238 
-4.11962891 -0.0188143887 0.196742311 
2.53584743 -0.293112934 -7.14355946 
12.3431787 -0.377947509 -23.6241741 
-24.6505947 0.188806042 21.7958488 
9.12685966 -0.0577901043 -12.0890875 
10.4648972 -0.119835325 6.20201588 
-4.62711287 -0.390306234 23.5597992 
24.8708458 -0.0938149542 17.9488621 
-3.47038484 0.0249554086 -7.10014153 
16.1439724 -0.129191011 -17.9558086 
22.2234135 -0.74424392 -7.48927832 
-19.917635 -0.233243749 -1.92624807 
-14.6338453 0.362687439 -8.44907665 
10.0749283 0.215968251 -14.4983864 
-19.6871891 0.268149495 -9.05566216 
5.09234571 0.376849443 17.1905842 
17.3035069 -0.380121052 5.98606014 
23.5245094 -0.422939479 -6.38716173 
-19.7119064 -0.202139854 -2.31528139 
17.7908115 0.196832716 -8.71431446 
-15.0991259 -0.0772506744 11.0629282 
9.9401226 -0.00204012636 16.2188816 
5.60583591 -0.0736839548 -0.932883143 
21.0764809 -0.572433054 17.0762081 
-20.9578075 -0.340668201 -15.9599657 
-12.1411476 -0.0489550158 -8.38681698 
20.9619999 -0.277282655 -6.85665798 
12.2584677 -0.446912229 -24.5164471 
19.5537205 -0.0707914531 -15.6602869 
22.8293896 -0.277044684 10.6394835 
23.2549477 -0.312346131 -16.1214447 
15.5205374 -0.362773716 -23.5207348 
-5.96883965 0.00920931902 -4.91034746 
16.3983097 -0.220172852 -19.8860035 
-16.4688339 -0.00699930917 -5.24113464 
-23.5959072 0.831816196 3.77887082 
8.36341381 0.112215251 4.13652134 
13.7080793 0.446091652 -1.2308743 
-2.76615429 -0.668175638 -17.6626759 
18.7303867 -0.03947993 -12.6201544 
14.3456144 0.340018004 -3.76448321 
0.593460858 -0.0419639461 -1.87630391 
12.9396143 0.329628855 2.45236373 
-8.37728214 -0.177965268 8.94264984 
8.91128922 -0.0649895892 -1.51349235 
-15.4153423 -0.114972219 10.5440731 
-15.1719198 -0.0023999901 13.6680574 
-11.6390324 0.393232256 -12.0760984 
-13.8598461 -0.447211117 4.46315527 
1.42598069 0.0272769239 0.344730496 
24.0484352 0.243419304 10.5259123 
17.0580444 -0.236852214 2.34775233 
5.46702194 -0.019988656 4.77217007 
-3.82308459 0.064298518 -6.86215734 
16.3204422 -0.443519801 17.8501053 
0.0554662645 -0.413464844 -18.490324 
-11.5994635 -0.435624778 21.8632469 
-22.4331608 0.887601674 7.29951382 
6.32762051 -0.299976349 11.4036741 
-21.5024338 0.7448892 6.93746281 
2.44485426 0.019452218 3.74350047 
24.8464279 0.638537645 5.59972382 
-17.739418 0.333754212 -8.66294003 
20.1298103 -0.538388729 -8.63895893 
-12.7351656 -0.311614007 -3.82750416 
1.08553314 0.087091893 13.9878502 
-10.9805698 0.243200004 -11.9754133 
0.218464345 0.0554979518 -5.9126544 
2.29984879 -0.283789009 -14.0922365 
5.86381149 -0.0673017949 -2.75394082 
17.3037338 0.148350656 -11.08395 
-9.83326721 -0.601264417 -3.90098929 
-17.6558495 0.0948553607 16.6331539 
-16.2129574 -0.319641113 5.95057344 
23.427721 -0.557317615 -8.54795837 
-1.64783323 0.426960468 -4.9314599 
-8.69218922 -0.1614099 -7.95758247 
9.7126503 -0.357141554 9.19765854 
11.7580185 0.21117419 -2.31657028 
-17.359621 0.283989429 -8.02150631 
-14.5794744 -0.0935835317 -5.3275485 
21.3799114 -0.450993717 9.34310055 
22.4875526 -0.708470285 -9.02758694 
-16.1421719 0.406223267 -12.5336943 
-3.31251574 0.346509278 -3.85486245 
-2.34046578 0.29287973 -3.21281838 
9.58933449 -0.168245092 -6.11069727 
20.9807987 -0.17412053 5.55619764 
3.09035277 0.39142552 7.8640852 
-16.7365437 0.111615896 17.4319248 
18.0048313 -0.384406358 10.2395182 
15.0353088 0.148684144 -2.60065007 
16.9308109 -0.196838528 2.16235662 
9.16308308 -0.0336990878 -1.45214474 
16.7504444 0.353841305 -6.18453074 
-12.6290932 0.0704726949 22.7167931 
-23.9219589 0.757090926 7.9498477 
13.1176653 0.516900182 -10.5789518 
-10.2952557 0.673258364 -13.9513445 
5.22167301 -0.24752669 -11.9177675 
-2.07914162 -0.0230216961 3.72752118 
17.311306 -0.148232847 0.624001622 
21.2693996 -0.848660588 -9.89783955 
-5.4889884 0.148894042 18.735445 
-13.4894876 -0.31364423 1.4777019 
-19.0845375 -0.0902068987 -0.231742725 
16.7305107 -0.0139786797 -13.4071712 
21.1486378 -0.20436044 -14.2968693 
9.16889381 0.080423139 -0.805891454 
-10.2110929 -0.321372628 0.458130062 
-16.1371765 -0.565097809 -3.43356657 
-21.613409 0.0813182667 -5.59481525 
20.125803 -0.305197209 -24.0762634 
-5.36429501 0.127126351 -7.09437656 
-21.2561016 0.15078795 -2.33505487 
3.4223156 -0.236032411 -13.0023117 
4.12056255 -0.0867025331 -1.55659139 
22.1816559 -0.0492049158 4.85674334 
14.4923029 -0.00705185812 -18.562788 
6.43504286 0.339196473 -17.1969528 
10.5516052 0.0756263584 4.89135599 
20.6028175 -0.290150046 -21.4457684 
-14.9337072 0.0653675348 12.0214872 
-20.7032833 0.164230064 2.53095341 
-23.0764198 -0.166243583 -16.9084034 
-20.404932 0.143008724 18.6351967 
-4.05575228 -0.0161300246 2.09579706 
6.92659998 0.0137403263 3.73973584 
-4.00512314 0.208113804 -5.78956556 
17.490799 0.237444669 -10.5385036 
16.9111347 0.171233147 -2.72369838 
14.7135868 -0.26977247 5.81217813 
-15.4828815 -0.624006212 -3.03100848 
-16.7944088 0.0861595422 20.2940083 
12.7964706 -0.050333079 6.41225004 
9.27357769 -0.11391788 -2.17096448 
-7.75450611 0.0541476719 8.21479988 
-21.1627693 -0.386034846 -15.7315226 
-8.5113039 -0.199205101 -0.182115242 
0.75914824 -0.026950974 -4.40515852 
-5.01648712 0.0326049216 0.19083412 
16.8632126 0.255587697 -8.37917519 
-19.4643745 0.286931515 10.7869158 
14.1451235 0.233437046 -2.90857339 
18.5166683 -0.274752051 4.53103399 
-1.71571493 0.119449571 11.5607958 
4.14128685 0.141864628 10.5623055 
-21.1487217 0.818315983 5.5735631 
11.8165846 0.000786651392 5.36720181 
22.6794376 -0.332208514 13.7050114 
-19.0533047 0.275909066 10.7438431 
0.599185944 0.00983312353 -6.68537903 
7.45094728 -0.150085211 6.49538803 
9.68259621 -0.210046738 5.84139061 
10.114378 0.0156696569 -9.79197979 
10.0340147 -0.0435836464 18.4304085 
5.41430759 -0.316247314 -5.94314384 
-15.5592556 -0.193688244 9.94527912 
-15.720006 -0.00102042803 -5.00230026 
-18.3873806 -0.0675371215 4.56173086 
10.2785225 -0.128605187 -4.18488407 
-20.5480404 0.538676739 8.06146622 
4.89180422 0.1473957 11.1042385 
6.94744349 0.0885007605 14.7260866 
4.28914022 -0.296500593 -12.4593906 
-8.45775509 0.295173168 -15.1555538 
25.066679 0.00158163626 -3.77278781 
13.5497847 0.0970792174 4.02838993 
-2.63952279 0.066669777 0.734508872 
-9.65435982 -0.258258909 3.17660189 
23.3686733 0.236625999 -2.3069458 
19.918272 -0.00246384321 -2.91056228 
-5.65959311 -0.157028034 7.15744972 
-19.3786049 -0.0553510971 -0.652648509 
4.55202866 0.0886994004 6.05296326 
-14.9441414 0.322502613 -9.15465641 
20.4905262 -0.0698130354 -16.9275875 
-18.7509594 0.0995028317 8.05076981 
3.19099545 -0.0581473634 11.7357521 
0.0773006678 -0.463369846 -17.6633053 
14.0285015 0.858513772 -9.88443851 
11.4820185 0.118654884 -10.2770395 
-10.6624241 0.33905983 -12.5651703 
23.1429749 0.576759219 -23.5732059 
1.17938673 0.0996939987 13.8263149 
4.2107749 -0.0206436552 -0.768748581 
-9.01337528 -0.422485352 9.63056564 
20.796833 -0.825878084 -8.80307674 
1.69372964 -0.386641413 -11.2842207 
-3.28513432 0.342501491 -1.75106311 
20.3916111 -0.485753864 7.58189869 
-14.1518774 0.508577704 -17.9129143 
-12.7429419 -0.574875653 10.9584723 
16.7131062 0.228723094 -5.36202478 
-6.5653224 -0.117158018 15.6044168 
1.85151112 -0.0387084074 -2.34610629 
-20.2178516 0.583501518 11.0973558 
15.0784492 0.473571926 -11.8042803 
-3.21525335 0.33773005 -3.45042038 
2.9700892 -0.0836349502 -3.12781215 
9.79616547 -0.0149980029 -1.6468215 
5.53155327 -0.455760658 -8.3713541 
9.65269756 -0.018285187 -1.48620093 
14.1521082 0.780449986 -8.94422913 
-11.7324467 0.421190262 -12.1282635 
6.25948143 -0.15304102 3.9460299 
2.47814822 -0.157820448 -5.54625702 
2.1269176 0.366901249 5.86234856 
16.1974449 -0.354994088 4.46850014 
-1.52131796 -0.0143592209 4.57323599 
3.07459068 -0.032366991 -15.8581047 
-10.588068 -0.613185048 20.2890224 
25.0608349 0.467166096 -0.249399841 
-10.5776052 0.493885964 -13.0842476 
-20.2295284 0.358339489 16.2708035 
-2.5295074 0.127622589 -1.87681162 
23.9525909 -0.383384913 -7.82703876 
16.3387833 -0.333597392 6.7359519 
22.432333 0.109525107 -2.47356009 
-6.86490774 0.0149771199 -6.90243149 
-23.3836155 0.348072857 12.8425217 
13.565609 0.403588325 -2.31506443 
15.7073841 0.3286452 -9.47643661 
-5.32488155 0.332837999 13.0202742 
-21.0384045 0.0974349827 -1.99201071 
-11.038928 -0.514859438 13.6671743 
-13.1153212 -0.563367307 16.2786484 
19.2708378 -0.430937678 3.24312139 
-7.73373604 0.580946803 -12.0413284 
2.78622842 -0.140794575 -4.4467411 
11.2675323 0.0768961683 19.3796921 
-13.2901831 -0.245342612 -3.58767295 
-4.58062553 -0.123637587 -12.6799126 
-11.049407 -0.651545644 12.8011932 
14.0334358 -0.0532113127 -14.3844614 
-11.8462858 -0.647756398 5.47755337 
-19.8295212 0.0195396114 2.01552105 
-20.9846535 0.763390541 5.99716091 
22.7500134 -0.39883855 -5.81988525 
-13.6796684 0.256431431 -9.98217583 
22.9784737 -0.417198598 -5.93018103 
-20.8590298 -0.416945934 -19.3622189 
-21.4372482 -0.221459821 -13.1964025 
3.31134033 -0.0185669847 12.0620413 
7.0837512 -0.50810194 -10.0725803 
-22.1902943 0.275121123 -3.45202422 
-13.5528946 -0.516576886 5.20481253 
6.89046001 -0.116224222 4.34034443 
-23.9682198 0.651291072 2.02327037 
-6.144701 -0.0871091932 21.532999 
-2.36498666 -0.051020667 5.00728655 
1.2458142 -0.047941722 1.83002353 
-2.38412833 0.747601151 18.8777637 
-10.5679455 -0.377129167 -1.8668853 
-13.6309977 -0.209158301 7.70220757 
-0.144188315 -0.04113736 -4.10518837 
18.2962799 -0.612222672 11.9353771 
2.63748193 -0.281952113 -12.2634153 
4.57255507 0.0224361774 0.335939497 
9.89020443 -0.0249459036 -2.6744225 
-22.4767704 0.821188807 4.08742142 
-9.97186375 -0.634616196 11.3245735 
-11.7547226 0.722155511 -15.6818066 
-5.10653687 0.0586111881 -10.8242378 
23.4487114 0.11750184 1.29800177 
18.8708954 -0.328735262 4.43804502 
-16.5340614 0.0697385743 11.0794916 
-7.23589849 0.100518346 -7.6688509 
-11.4290581 -0.570123196 -4.28737736 
-11.8341293 -0.023905091 0.00159074366 
7.2527256 -0.549166918 -8.26286983 
11.1678295 0.19775258 -13.8339024 
-24.6940556 0.198196664 -2.65178132 
20.123827 -0.396930188 7.33136034 
-14.5720644 0.0374691859 13.2430611 
1.01298165 -0.174482271 -7.2594552 
-6.92101955 -0.458586961 -24.594244 
19.6394176 -0.350855082 -7.4337368 
15.0582561 -0.330699652 7.44853926 
22.3472366 0.135756195 -1.57444751 
-15.3856583 0.491826117 -10.7331448 
8.77759552 -0.486833274 -8.82773399 
1.07208443 -0.0519534424 -3.28092837 
-2.39086676 0.0629136562 -0.748375475 
-12.421958 -0.647951663 12.2715073 
6.86012793 -0.349081755 -12.6917372 
2.4606843 0.178257167 -18.9647102 
23.3802719 0.231714085 -3.25333881 
0.88653183 0.0271193311 1.79879093 
24.1699047 0.458169758 1.30565917 
-7.51299047 -0.00246303156 -3.49047804 
-23.1492615 0.912719488 10.1275759 
24.7582417 0.313587666 -1.15329731 
-12.413434 -0.467057735 7.84985542 
-4.12460279 0.291734546 -1.80747783 
5.16891193 0.0392497256 2.80728912 
0.277926952 0.170884445 11.0781593 
-18.7199936 0.50133729 -8.67249393 
-22.960535 0.0934011117 17.2281208 
-13.4701414 -0.184829876 -6.40394974 
-1.72519767 0.208018884 13.2977877 
16.7767811 -0.313160092 4.00209284 
-18.696125 0.286147684 17.5747395 
22.9181061 -0.0473902002 9.85853958 
-22.3637066 0.221017733 -4.65236521 
21.353653 -0.0363041162 0.759646416 
-5.76119137 -0.0879610106 6.08928871 
0.439460784 0.00928770658 -1.75050247 
4.69618893 -0.0727120265 -13.8585577 
-20.2435112 0.547147751 13.4031296 
3.27428102 0.468329221 7.21336222 
23.0875511 0.240494505 -2.91358471 
-23.9786034 0.577377319 11.4373627 
-10.384057 0.548456788 -17.876215 
17.552309 -0.167265758 17.0252476 
-17.6322727 0.320110679 -7.83936214 
-21.5337505 0.249918938 -2.27506447 
-22.6095715 0.726810992 4.91656494 
15.2587729 0.102988601 -18.1910439 
17.9928932 -0.258078068 6.12168789 
13.3876333 0.800378382 -9.35921097 
24.9352837 -0.0582647212 -4.73351526 
18.2712936 -0.356089771 4.68787718 
-2.32592916 0.0193831827 1.65355837 
-7.65102386 -0.490877301 16.019352 
19.0238609 -0.398488611 15.9224739 
25.0867863 0.242319822 -2.30661392 
24.1013641 -0.360015273 -7.10776043 
17.9934902 -0.341933936 1.6276288 
-24.1749096 -0.300486267 -12.1404696 
11.7798986 -0.165658712 -22.3870773 
-11.9652128 -0.550079703 -5.17032337 
-13.3428345 0.195782274 -10.0930586 
16.8659363 -0.259298235 -17.9728355 
-5.77832317 0.092356123 -6.53863144 
10.7011194 0.277305067 0.7150563 
14.4890604 0.257899821 0.713978887 
-22.5930481 -0.0146014467 -7.83775902 
22.1109943 -0.271832287 -15.675045 
-9.89135361 -0.456405818 5.59799719 
15.2863617 0.115881838 -1.93182504 
18.6920815 -0.0320597216 -8.36353588 
-23.8432579 -0.103260078 -9.283391 
17.5043869 -0.298027247 11.1924057 
11.3500834 0.151547089 -2.85133457 
-0.814412594 0.162222013 12.8101597 
4.72257185 -0.3357054 -5.41303349 
3.8298347 -0.326619834 -10.6921873 
-2.94851875 0.116901897 0.371473879 
14.4403973 -0.159063518 11.2657032 
-16.6272793 0.185187563 -7.2638278 
-0.925857663 0.0771593153 8.69070435 
18.3608398 -0.109118655 -0.571510017 
24.2121754 0.0173539948 11.9812469 
2.02233481 -0.140566811 -16.3335133 
10.2897444 0.277805835 0.86899972 
-4.50549698 0.12439017 -9.2759943 
15.2715559 0.0407690741 -15.7756577 
11.5652876 0.0726401359 13.3468847 
17.7993736 -0.298929244 13.7009659 
-1.58265162 0.0656973496 6.35365438 
3.43482542 0.25992921 -22.7833767 
-14.6187773 -0.0719498545 15.1545658 
-9.67734146 -0.197230503 1.94232476 
-19.9636326 0.191484004 3.36338758 
-3.688941 0.0456876829 -8.87883854 
-13.9374933 -0.3006185 2.87701392 
-24.3535862 -0.263054878 -11.4580021 
-16.3215733 0.134823859 24.2868843 
23.0767899 -0.974790156 -11.1779842 
7.42742538 -0.105219379 11.1936369 
13.6665983 -0.340184063 -16.6329384 
-17.6039276 -0.170987889 -4.36405134 
-10.930769 -0.703711927 16.8600407 
-22.3264732 0.487977177 1.28065622 
-1.51522434 -0.0167097151 9.64727783 
-1.53095877 0.372916341 -4.91403532 
23.6056557 -0.504208624 -8.42178822 
-0.412502915 0.168206543 11.6792278 
-19.5259609 0.159426212 9.78492546 
-20.6192284 -0.0209280998 -7.47597456 
-17.8819256 0.181775883 -6.6971693 
-4.9078331 0.313762069 13.4058723 
9.60534 0.0914770141 12.3973665 
-8.83202934 -0.191338643 -0.256080478 
10.6261263 -0.029036494 -3.94243431 
-14.8516741 -0.622300327 -2.01559496 
-16.6908588 -0.347247452 5.18184423 
-18.8895149 -0.252412409 20.9282856 
-1.36224031 0.45572722 22.1989613 
23.775877 0.804649949 -21.2047729 
-7.53577328 -0.107335486 -1.57466912 
14.2564306 0.255854309 2.14250541 
-11.5943804 0.737164259 -16.5433788 
-15.2251673 -0.0523753613 11.1846495 
24.6750011 0.0608075932 12.3787346 
-14.2795649 -0.250105351 16.8068161 
21.6807823 -0.828148007 -10.8222656 
2.50416756 0.204049736 9.32613373 
4.71238613 0.0285978504 3.55059862 
-3.26955652 0.100533679 -6.28136396 
22.3576298 0.0106011163 -4.50384426 
21.1020107 -0.772212446 14.8198996 
13.8136969 -0.123717189 6.27217388 
-6.25980186 -0.0160246342 -4.28737783 
-20.8319874 0.117338017 -4.56545448 
-11.0086403 -0.584818721 -5.75007725 
-18.6267204 -0.293093801 20.6964493 
7.25849009 0.00309246313 4.97384167 
-5.42370462 0.0480204374 19.351017 
-13.8081293 0.249301717 -9.01915169 
-14.6795435 -0.36732015 5.7542119 
24.4848061 0.0489393286 -3.366786 
-21.743515 0.350142121 16.5928268 
-9.20802498 -0.267405868 -0.224562392 
-10.929966 0.15948233 -9.49925613 
-20.8017578 0.175052434 18.3817692 
-15.2122488 -0.335180402 5.93409014 
-21.6105061 0.0995221287 -5.13289452 
-3.62572718 -0.195546225 8.05516052 
-14.3467979 -0.287535518 3.48596549 
-7.14501905 0.294915736 8.30225277 
-0.368883848 -0.495001495 -14.7524385 
10.9752493 0.220033258 14.2149515 
-10.8121138 -0.640030444 6.70688391 
5.29688835 -0.00639485335 -1.76825547 
-20.8663044 -0.451054543 -18.8417587 
-1.08413291 0.133138046 7.44448948 
-15.1285648 0.0512861647 16.9881763 
-23.5284595 -0.177756861 -10.5824871 
-7.73071146 -0.131662011 -2.68241429 
-14.3417273 -0.211577311 -4.92861462 
-12.5738115 -0.513148606 18.0264244 
-5.31399918 0.0308357477 -8.42091656 
-2.38412476 -0.687095761 -18.2158241 
2.74494076 -0.290953547 -7.97880697 
6.15143967 0.0818419382 14.04597 
-4.71878862 0.195947573 -5.47999954 
-16.5031681 0.282054335 18.9849052 
-4.5572238 0.322334915 11.8728065 
-14.7316437 -0.368926704 4.79471827 
20.6570377 -0.284652382 1.22946465 
-21.6462917 -0.274288148 -16.7950764 
10.2542372 0.0111385891 4.89951515 
12.733098 0.601900518 -5.49104023 
17.9609928 0.233406246 -3.19296598 
8.77632046 -0.32341069 6.59719801 
-20.9115849 0.505513906 10.7927513 
8.74379826 -0.0618003532 15.2504959 
0.699251711 0.368058473 7.88047552 
-19.1580486 -0.236355826 20.2603683 
18.3359642 0.158971831 -2.30399203 
16.8176022 -0.0304112229 9.82036018 
16.128727 -0.399194151 5.84370089 
-3.75053835 0.297612906 -1.46261823 
7.83183336 -0.238088757 10.1153727 
-2.17286587 0.622750401 17.3325977 
22.9564495 0.389176726 -19.6248035 
-7.28697348 -0.106199235 12.7838106 
19.6411915 -0.0234393869 -16.2630997 
11.9070034 -0.140121847 7.40418482 
-14.685997 0.338324219 -7.65604353 
12.4532213 0.0657570884 4.88964605 
8.44188499 -0.0346591808 11.5707016 
7.76086235 -0.184680268 1.10815668 
-19.3938332 0.00329847913 0.442835659 
-19.3218517 0.283900231 8.46009636 
-13.7698088 -0.304814309 10.4713984 
-4.03880548 0.0566443019 -10.6354914 
22.9725895 -0.0677931383 10.0144653 
5.77480602 -0.0452830046 -1.35531974 
-1.76711071 -0.535817385 -15.9310827 
8.063447 -0.40214783 -3.80354524 
18.9179249 -0.330106109 0.171595007 
-12.233222 0.244530559 -11.4998035 
-5.35403728 0.247874886 11.932806 
-3.07891369 0.117939889 0.155203789 
-19.245369 0.409468293 -8.27483845 
-17.37747 -0.325143874 3.59946489 
-3.53713417 -0.196346194 6.74059057 
0.622912049 0.202994928 10.7686348 
2.14742661 -0.266615987 -7.55796576 
13.4554691 0.629020274 -10.5106544 
-2.97721601 -0.383614391 -15.5689163 
-0.426700056 0.253547966 -5.83650494 
24.6805897 -0.556589246 -12.5832872 
11.9111032 0.260508388 -9.7168417 
17.3420029 -0.19548668 7.21664572 
12.6567984 0.0214789864 12.1426544 
12.567667 0.383074731 -1.88721323 
2.81356072 0.0789190456 3.90465665 
-22.3856983 0.643706322 10.5204687 
-1.8186425 0.81605953 19.264761 
7.94018602 -0.164471269 0.975672424 
-11.1035414 -0.50803709 -5.90808725 
-18.3950481 0.123147801 -13.0168428 
12.9105482 0.507045805 -9.44802666 
-17.6369495 -0.674736261 0.585244715 
8.3735323 -0.274452925 -11.5566378 
-1.02241027 0.29384914 -6.07287216 
-8.44493294 -0.268333495 7.05386972 
20.3468781 -0.180228695 -0.649625778 
-14.4565439 0.315793127 -8.71946144 
-4.23993731 0.177241445 18.2672729 
-13.1998196 -0.417101324 9.7619133 
5.47415829 -0.044469554 6.87905502 
-8.51086617 -0.198162004 0.181723967 
-5.04746151 0.217315152 11.4087391 
-7.55408573 -0.367527783 17.1860867 
-7.65990305 -0.128619775 -2.05064797 
20.2452431 -0.158299565 -14.1312761 
-19.749094 0.00514032878 -3.99189162 
20.7932472 -0.250892013 1.46724534 
-24.8954449 -0.10723345 -5.18418837 
-24.072031 0.42456612 -2.24289918 
-1.35131669 0.334519744 -5.73455143 
-13.9062233 -0.234156221 -2.70792127 
7.8037672 -0.249639466 -2.09739637 
21.7255135 -0.625718892 10.757699 
10.2254925 -0.0488229915 -5.54742622 
20.7646484 -0.23723264 -13.6756401 
14.1180506 0.0568646826 12.3185272 
0.755832672 0.0893552154 5.99030876 
14.4473944 0.659986615 -8.19704723 
-23.769001 0.712003887 11.0809269 
-12.6915607 -0.291986465 -2.30410767 
-7.98622847 0.0249357857 9.15692806 
-2.18270564 -0.00508885598 5.71485329 
-0.00465922058 0.0907023475 -8.32232666 
17.0761986 -0.0576095618 9.82857609 
13.6143656 0.665134251 -11.3088322 
-16.3823814 -0.469133198 8.43891144 
1.26592493 -0.0417017713 1.44336176 
1.89490688 0.0455892645 -3.88109398 
15.839201 0.295124918 -3.51852703 
-6.08755636 -0.078251034 -6.11899042 
19.8548584 -0.398485214 -8.36406612 
12.1586065 0.232079983 -13.3881855 
-13.5114164 -0.0781789497 -5.45036697 
-3.99784517 -0.162340745 4.31757832 
-16.0971317 -0.447743356 2.67414212 
24.0980034 0.423677325 9.18428993 
-7.7266922 -0.219727963 -0.275911719 
11.9415455 0.0277179293 9.2195406 
-19.8904362 0.471640557 10.9544144 
-7.63981581 -0.342133522 -18.1788979 
23.2748852 0.079805471 9.89157772 
-5.95936823 -0.147708908 1.79037261 
24.7444057 0.304856211 -19.286787 
5.68555403 0.00104388094 9.58876228 
21.8970242 0.0638728216 -4.21481991 
-21.3047409 -0.0432343073 -6.56196499 
0.399592936 -0.247918397 -11.1040535 
-11.5024748 -0.740244508 11.5859365 
-11.874258 -0.501568854 -4.41916895 
-3.503371 0.1260584 -5.91916895 
3.16200852 0.0115464199 1.83361948 
21.4884701 -0.816872478 -11.3872194 
-16.41292 -0.59869355 1.81655598 
-19.8885479 0.165437475 8.94097519 
23.7181435 0.880058408 -21.56563 
-4.95750475 0.0399289243 -10.1981363 
-5.93196201 -0.366301835 -17.1908264 
9.95306873 0.247477934 2.76067924 
-7.91497326 0.0877112672 10.4300575 
-16.7029076 -0.218724668 -20.8579617 
-17.8654823 0.0971207023 10.4949818 
21.9604149 0.089050658 -2.33458805 
3.42750573 -0.0716280863 -15.1105843 
19.5190887 -0.248959705 -0.584490001 
6.84531546 -0.241235599 10.8446426 
15.5503216 0.463891983 -6.24928331 
23.6001968 0.208851516 -0.0980041847 
-14.8479538 -0.115283757 -4.25435448 
16.8496418 -0.244814515 -17.559639 
1.42871737 0.0487650335 -22.224041 
17.8741703 -0.0517547019 -0.78772974 
9.64526653 0.296337754 1.13244307 
-4.77671957 -0.187897921 4.88630915 
-15.3123827 0.524391711 -11.3621321 
-22.6295662 0.259148538 -1.85762465 
10.2643213 0.137416735 16.8085804 
8.90617561 -0.0227306262 15.0438938 
-22.7059956 -0.109951288 -8.7413559 
4.35134315 0.0887403712 -0.114205226 
7.61409569 0.00826250296 5.63707733 
-23.591877 0.753938556 7.08439207 
21.3824596 -0.112495676 -5.15490532 
23.4892902 -0.706704855 -13.9149485 
-4.32269478 0.145590469 -8.97993279 
-11.4657049 0.595180571 -18.9075928 
14.2858944 0.845087171 -9.66447163 
14.4965715 -0.208291143 4.47926474 
12.0346918 0.0669264942 13.5383701 
-10.9376488 0.173724756 -11.0854874 
-8.22454262 0.0183941163 -7.5547061 
15.9606514 -0.427283049 -24.2269459 
-17.840416 0.135964468 17.6924572 
17.5496559 -0.132424787 7.32598925 
-24.5101337 0.0179059319 -3.55987835 
23.2166882 -0.927002788 -12.2833595 
-11.9619226 -0.626390755 12.8525362 
11.2229576 0.248611912 3.33563137 
-11.0358438 -0.617169738 16.0648479 
-7.98246479 -0.222678438 6.38413143 
-18.1218815 0.131970018 -13.1098347 
5.05810261 -0.0442976207 -2.14331436 
-20.3766136 0.240275592 2.94951439 
3.76730871 0.104176894 4.09042835 
16.421217 -0.197949126 2.27370048 
-14.7008104 0.0127847577 13.3114405 
23.199955 0.356335163 -19.237278 
-14.1311951 -0.356501669 -1.34845376 
-6.88537979 -0.281497926 1.55286586 
4.97107983 -0.0147039918 -1.25912249 
