ply
format ascii 1.0
comment created by gply, a Houdini tool.
comment converted from .[b]geo
comment for more information about Houdini, try:
comment www.sidefx.com
element vertex 1272
property float x
property float y
property float z
element face 0
property list uchar int vertex_indices
end_header
20.9494953 -0.0613286495 18.6179371 
15.7553596 0.318927914 19.3146534 
16.6150398 0.3825185 17.819788 
-11.2067318 0.578509271 19.0538864 
4.39407873 0.237680197 -4.60775518 
13.4946041 -0.131272659 15.3522158 
0.370772183 0.0748851001 -0.666211426 
-19.9221687 0.311340153 23.5225658 
16.0649948 0.136395276 16.9696445 
-16.423975 -0.346197098 -7.28776455 
-0.217563212 -0.0542740002 14.6854973 
23.6230583 -0.257322997 -1.06095195 
-5.22037697 -0.486523837 15.6885366 
-12.8262672 -0.00988180377 22.451519 
4.65268993 -0.20664604 -22.5104656 
-23.991457 0.0421313122 22.4692841 
7.75564384 -0.0544261299 -18.9731522 
-7.1970458 0.394745111 -19.7192478 
7.68284512 0.177849442 15.7709789 
-17.8923035 0.431602508 -17.3466187 
8.49606323 0.0980489105 15.0207844 
3.16686654 0.102943026 14.8692875 
-12.2106752 0.120404847 2.2409451 
11.0732756 -0.0617550313 23.4777145 
-11.1770496 0.542482793 18.4087963 
1.7711761 0.434229493 -14.1748505 
-3.30338621 0.627152085 -22.7950287 
7.48288727 0.340488493 20.2598476 
14.0024691 -0.0727824122 1.96255255 
21.8033199 0.140064523 17.022398 
20.3003006 -0.188903213 -20.198658 
9.51943874 -0.0775234476 22.609314 
11.5209408 -0.340014696 0.348114967 
13.8746071 -0.080178827 -19.8255177 
8.11345768 0.325966179 20.9092197 
22.0234699 0.144543767 -4.15186214 
-0.165895775 0.46983245 -15.3175983 
17.6026917 -0.0267120712 14.7451496 
-11.418335 -0.767199576 -15.0485973 
-3.15444851 -0.552833855 16.9577522 
-19.8946323 0.303255469 23.345541 
-2.97998476 0.256880701 24.6934834 
-15.3800564 -0.603016973 -17.2683163 
1.41245246 0.311175168 -16.4517632 
12.557663 -0.296206921 16.9329643 
-24.218832 -0.0772200078 24.1985989 
-7.54448032 0.0469513498 18.4991779 
15.6583881 0.0710301995 16.8344841 
-4.757864 -0.472845405 19.5227165 
-0.757510126 0.479369432 -18.5074577 
-17.3468895 0.695929408 -2.45605159 
12.4824009 0.0203434378 11.7701216 
-23.3624153 -0.0236353781 20.4240379 
9.19276619 -0.018830847 17.0237064 
4.79688978 0.094062075 22.6816959 
1.58509302 -0.0917258635 20.636816 
-1.35450685 0.47769478 -17.5565186 
1.58687556 0.287041426 -18.4274731 
7.39204741 0.25206843 13.7983837 
-12.6906548 -0.910589457 -17.1433563 
-11.0647621 0.247273564 22.5162182 
-22.1271553 -0.340739876 14.0870876 
-7.23271656 0.442010581 -20.7374249 
24.6987896 -0.504671514 -20.7815094 
14.1091146 -0.0813360736 16.6764297 
14.0354643 -0.11625275 14.127758 
10.444067 0.0622925684 -23.63134 
-20.3493099 0.589150906 -22.5306931 
17.612936 -0.00102484296 14.9416599 
-13.2158098 -0.703507006 -14.9463015 
10.6105957 -0.0917538628 -25.0065689 
-10.3895645 0.430509895 14.4741278 
-7.0826292 0.308335871 -22.9713268 
-0.863619208 -0.257638067 16.8449535 
-2.48987103 0.413758188 -19.5693893 
16.3474083 -0.12944366 15.3312454 
-0.828811765 0.47759828 -19.0881329 
-18.0526161 -0.416719377 12.7221985 
5.76055241 0.158447623 -1.00784862 
-0.392631888 0.484983981 -15.1398363 
-8.06471825 -0.248672605 7.10745907 
10.2728901 0.415624321 7.81982851 
-20.437067 0.405474007 -16.5731621 
-5.26333618 0.125676408 -15.9130468 
-2.70888472 -0.461586386 14.5852842 
-6.60163784 0.314538568 23.1599007 
-25.0327415 -0.335397363 12.5095615 
-13.0542841 -0.846036732 -15.6399956 
19.6260643 -0.198893517 -22.2151394 
-4.76034737 -0.492736459 15.4727182 
-19.3251133 0.196583852 -15.273428 
11.2692327 -0.108352758 14.4333639 
-18.0081673 -0.0707949698 11.2509966 
6.41126442 0.286508709 19.5931282 
-22.5415688 -0.128977358 0.370925665 
1.38437676 0.360772967 14.115428 
-1.52514935 0.427634299 -14.6353207 
-9.40831089 -0.267205 0.115119874 
-5.05763006 0.826349556 -22.8054066 
-14.3105316 -0.94326669 -17.9505463 
2.76546454 -0.0377815329 -21.137825 
-11.8057985 -0.221156314 23.7568512 
-6.80232763 -0.0629743338 -16.6651478 
-18.171833 0.235763207 24.8153133 
15.5270529 -0.376903355 -21.499073 
-0.906444192 -0.133746698 24.8576431 
-2.47836614 -0.379889607 17.0927525 
18.5431004 -0.168410182 -21.2170677 
-20.2117043 -0.224234134 11.3468866 
-20.664957 0.727398217 -19.1984844 
-18.1602192 0.303629071 -19.3781681 
19.7545395 -0.0865189061 18.8999348 
0.322898835 -0.342033803 17.3495426 
-24.5068283 0.0526619069 21.3758411 
-7.63528585 -0.0966331959 15.9749584 
23.6428108 -0.481159896 8.010499 
-1.07402205 -0.315499783 18.0221977 
-4.95425987 -0.346696883 20.5023441 
1.54763663 0.339520633 13.9919491 
18.2285824 -0.0308359917 17.467495 
-7.38029957 -0.410386354 -15.2004499 
-10.3235512 0.141614914 -24.1155224 
24.8819962 -0.0904952362 -1.06914723 
-19.8352089 -0.189813197 8.44374752 
-11.5645037 -0.549655855 -19.3810711 
7.6726799 0.252324432 18.1450729 
14.6502514 -0.347876996 -12.7022133 
-2.00629306 -0.0722123533 23.1050968 
-0.505685151 -0.210974693 6.8484664 
2.56892848 -0.00324485265 19.0968151 
14.144475 -0.182551786 14.9478712 
6.43917322 -0.0775947422 -17.7259731 
-22.0199699 0.459067583 24.7788181 
-1.62514365 0.354255617 -18.7441425 
-21.07337 0.399715602 -14.8740292 
8.65198326 -0.247889161 -21.2135677 
24.6639671 0.335623801 -6.1444087 
-7.50533915 -0.00142969424 17.6987991 
-23.3532982 0.150799707 -19.4404945 
2.6567986 -0.0511408374 16.8985176 
-14.4112844 -0.894697726 -17.6406612 
11.5726242 -0.108025916 19.3550549 
-9.00965881 0.458123714 21.1157856 
19.778101 0.00539055653 -19.9670696 
8.27110767 0.427887261 -1.69004273 
13.7374392 0.424690306 20.8961811 
-1.38699389 0.533183038 -15.7657013 
21.9751034 -0.511745334 -20.9311333 
-2.61849284 0.358227283 -19.1753197 
10.3516941 -0.0234300997 -23.9521599 
-13.243577 -0.345855206 23.6874428 
0.938011885 0.0285773855 -0.508352697 
22.5404396 -0.525417149 -19.9310207 
-7.20211124 0.0275642201 -18.3486423 
3.79089451 0.594798803 -9.50318336 
-19.6684933 0.387051046 -24.8044586 
19.4455547 -0.0341396257 16.5443096 
23.8137703 0.32857126 16.5789967 
-3.52098417 -0.151528582 7.17577362 
-17.2005253 -0.234450027 -14.1639462 
-17.1717072 -0.0614615604 19.6409264 
2.16233611 0.0156524777 20.9133511 
-0.41258961 0.339747995 -19.3312607 
23.468605 0.111744687 -4.99009466 
3.04374361 -0.0558100715 22.4362526 
-1.90584087 0.519324005 -17.017168 
-17.7714615 1.0207088 -1.55927539 
-24.4483604 -0.524934649 7.36346245 
-9.35307121 0.622162521 20.7512684 
18.8998508 0.338464677 2.62365198 
8.45313835 0.449104846 5.69780588 
7.07564259 0.20066388 18.4120445 
-0.810495675 -0.354753852 15.6702175 
-1.79468095 0.355835587 -19.8690395 
8.72761631 0.174124837 16.7373466 
1.9607749 0.234931633 -15.2506313 
0.782110333 -0.326492459 18.8286133 
21.4647198 0.227125555 16.8019333 
20.3589745 -0.544731975 -24.0140247 
11.0238752 -0.0324615501 -24.1763783 
14.1690044 -0.0468014516 18.282053 
13.9361324 0.0148603665 18.8280373 
13.9874334 -0.102140635 16.7305088 
-19.0606499 0.442052931 23.3557167 
-1.85532331 0.351815701 -17.7928905 
-9.29380798 0.233912095 22.572443 
24.1476536 0.270436525 16.2472897 
13.9813585 -0.132909939 14.4520369 
-6.50231695 -0.0291989278 -17.183382 
-2.98654103 0.344949096 -15.2976093 
9.21252155 -0.0465502739 17.5004025 
-2.6453855 0.617499471 -21.042675 
25.2652664 -0.311632186 -23.1176929 
7.55363226 0.253916204 17.4776592 
24.3493404 0.0310508348 17.8029423 
22.9916763 -0.759352565 -25.0012188 
5.01418161 -0.11177513 -16.7525291 
24.4902878 0.15503189 16.4088707 
-4.31827021 0.743258953 -18.4713936 
1.67599952 0.417795241 -14.5137796 
-1.27565336 -0.269338906 -0.00952192396 
8.18562984 -0.063039951 -18.2192707 
21.1935177 0.00344204856 17.9736462 
-4.38177013 0.391402781 24.8059559 
-23.6169281 0.520210505 -14.0136251 
23.5121536 0.311393946 16.6341877 
-7.90623188 0.0762829259 18.6094208 
-11.4800415 -0.817902565 -17.6070938 
-3.5213387 -0.594978333 17.1449451 
-15.4812527 -0.519272864 -14.7354555 
17.3568554 0.0485019945 -24.5358295 
-0.0514383242 0.349043012 -18.5786362 
-14.0157518 -0.696554363 -22.3149986 
-18.4681358 0.316990584 -16.3514767 
2.39352942 0.0135612711 -1.71561038 
6.1795311 0.231488138 18.302393 
-19.6537666 0.0869456008 -8.2896471 
10.7153215 -0.0969413295 24.3713779 
-1.01314938 -0.12977244 23.3321877 
-2.97392797 0.275268883 -17.7037315 
-23.6069431 0.083606109 22.410881 
-24.5353165 0.658731699 -13.8778782 
21.1035004 -0.684088886 -21.8009033 
1.47023463 0.0285718068 16.5851707 
1.50099981 -0.0789489597 17.7269154 
6.08051205 -0.141532093 -18.464304 
-3.74838042 -0.474382252 18.7012291 
-13.1278248 0.16667296 4.61379623 
4.04840517 -0.03763761 -14.9857883 
13.5610762 -0.191312551 11.9921808 
-22.2945518 0.184370369 21.6605511 
-4.21333218 0.499212295 -15.3880768 
20.220808 -0.0184713937 18.0964565 
12.8737307 -0.322432637 15.1237259 
-25.1198025 -0.0945715457 14.9575396 
9.08924103 0.0213509239 16.2640877 
-17.6013794 0.445216894 -18.5021229 
-3.94624448 -0.569148779 16.4413815 
-6.29678011 -0.218297958 19.337244 
6.73490334 0.135090262 22.9289474 
-9.94330215 -0.586095214 -15.7889805 
-17.8914814 -0.123630241 16.6174183 
7.26946449 0.313228905 -1.40093768 
-12.2211695 -0.258792371 23.7627449 
-4.63619804 -0.562604785 18.7912483 
-21.0999832 0.351868689 23.1335716 
-3.55988193 0.444640696 -18.6576805 
-16.3414974 -0.270106494 24.0318089 
17.8976746 0.138116047 15.3043261 
18.6153564 -0.187155709 -24.4922028 
6.3687582 -0.181994751 -22.6123447 
-4.27137327 -0.567632198 18.2916298 
1.51455128 0.287598878 -17.7264652 
-11.1023092 -0.659456909 -15.4067469 
-12.300374 -0.85969919 -15.7838783 
-1.58584309 0.514201522 -20.8783417 
18.804985 0.0435956828 16.487299 
13.1687794 -0.223012716 15.5632849 
-0.0383991674 0.322694689 -18.014883 
-1.42229629 -0.301892906 15.7604628 
24.8511372 -0.47693482 -20.5645599 
-13.4211617 -0.244492903 23.1508083 
-21.8900719 0.63231653 -16.909502 
-14.5045938 -0.532078981 -14.4476566 
1.17468941 0.0359052122 15.3443594 
15.7830076 -0.123899989 12.8797483 
-3.63918114 -0.404836893 14.4070272 
2.389184 0.0785167515 -17.2412949 
4.60567856 0.0915418863 17.5169849 
-9.15457153 -0.679098129 -15.2668991 
-4.91685486 0.731401145 -18.0311375 
-0.795521975 0.377750933 -12.6424685 
-14.3469601 -0.464583755 21.2240028 
-24.5902214 0.138503864 22.4266033 
-2.90658379 -0.177251741 3.77493382 
20.7400074 -0.304973304 -19.7694359 
19.0182343 -0.0792827979 -21.9421387 
16.4965038 -0.0807148814 16.0882721 
-12.3261681 0.141370624 11.0986538 
15.3082628 -0.414604753 -21.994854 
-15.7935629 0.037540447 18.8807945 
6.88024426 0.311749697 12.7528458 
17.4874153 0.0544074923 16.4943295 
-4.57006884 -0.611437976 16.6340733 
16.4861412 0.251184911 18.5026302 
10.1348448 -0.430668354 -12.913105 
25.3995647 -0.296207428 -23.2676563 
11.1492863 0.0584404431 17.0294895 
-20.2302074 0.222404763 23.3475151 
-16.0073357 -0.0685050562 19.5252075 
0.919349432 0.373921007 -19.258379 
12.4137096 -0.158596188 -21.9821396 
11.9899721 -0.0842106566 17.407959 
-3.42627573 0.302476525 24.8399963 
9.0959444 0.0723890886 19.2272987 
14.6037731 -0.146867752 15.1500816 
0.353162646 -0.301461101 21.4235477 
5.20900774 -0.172036484 -14.7161102 
-14.5929117 -0.767768919 -16.9463596 
3.62517667 0.0895306915 -14.0119505 
-3.59679484 -0.443563253 19.2998714 
-16.5595531 -0.0967000946 -19.0507202 
5.27934265 0.201289341 13.9642286 
-16.2641106 -0.217102692 -19.0324707 
4.71283245 0.0701148286 14.9603539 
-9.73909664 0.331811666 23.3420696 
-19.9097176 0.371316701 24.1816311 
-2.15942264 0.539414883 -16.3436031 
-21.1920376 0.40396136 23.6944962 
-20.8469524 0.330325097 23.57691 
-7.54189634 0.358109534 -20.2802429 
-16.7754154 -0.148779154 -15.4736128 
11.1516571 -0.0847835466 11.957509 
-7.68067122 0.25223887 -21.1989727 
0.434150904 -0.162964985 24.8624001 
-17.093401 -0.251245618 -14.6069794 
-9.69837475 0.288849562 24.7024059 
-7.02507925 0.0817255303 -18.4098682 
-10.6347094 -0.00834826846 -23.1813698 
-18.9894943 0.436991841 -1.96609294 
-4.71476316 0.845283329 -22.39394 
3.04836011 0.144817457 15.2688217 
19.719286 0.155482888 7.23738813 
18.9047775 0.312708527 14.0955973 
12.0060892 -0.0151678929 4.90768147 
-15.2377682 -0.662661731 -17.1287899 
3.43785858 -0.0578908883 18.4954185 
-21.8160572 0.63236177 -16.6784954 
0.322918385 -0.0965176597 15.8163433 
-5.85088539 -0.391091943 -0.105378412 
-18.0627213 0.138699442 -15.1355925 
7.8290844 0.169195041 16.2543926 
-4.92319536 0.795162737 -21.4633465 
-5.23713398 0.381456167 -17.274332 
-11.6962948 0.244633526 8.58778763 
-10.1928205 -0.694743752 -14.2548323 
1.73685253 0.284503639 -16.2953949 
-12.8990164 -0.940358758 -16.7895393 
1.1013006 -0.190790161 23.8538971 
-23.8160973 0.474710017 -15.8471146 
-6.56999683 0.304618984 22.9189224 
-20.1367035 0.597322226 -18.4825439 
18.1714306 -0.154705182 -21.0527344 
16.1153793 -0.365805358 -22.2408524 
-6.47406626 0.302189738 -18.8808498 
21.1356068 0.411445528 15.2995214 
1.28897512 -0.160619348 18.2417355 
14.7648811 -0.378998995 -21.2267113 
0.838413239 0.416085035 -19.0292263 
12.0722799 -0.751539588 -8.5502634 
-7.58782911 -0.412060291 2.31672311 
-14.4146452 -0.364874095 23.6716576 
-23.2227421 -0.00831392128 23.2869225 
12.9587498 -0.27856499 -22.1568947 
13.9391174 -0.108400628 -23.7954578 
1.43363452 0.0786585584 15.8366556 
2.519907 -0.15326336 10.8437643 
-5.86497021 0.0785174742 -16.7822094 
-6.35004902 -0.00272967177 -16.9347782 
13.4772129 0.00252754148 -24.2708397 
1.03186011 0.342559338 -17.6205273 
-21.1382675 0.43662861 24.9926929 
-0.641455472 -0.345278829 4.68680763 
22.1649551 -0.00820307247 17.6515331 
9.66275692 -0.0637381077 17.1916924 
14.1863041 -0.0470290221 1.57952225 
-2.69350171 0.370480031 -14.6694298 
-5.17587042 0.594771862 -18.1429405 
22.3730869 0.220153481 16.9035149 
-13.3392773 -0.0400624797 20.1447563 
11.1648388 0.0409081653 16.294939 
-6.1619525 -0.244954526 17.6203861 
2.87438869 -0.047799848 21.5429115 
1.26488864 0.297621369 -18.5221767 
7.44823456 0.00827757455 -17.754406 
-0.852506518 -0.345646143 15.2976847 
-9.93362141 0.483306706 17.8424129 
7.20904541 -0.00311253988 -17.9298115 
-6.01340199 0.436035395 -19.4966812 
-1.82036591 0.684651315 -21.6914616 
13.727704 -0.0398508385 -19.7623119 
1.63377357 0.308965206 -15.276248 
-1.25701654 0.501994371 -18.0448532 
13.2390938 -0.013863924 -19.9693146 
12.804698 0.167912737 -25.145401 
-21.5285473 0.479536295 -15.1930037 
-23.7526665 0.0816666409 20.7641468 
-10.4688702 0.0591363609 -24.3201828 
-5.76102066 -0.390550822 -8.70476341 
22.4921646 0.427246422 15.24296 
-23.3488503 0.0909286216 22.5280457 
-5.37391281 0.0869913846 -15.8059149 
-6.51793528 -0.015784109 21.1275654 
-22.6972122 0.297520608 -19.0762367 
-24.0092945 0.00506552681 24.3495617 
6.39424419 0.230742082 18.4140892 
-5.4845562 -0.0100088771 -15.5412617 
-3.47797418 0.538190365 -23.5427837 
-2.17080331 0.527170122 -15.8104286 
23.8973465 0.0568786785 15.0195827 
6.59746552 0.0598250926 16.9473095 
-1.45304704 -0.390300959 -1.20132446 
0.406038821 -0.211450249 16.8496437 
-12.79568 0.176179439 -4.57764721 
-12.691884 0.0646512434 -6.03634119 
21.8775196 -0.507423997 -19.908308 
5.19294119 0.0971866474 16.6640129 
-6.773736 -0.39216271 -14.78263 
-16.4529934 -0.166609868 22.3632545 
2.8969667 0.167204216 14.3854856 
-6.74950504 -0.142733961 18.6889935 
0.512794733 -0.0313901715 15.8153667 
5.44398451 0.114954673 18.0171852 
-3.63715553 0.695323646 -19.5347977 
-2.76153445 0.323567986 -15.7564468 
1.62229657 -0.0838392749 24.2285805 
-10.6778307 -0.145214438 -1.48084259 
7.51800442 0.244480535 18.5850334 
18.91395 -0.168590203 -22.7220001 
3.3122673 -0.130877629 17.471714 
20.692503 -0.54751569 -23.2561665 
-2.63782215 -0.421662033 14.8546648 
20.0472393 0.436141014 14.4403896 
8.39828873 -0.232851848 23.4067135 
-4.55357742 0.706865549 -19.1956234 
23.5477314 0.165076882 15.0185795 
0.055842936 -0.134316459 15.573925 
-11.0895214 0.591601849 19.5404587 
16.9844742 -0.42391485 -13.7380161 
-16.2642365 -0.191327348 20.0898762 
-17.9018002 0.280737847 23.9651852 
4.00136471 -0.0188966133 -23.7820911 
24.2338543 -0.295275331 -1.51718783 
0.65743202 0.0932914093 14.595624 
1.0286628 -0.255103171 4.35406256 
-21.209444 0.197865546 22.8137016 
1.70860863 0.251410097 -23.1875591 
-13.5888786 0.0301020965 18.7802353 
0.473230004 0.168362543 13.7779207 
23.5717831 -0.284560293 3.22796655 
12.8484364 -0.274970293 16.7150764 
1.14874899 0.0735007226 -23.7527504 
19.7114048 0.113807671 -0.818811536 
5.36149073 -0.156081587 -16.8615837 
12.4804201 -0.162670627 -21.8601437 
7.87255955 0.00286390563 -14.3070507 
2.27720118 0.0895095468 -16.4727592 
-5.25531101 0.244574368 23.4109859 
-4.26362276 0.877625227 -20.0290165 
-9.57273579 -0.584729433 -14.2302103 
-11.4549036 0.436042428 20.3576603 
-19.9357548 0.30901289 -14.5155926 
-19.2159748 0.107466914 19.6861248 
-10.6928577 -0.657338381 -14.7358341 
-2.44326711 -0.407215208 16.6895485 
-19.6050224 0.559497058 -22.5988655 
-6.80941105 -0.358921438 -15.0745697 
6.15570211 -0.206971318 -15.4685793 
-19.7845001 0.261313081 20.4880619 
11.6138353 -0.0175537504 17.7240868 
-24.5291271 -0.0681351125 23.6523647 
22.4564552 0.4017663 -6.99921703 
6.72464848 0.104290254 4.11401415 
-0.154787377 0.374108613 -18.7884541 
-9.44020271 -0.201787204 0.659785688 
-1.10844338 -0.260138214 14.3240404 
-13.8928719 -1.04594588 -18.2120285 
-14.5729609 -0.488313913 24.6813259 
-22.8239193 -0.000120964483 -1.6201098 
17.7115669 -0.120384507 19.1650066 
0.721159875 -0.401714474 19.2528839 
-8.5404501 -0.589814723 -14.82265 
-8.71853256 -0.175394699 -0.991276383 
24.6955509 -0.388953567 -19.7433891 
1.25648785 -0.0706960112 17.0864391 
-9.96442699 -0.441699833 -17.0406685 
18.8033943 -0.177215353 -23.2753773 
-9.95597744 -0.412070006 -17.9441204 
17.7787571 0.0348301865 16.641016 
18.7770615 -0.546957731 20.961689 
-1.16109395 -0.283877492 18.5049572 
8.15665913 0.0574094281 19.0321007 
15.0929394 0.0789333433 16.9019394 
1.16346467 0.0427415445 16.0462742 
-9.64356327 -0.308231711 -0.453739136 
-4.93027544 -0.19720827 21.6354961 
23.8598213 -0.33008188 -17.2205467 
-17.8496647 0.444558501 -18.6431961 
-8.99153233 -0.598145604 -14.2929926 
16.3884525 -0.470655024 -7.39740086 
6.66757011 0.142290771 15.8690004 
7.17111492 0.276683152 12.9596834 
21.0444908 0.473781407 13.9882593 
-23.1133041 0.473590732 -15.0824461 
18.6396275 -0.050421752 -21.8186493 
-13.7981777 0.200926349 3.91535974 
10.4729042 0.136376277 17.4269905 
14.2353373 -0.0612472408 17.367672 
22.5785923 -0.603709579 -20.8976803 
-4.6492238 0.695833504 -19.3090458 
-1.02021897 0.421188921 -16.5357609 
-10.0101948 -0.465448558 -19.4479637 
0.776485324 0.513688147 -16.8295155 
-5.97376251 0.59088999 -22.6945534 
9.98166752 -0.0199574567 -21.433897 
-14.04737 -0.557491243 -15.0474586 
1.09648669 0.256816953 -20.0244408 
18.3331966 0.165622815 15.3335285 
-9.79864883 -0.375383377 -17.9018288 
-1.6366576 -0.559357345 21.4231777 
6.67806149 0.337152451 14.301198 
3.51544285 0.0781691447 24.6809044 
-19.050684 0.215720534 -15.7606611 
-9.49555588 -0.0744138584 4.93441772 
-2.7195673 -0.0917717591 23.1244068 
0.00498666614 -0.46457243 18.4398003 
-16.4538498 -0.177375317 22.6512489 
9.18800735 -0.0164511781 17.6733513 
-24.8067741 -0.058277078 19.9829388 
2.94119978 -0.0596113279 -17.1217899 
-14.1529045 -0.904163301 -16.1597385 
18.7210751 0.248758718 13.8906374 
19.8483257 0.250849068 15.6291485 
-23.1442032 0.0494105183 22.5279198 
9.4197197 -0.138583139 -20.0521908 
-2.7197485 -0.504756987 14.2226486 
-16.7296638 0.0661943108 -16.9754753 
4.36141825 0.0760207474 -25.0872211 
17.9384842 -0.0573092438 14.3228559 
-4.75845098 0.718776166 -19.5987968 
-0.355403244 -0.212357759 7.72650242 
0.120632559 0.419160187 -14.3958521 
-20.0698433 -0.303370237 7.05298662 
-6.14992094 -0.169916734 2.59273601 
9.58918476 0.0371198803 18.7341404 
7.0686264 0.262746572 5.09838295 
6.58518171 -0.00607444253 -15.0751038 
-21.8319988 0.630046189 -17.163269 
-9.17851543 0.466501474 18.3949127 
-17.0637913 -0.195606813 -14.9417648 
-15.3210964 -0.424644589 20.5957146 
-11.720747 -0.816794157 -16.0260658 
23.1093178 0.309803247 16.4513149 
1.73868454 0.235027373 14.9098215 
24.3227825 0.109268218 18.4696808 
8.03203869 0.0825994089 14.6657019 
3.56646657 -0.171817034 -17.7926102 
21.9567719 0.421535403 14.8980465 
-19.869236 -0.258462012 13.5713844 
20.2319794 -0.182366773 19.8795223 
3.70640707 0.0351368189 -14.5469713 
8.35245514 0.108712047 2.44401383 
6.10099697 0.101492092 16.6662655 
21.9609032 0.100843422 11.6551466 
1.1311512 0.533880353 -14.6270819 
6.38250208 -0.140341088 -15.7454348 
-17.9220295 0.18849054 -23.9765377 
12.8814392 0.0284879655 -23.8834267 
-0.131720304 -0.0625843853 15.1025963 
5.59905958 0.189451769 18.6898422 
14.4552298 -0.162189439 15.6378469 
-18.9275017 0.176051766 22.5105972 
23.8955116 0.147544876 18.3242054 
-21.413681 0.456029266 25.1524181 
-22.1883373 0.443148822 -21.3979359 
1.91076493 0.249171048 -23.1383228 
21.8389091 0.335168123 16.435894 
8.98926258 0.0912562907 16.0901451 
-20.16436 0.361004055 -16.3082237 
17.9602013 0.13409327 16.0662441 
10.330924 0.0344505943 15.6989183 
6.58284616 0.350843638 14.3722677 
-7.6574831 -0.0901095569 16.2396049 
21.3716259 0.423623651 15.2722034 
4.50443316 -0.116787106 -15.8954973 
20.1449795 0.37643978 10.6897173 
-19.8491459 0.263175786 -14.6089802 
-6.58732319 0.192948401 25.0641651 
-13.0010872 -0.93980968 -16.3877659 
-7.30709267 -0.526323259 -5.97917747 
18.9479332 0.328114867 14.7103796 
0.514457226 0.524926126 -16.980526 
20.9569435 -0.535386622 -24.4870262 
2.75711846 -0.062433131 17.2590637 
21.2286053 -0.361213893 -19.7731152 
22.5203266 0.48010236 14.6068754 
24.6560078 -0.511187673 -24.3279896 
-5.98813486 0.456570357 24.4671822 
-22.0316067 0.268235087 22.5127258 
-4.22793913 -0.18871738 5.38811541 
-3.38318944 -0.501103461 15.1644068 
-4.8824749 0.347679526 -16.5688133 
-23.5765362 0.0592663623 24.236866 
18.6340809 0.312928408 12.3210182 
-23.4221306 0.0516870171 -2.31064606 
-3.36806679 0.450559556 -14.624609 
0.0475578606 0.22515741 0.138704494 
15.1516418 0.220879078 18.1406097 
-7.83092594 0.108489618 17.8522415 
8.35088921 -0.294445902 -20.0741081 
5.74560833 0.144246668 15.702733 
-7.88351679 -0.224570453 -17.5765343 
18.647934 -0.174062669 19.0390549 
10.6716881 -0.0797980502 -24.8521194 
7.37425566 0.221241355 18.6579742 
5.96029854 0.117200024 16.2650261 
2.21053958 0.295759916 15.0773344 
-0.37319231 -0.533122241 18.8133278 
-11.5888309 -0.788906813 -16.3977432 
-9.98325443 0.602307558 20.9853191 
-23.9169025 0.563686311 -14.0905342 
7.7987752 0.359095395 17.461441 
15.5714111 0.199539766 17.4178429 
17.1133308 -0.208509803 22.3937874 
-20.1991405 0.425047189 -16.6307087 
-5.76989269 0.417829037 23.8974056 
0.635769486 -0.287394941 17.5637341 
6.68033886 0.0800237879 -14.7874556 
0.262557358 0.407137632 -15.091918 
-21.7164307 0.596725941 -16.4125099 
2.80446887 0.0114797847 -20.8958359 
22.2873859 -0.530084729 -21.3487835 
15.7702236 -0.0511761531 15.4786024 
-7.00136995 -0.381505877 7.07857609 
13.3934412 -0.0761710927 -23.8150158 
-6.8523984 -0.0553995706 -17.1217308 
23.34408 -0.574961782 -22.1751823 
-23.4551067 -0.167830244 18.9132481 
-6.74844408 -0.0457132719 -16.792448 
16.3007889 -0.0782140717 15.7098141 
2.49559784 0.091551587 3.57224488 
24.0089283 0.173579499 15.3581734 
7.46221828 0.303856909 19.0908623 
-8.0258522 -0.365029305 5.41666269 
-7.06151342 -0.392536342 1.06816483 
-3.62531185 0.519472003 -16.3566036 
-1.93365335 -0.290766597 18.3795223 
-15.4422102 -0.256844163 -10.4233913 
-2.67526913 0.12687628 24.0527592 
-18.1620007 0.124866195 22.0210762 
10.3103733 0.126533449 -23.1901093 
25.4393692 -0.274445087 -23.4781456 
-10.2608318 -0.501779497 -18.880106 
-10.2608528 -0.691494048 -14.3791494 
-2.95739102 0.374957144 -14.9802551 
-24.2927723 -0.0146645475 23.4949398 
14.0994978 -0.0756757855 16.8684978 
-2.16307783 0.468932211 -14.8704882 
-10.1926498 -0.496590078 -18.3004055 
-5.24879408 0.268320441 -16.8760052 
-11.2778959 0.424323171 20.7797356 
22.9570751 0.467002541 15.4441891 
13.1288109 -0.246904999 17.3776646 
21.635828 -0.487600625 -20.8526039 
1.38508308 0.325241536 -16.2745533 
18.2930813 -0.285078794 24.5838032 
-10.0927162 -0.509728968 -18.5954666 
9.10232639 -0.139207423 23.3795528 
-3.34811974 -0.564970315 16.4187412 
-17.0808697 -0.081101805 22.1931267 
1.20167887 -0.105759867 17.2500248 
13.6309786 0.475692064 21.1126499 
21.1218109 0.328920484 16.3239555 
-2.05782866 0.468212456 -14.9096498 
1.66767573 -0.174178585 19.0336971 
20.3972092 -0.492112875 -24.575079 
-8.57587528 -0.538763046 -15.8575983 
-18.2730618 0.274018675 23.0997562 
-0.696938515 -0.42978546 19.2461243 
2.74075961 0.138673261 -15.2712183 
-11.500823 -0.749437153 -18.4633713 
-9.7648735 0.288928539 23.6192837 
4.21851349 -0.186917692 -22.100111 
-9.10752201 -0.588585258 -14.5447273 
-1.02137768 0.301836669 -14.109767 
24.770092 -0.628814936 5.86171055 
16.6958599 0.29648298 17.57411 
4.65202141 0.322352022 -3.10993004 
5.8145442 -0.113812372 -19.7047443 
6.61385012 -0.111719638 -15.8308315 
-7.07374859 0.0090821702 18.9022408 
1.50790739 0.373211116 -10.1585293 
-7.14968491 -0.345066547 -15.6834421 
4.95320368 0.0396444052 16.6408482 
-20.0483437 0.327152491 22.2183704 
-21.2776909 -0.252164245 13.1743641 
-10.7748423 -0.559587538 -18.9517307 
7.47917843 0.206349343 18.1387272 
11.192318 -0.0272937007 15.7996235 
-10.6631365 0.626181781 19.7373009 
-12.197731 0.259530634 19.3130283 
-11.3615665 0.223551929 7.40888262 
-5.80356693 0.702821076 -22.8799553 
2.50129056 0.018675888 20.0194664 
2.69586992 -0.204795316 5.72749901 
3.96954823 -0.0933464617 17.328371 
-2.54908037 -0.445951194 14.6539192 
0.729504108 0.193852365 -21.4014168 
12.4260597 -0.0673860013 19.9426041 
7.01699638 0.262339264 19.0607147 
-0.0643115491 0.348464608 -20.2872257 
12.2026052 -0.0858440176 -23.1954994 
-23.8646488 0.518727362 -15.0976896 
-11.8153934 0.299972266 20.440691 
20.6951237 -0.0785097629 18.6871223 
-11.0980272 0.0233427677 23.8518028 
-1.8578552 0.440711081 -14.1519384 
-17.3634777 -0.0842242315 -15.4330864 
21.7796154 0.294448376 16.5274277 
3.24876904 0.0850547999 -24.6233883 
2.46612239 0.129658073 -15.7348652 
2.23038602 0.185780317 -22.9242153 
-10.1121111 0.194294244 -24.776619 
-4.37187481 0.426600128 -15.1929455 
-5.24393463 -0.485169798 17.7477264 
16.4079266 -0.221335545 -2.92288518 
-20.4686489 0.389242411 -16.4121666 
-20.2203655 0.174999595 19.6774044 
-15.8950996 -0.339724123 -13.9242601 
22.1768246 -0.0643802732 18.323122 
19.4565639 -0.408044875 -24.1915855 
-15.8556719 -0.404047698 -14.5555286 
-2.97520471 0.652826071 -21.6093025 
15.2926426 -0.0515073203 16.3172741 
4.39871788 0.0651913658 18.5649738 
-3.95036316 0.444556266 -15.0111408 
9.00627708 -0.21509701 24.487339 
-4.16392374 0.711428761 -21.6737633 
-4.84034538 0.70160532 -18.0041428 
11.070425 0.0792703554 17.4962502 
-6.22550726 0.350160927 23.4358273 
-1.37750769 0.209503785 -23.5716839 
11.5448942 -0.467586964 -5.39987755 
-16.9082394 -0.00244160066 24.1402245 
-4.35457802 0.260339826 -14.6063757 
-6.68655205 0.443923235 -22.3599358 
-16.1314068 -0.311338216 -14.9675503 
-5.62930202 -0.249464616 5.49655199 
-23.4580936 -0.179429129 -22.3163891 
-20.1578121 0.352070808 21.1788235 
19.9260082 -0.250739545 -21.5670719 
2.62133813 0.00956313964 19.8204556 
13.3523064 -0.173255488 14.7634392 
-21.3502026 0.617058218 -16.776413 
0.0436813496 -0.314867914 22.3229885 
-1.82242966 -0.339744955 18.9754982 
0.249878109 -0.145951793 -23.1989727 
1.29701138 -0.135107964 22.4781418 
-17.6231232 0.424432069 -18.668438 
19.7049408 -0.0500285402 -21.0032902 
14.6293221 -0.313877344 -22.1546326 
12.5509176 -0.192301929 18.3446808 
-3.58593583 -0.344640344 20.1220188 
0.975991607 0.346527576 -19.7027149 
-14.0226889 -0.417728484 24.5164738 
6.74866152 -0.252363741 -21.0552197 
22.5881405 -0.616628647 -20.7336884 
-24.1744328 -0.402329981 2.24515009 
25.2813339 -0.366173655 -20.1486645 
-16.6230507 -0.0465803333 -18.6419125 
0.482705235 -0.246423125 17.0299244 
-0.158992648 0.36585483 -17.946516 
9.94948101 0.0125952754 15.4383993 
-10.9172077 0.331705511 22.3902874 
-20.5745201 0.350576013 -14.5605106 
-10.9592505 -0.603129268 -16.1436844 
-14.7675161 -0.724252284 -16.4123535 
9.70360374 0.0492196009 18.9930725 
10.5698814 0.153771669 16.8910751 
1.5935936 0.278568685 -17.4843426 
9.85301208 -0.0510262437 -24.4715137 
20.0022163 0.0166052859 16.6340752 
4.74358463 0.0689361691 15.3037605 
18.3405418 -0.275925696 24.7308331 
-22.0046749 0.678687215 -16.5161362 
9.73450375 0.0613306463 -23.2185497 
0.842239618 0.355713457 -17.9982491 
22.3145065 0.0672624111 -3.73994589 
-15.98631 -0.300891161 25.0341663 
24.3821983 -0.605623245 -24.0327759 
-23.7990723 0.120977782 21.7127819 
-20.0090714 0.315529227 22.0773506 
-21.2133579 0.670114875 -18.4765415 
-12.6726913 0.245183676 16.3581657 
2.29875875 0.144020915 15.7768316 
7.54343557 0.163257197 16.2601566 
-8.28779697 -0.471511602 -14.2514343 
-11.6226616 0.470961213 19.9910049 
-6.92796707 0.134889007 21.4872856 
15.4426737 0.171867043 4.11298227 
23.094532 -0.315908402 8.5321455 
-3.77675295 0.767581046 -20.5822754 
21.6644802 0.382690579 15.8200836 
-10.5156803 0.1297535 24.1102428 
-8.29550457 0.21112065 17.8244762 
-8.07845592 0.109030165 -18.600172 
-8.27312756 -0.572377384 -13.3131466 
-2.17538619 0.65497458 -20.988512 
1.21273601 0.322589487 -16.6641998 
-2.1154325 0.416558266 -23.6228294 
-5.66519451 -0.173947811 2.70257854 
-0.768533111 -0.147023067 10.3754339 
3.09775877 0.11512579 14.7078829 
19.5688858 0.423455536 14.2292004 
3.28905249 -0.0772617757 -20.7796574 
-18.0497093 0.22962217 23.536108 
-3.26728487 0.341474891 -18.792944 
0.775033236 -0.323721826 17.9769325 
22.5567799 0.202101558 17.1477604 
19.3865852 0.38005808 14.4759121 
6.51328993 -0.231723562 -23.7611256 
-20.4610176 0.676924825 -18.8821774 
-22.1154194 0.131956965 21.3667145 
6.33755827 0.246008277 21.0522022 
14.3494539 -0.125808895 11.9429455 
1.11697698 0.469935864 -15.1067171 
-21.9830608 0.589377582 -15.4374142 
-21.7696209 0.660405755 -17.8957329 
-9.05710506 -0.32176429 -17.2276897 
5.97215223 -0.17617248 -17.5799465 
4.03469419 -0.0287702456 -23.6721706 
0.7156564 0.52298671 -15.3288288 
23.6108532 -0.67336905 -24.5315399 
22.3570766 0.514158189 14.0914688 
2.36313486 -0.0832173228 -18.7345371 
-12.3409882 -0.846488833 -14.9836664 
6.57083416 0.0284984913 17.14398 
21.1813354 0.346561491 16.0014629 
-8.61528873 -0.390037209 -17.1871891 
-17.0105534 0.0296634212 -15.8130312 
-17.3215752 0.216636509 -16.4822865 
5.23242283 0.0536069907 20.0796185 
15.5183678 0.329521596 20.540617 
5.20926046 0.0532187223 16.376915 
-11.4441738 -0.736796916 -15.8180809 
8.7872591 -0.255085468 -21.7956562 
0.530297339 -0.286870807 22.0330181 
-10.4722548 0.658110023 19.3804131 
-16.6593761 -0.247185081 -14.9785728 
20.7256241 -0.545823753 -22.2445927 
16.3699608 0.37777707 17.8448181 
-22.3450127 0.652894557 -15.5205564 
5.05614376 0.126417771 14.6444082 
20.5515079 -0.483599305 -24.5882492 
0.761430144 0.545533478 -16.5577126 
2.37932968 0.304272741 -14.6255398 
-1.49760199 0.532738924 -15.9224234 
-15.3306446 0.425203234 6.56899834 
-6.43987846 0.405546516 -19.7793808 
-12.2719078 0.204313844 20.0680466 
8.88096142 0.0124716107 14.1948185 
-5.67063475 -0.528649628 15.0967722 
-5.66422701 0.457708597 24.0141678 
-8.76428795 -0.479112297 -16.7761555 
-12.8396826 -0.319523126 24.6620369 
4.60330582 0.137204185 18.3818226 
11.1397266 0.0087173814 24.1764736 
0.632148266 0.382521182 -18.4420433 
-2.36930227 0.436331362 -14.4398689 
-0.814246774 -0.353303373 15.9372053 
5.38107109 0.118967108 15.6703777 
-4.5308795 0.411076546 -15.6242552 
16.4283199 0.0152861075 16.5080204 
-15.7240963 -0.441096395 -20.1714668 
24.1579781 0.242456168 16.3911819 
-2.62665462 0.437224358 -16.7744617 
-4.69271708 0.455755293 -16.7171516 
7.65101767 0.0559282228 0.594321668 
-14.0698109 -0.343400896 24.0360565 
6.05658627 -0.149217308 -22.5838318 
15.400341 -0.172235027 -23.6708508 
1.11683643 -0.166170508 17.5284061 
-9.97311783 -0.168069363 -21.9544201 
-7.08113098 -0.0617092699 -17.3267002 
11.2835464 0.0340286829 17.7457905 
-16.1143589 0.379280806 4.93060017 
-22.3560886 0.323399216 24.574255 
-8.99715805 -0.075782761 3.50462246 
-3.40604067 -0.210173637 22.0280075 
7.97215843 0.507614195 5.09827042 
9.92406082 -0.136965439 -19.8218765 
4.69560242 -0.193312898 -19.1944675 
20.073246 0.339036763 14.9727278 
11.6812754 -0.191349953 14.7786999 
-11.595541 -0.645349145 -13.9092197 
-5.26156092 0.534309089 -18.5148392 
1.50608706 0.232064232 -19.7392616 
-19.2094154 0.19821015 -14.1598835 
6.02496433 -0.195008174 -15.0729914 
17.5696278 0.0378799215 -24.0345325 
5.91523457 0.190560251 17.3526096 
18.9685307 0.310858846 14.2107496 
16.0153446 -0.262351364 -2.64898133 
-5.69765568 0.7125476 -23.942831 
1.4337039 -0.211795047 23.1084614 
-23.0023766 -0.534816206 7.05446959 
13.9230042 -0.0841567069 1.81342864 
1.47389817 -0.175324976 20.7371693 
0.479798317 0.497748226 -15.9575434 
18.5921936 -0.189628199 -20.128643 
-1.19363594 -0.570627749 21.3281116 
6.51604462 -0.135302722 -19.8694038 
-19.9507256 0.297298282 23.1770725 
-10.7921047 0.189494565 8.27430248 
15.0348902 0.223739967 18.128458 
1.98412704 0.0300981086 20.3027134 
23.864378 0.0166785717 18.6976376 
24.4955654 0.361173034 -15.2901392 
-4.29939556 0.666136444 -17.6655102 
20.6287231 0.41945973 -7.99773741 
-5.08177328 0.612610459 24.6956654 
-11.0635939 -0.678436756 -17.0610142 
-17.5326805 0.0216744076 23.173214 
18.316288 -0.163177043 -21.0679188 
22.0859528 -0.101252846 18.989603 
9.08965015 0.317178458 -1.74043655 
25.1221275 -0.172208935 -21.9941158 
-12.3526793 0.200502872 19.2878075 
16.1669788 -0.0373510942 15.8422966 
13.6039448 -0.0879335031 14.8208113 
7.96457243 0.19287248 16.2317142 
-10.2063141 0.472487092 21.3774586 
-15.9536581 -0.370647252 -14.6823244 
-3.08465004 -0.522686064 15.2601757 
10.6275501 0.0897294581 18.6332741 
-20.744873 0.37032178 -14.3916006 
24.6913757 -0.0873172432 22.7222805 
-1.00170743 -0.202108398 23.0210571 
-8.18194485 -0.0231083669 -18.3104992 
-22.3349094 0.0617647879 -6.76525927 
-10.7794809 -0.567365587 -17.6825352 
4.34737635 0.707746387 -8.25997829 
-14.1419725 -0.409821093 22.6973553 
1.52389383 0.281722516 -16.5637188 
-21.335144 0.0466923974 19.7879486 
-10.3709259 0.455615491 16.286026 
-9.89868641 0.269711822 23.312748 
-6.04100847 -0.619182646 8.86928177 
-1.61442614 0.345232785 -19.7433014 
23.1895714 0.277337641 17.0032024 
2.016675 0.0410642996 -19.6705208 
21.0368652 -0.377440333 -19.6162243 
7.55040693 0.247268975 17.3267403 
23.1405239 0.102086209 18.3097687 
8.99378109 -0.180550292 -20.5852261 
-14.0574322 0.274177998 -2.20393181 
0.904774725 0.454258382 -14.3623266 
-21.4111614 -0.159992963 19.177702 
-1.80889606 0.187539965 -23.9840336 
-1.76551282 0.55373615 -16.7855549 
0.217973292 -0.354367197 22.9544868 
-6.80803823 0.432990074 -20.6074409 
-6.59670067 -0.37968263 -14.7700443 
20.8761864 0.299506098 0.719164431 
4.07355309 0.111920565 20.3803062 
10.5789022 0.137612522 17.4675751 
0.372476608 0.437400132 -14.4558973 
-11.0164814 -0.631365478 -15.1669273 
-18.2667351 -0.140245885 -11.5237217 
-9.00630379 -0.192156091 9.81397629 
9.68458652 0.0556977689 19.2313881 
15.4797459 0.282687843 19.3215179 
12.4492474 -0.0499929637 -20.4701767 
-12.7124414 -0.825182736 -19.2841301 
0.446694851 0.439352214 -19.0218124 
2.19234681 -0.00629738811 -0.419510305 
21.1720695 -0.453345388 -21.0739708 
1.44516933 0.310753495 -19.178009 
23.9899082 -0.41544342 3.61355186 
16.8274784 0.178971291 17.2260647 
-11.6297789 -0.791115344 -15.3306351 
20.667347 0.0966078863 9.03950882 
19.256443 0.0549598336 -19.4320049 
-2.93768954 0.417503893 -14.1904278 
-9.07315254 0.429521024 21.4028015 
22.9550171 0.365532905 16.0823898 
9.78468132 -0.033445321 22.9678154 
24.7921257 -0.682821095 6.39551163 
25.3571701 -0.163870826 -21.3391628 
-8.39743137 -0.0563030131 15.611968 
-1.79836369 -0.280866593 16.2478313 
11.4561224 0.00623929547 17.5610237 
20.1722546 0.313191205 -7.40575695 
12.2462759 -0.016618466 -19.5360966 
-18.5717068 0.0388393141 20.4085751 
-1.90498555 0.581439495 -16.4292221 
-8.15415001 -0.276590705 -17.5920792 
16.6892986 0.192318797 17.2507973 
-3.19760084 0.632488787 -22.8809719 
7.01148319 0.421268195 -4.364007 
-19.0522823 0.471330613 1.26079524 
-0.861331224 -0.3833552 19.2040138 
-8.22991085 -0.0351737328 16.0557289 
16.6169624 -0.0410448909 -24.7530365 
-4.04434919 0.586732924 -17.0841579 
-9.75013733 -0.12455947 -22.3486156 
2.84324956 -0.0420279689 -21.84758 
-6.06388807 -0.730360925 -4.94736624 
3.72808719 -0.090993233 -0.455325782 
8.49588966 -0.313544393 -23.1229057 
0.554923594 0.557869852 -16.4457283 
-13.8568363 -0.310428858 23.2837276 
-20.3419781 0.673895717 -18.8356552 
7.0142684 -0.487777591 -23.268158 
-10.8539524 -0.688001454 -14.5973806 
18.7468395 0.147814199 15.9338045 
13.3417854 -0.214758649 -20.8651505 
-1.16516757 0.466889977 -15.580739 
11.7556934 -0.131622717 18.6634789 
-12.0309095 -0.748111427 -14.2522182 
16.632143 0.119930327 18.8312263 
0.220966369 -0.267813206 16.8871632 
-0.219795033 0.389617652 -18.5024204 
20.6674786 -0.181506842 19.5073967 
-7.01923275 -0.553291142 -5.93848848 
-17.9792156 -0.0233423654 -14.8025446 
-15.6856184 -0.324358821 21.5260277 
-10.4290514 -0.532870471 -19.8700428 
11.7483339 -0.0550326593 17.5740051 
13.5957136 0.00900082104 19.3601837 
-5.48175669 0.0881496146 -15.8875265 
-0.538950086 0.466626078 -14.9584656 
2.08772373 -0.268843025 6.457057 
-3.56757903 -0.303680778 20.5953999 
-22.4383698 0.523442209 -18.1760521 
8.5394249 0.0200883001 18.7348309 
20.3404522 0.622436643 13.8302469 
-14.0512199 0.0477544777 -4.27509022 
14.4300222 -0.122403026 -24.1186256 
1.02089977 0.0335870832 15.927495 
-4.15733099 0.549526453 -15.8093834 
-0.38759917 0.40735659 -14.3769417 
-5.00849199 0.597214878 -18.9539375 
3.21473765 -0.0455524065 18.7286777 
14.8879337 0.331377834 19.0766773 
-17.7857571 0.181080043 4.80721045 
-11.3167791 0.230979607 3.80064106 
24.0712719 -0.171955019 14.2464876 
24.3920765 -0.0903043225 14.5344706 
-6.3126545 -0.27948314 1.38046718 
-4.57563877 0.422241151 -16.4329929 
9.69534874 0.0294162501 -22.594286 
-14.902771 0.286091864 10.8858366 
5.97336388 0.0467757657 2.82087064 
-12.9809904 -0.0936324149 1.55489159 
13.7164726 -0.267220557 17.9951153 
-14.7778378 -0.738826096 -16.6689358 
19.8960094 -0.0551508926 -20.7076073 
17.2679024 -0.00277540367 15.9891157 
13.9898891 0.458854437 22.553072 
-13.216754 -0.765873969 -22.5801697 
3.23462439 0.0589283928 -24.1336155 
-11.4633732 0.34071517 21.6673241 
-17.3162041 -0.0297289714 -15.6635342 
14.4984646 -0.140577495 12.0245838 
2.33105683 0.0700590461 16.074316 
-17.1355515 0.131661057 -16.3959923 
1.7408874 -0.0489050783 17.4228477 
-13.1049089 -0.772417784 -22.7133579 
23.4631329 -0.0136809712 18.730381 
0.0148710087 0.410259575 -16.890728 
-1.36691093 0.384037137 -19.6757755 
-19.0656013 0.13007924 -7.55886126 
-15.9218054 -0.384425581 -15.260417 
23.1833172 -0.68867445 -22.723341 
-11.3735447 0.11110957 23.1481285 
15.5664148 -0.294904053 -2.99482703 
-15.3405066 -0.604734063 -16.9657745 
1.36366415 0.336580515 -17.3996277 
12.7704697 -0.263183147 15.6991339 
3.50529146 0.0513469689 19.3583374 
-23.3964825 0.445545435 -15.6019306 
-19.621706 -0.457375407 15.6243935 
18.7150021 -0.0487697646 17.1089172 
-13.0169802 -0.991948247 -17.9815254 
1.65912879 0.190587327 15.0906315 
18.1201229 -0.352330029 -19.6611023 
-5.23570442 0.534321487 -19.9590015 
10.5096073 0.0360818915 15.7459822 
12.5494747 -0.0813279003 20.2856197 
-15.0093679 0.328105003 5.39470482 
1.78483558 0.223690465 -17.7285595 
-10.9684372 -0.601308167 -15.6961021 
-0.653827548 -0.147053003 11.1685171 
-1.2038002 0.17917569 -22.5222054 
-22.9336853 0.258269042 -20.583786 
-15.9003353 0.49836269 -0.347315997 
-3.95906639 0.677656054 -21.462328 
-6.94177151 0.227571025 23.9758682 
1.38667536 -0.149050534 18.1315861 
13.5581331 -0.138383627 -23.5838604 
-7.62990522 0.146769911 -18.5628967 
10.9239664 0.0749806166 18.4690952 
2.75889564 0.100825869 15.9800272 
-7.57626438 -0.471843839 -15.4546967 
-22.2306862 0.238043249 22.7888069 
10.6798849 -0.228297487 -1.66620815 
-12.1683064 -0.308198661 24.084198 
-15.8495817 -0.258620232 21.7938404 
-5.54685259 0.783396125 -23.0483475 
19.5246086 -0.473641992 -24.978384 
-9.15878105 0.520296812 21.1462555 
-5.90433311 0.0896626785 -17.1679192 
12.8459511 -0.162669346 -20.9083786 
17.933939 -0.409308851 -19.8290501 
2.20892811 0.208094865 12.7095566 
-2.35200477 -0.0437188223 5.78152657 
-0.960062623 -0.44948855 21.8176537 
-0.676080465 -0.528050363 20.0761776 
-21.8766479 0.310136527 23.691618 
-0.420958459 -0.467132807 18.6332874 
-2.12130713 0.457255214 -15.0599146 
15.3608828 -0.354942858 -22.8146858 
1.51039934 0.30579105 -19.2916355 
-6.17949867 0.0259077325 -16.5859852 
18.8981743 -0.224938244 -23.4377537 
-23.3503761 0.0926557109 22.4053516 
25.0499344 -0.431221813 -19.8022423 
-20.7294502 0.444040954 -16.1451645 
-10.9736128 -0.610839784 -16.431469 
17.4567528 -0.108060613 14.0677538 
-5.27688408 0.551842093 -19.0241814 
23.352129 -0.565090358 -20.6080818 
-5.15752363 0.323706955 -16.8147087 
-17.452795 -0.0431312956 22.1105976 
19.8873024 -0.530976593 -24.8336372 
15.8760099 -0.0915466696 15.5793314 
-22.6000881 0.455804408 -18.1565475 
-17.4714012 0.0748491362 -23.1071587 
-6.38940239 -0.209217191 -15.2265797 
16.0794601 0.352521181 18.4641724 
22.7372856 -0.123824961 -1.70402002 
-2.77968621 0.3650195 -19.4918308 
2.1559 -0.114837945 -20.9969444 
20.713623 -0.328792691 -19.6117954 
-3.56175232 -0.380241007 12.898385 
-5.60909843 -0.175117478 -15.0062675 
-23.8562527 0.39934364 -7.04064369 
-4.70246267 0.119904205 -14.5847406 
18.6379604 -0.174288616 -24.3747234 
4.60267687 0.126515508 18.0094261 
-0.34526962 0.31613937 -19.6613045 
22.3895073 -0.0868684277 7.40311384 
9.89957142 0.0648221523 16.3103409 
-6.12832403 -0.332419664 15.425168 
-24.2694416 -0.398153901 5.25711679 
14.7781048 -0.044677645 8.59837246 
-10.2037764 0.729903996 20.1403465 
2.70464849 0.042338334 16.2807121 
0.566814959 0.399538964 -18.7625637 
3.12760162 0.144281909 15.9114933 
6.60731936 -0.313245505 -23.0926552 
2.68217993 0.0157135911 18.7569523 
1.24134791 0.508955121 -14.0996571 
-0.606810808 -0.310724318 15.4707317 
-23.7134838 0.495411724 -15.5194893 
-3.97835875 0.600624382 -16.4778595 
1.74530149 -0.00826132484 21.5946178 
17.009079 -0.27479735 -7.47434425 
-0.436468333 -0.53158927 19.2030087 
-2.34765863 0.454128355 -15.4347849 
-13.4734278 -0.944693685 -16.6962719 
19.4585667 -0.161368117 -18.4423714 
-2.32673764 -0.410566747 18.7718468 
0.921220064 0.0309632849 16.022068 
-13.6263447 -0.605398834 -14.7548323 
-9.50307369 -0.347124547 -18.9115582 
-5.23053598 0.307271689 -17.0172157 
-16.9197578 -0.11885336 -15.4533768 
-8.80228996 -0.283845484 -17.423954 
-9.92728138 0.649990559 19.7672119 
4.19181347 0.119669758 24.7127476 
15.1688347 0.385227323 20.066946 
-12.7323008 -0.672843099 -19.8785114 
-14.4486408 -0.81805253 -19.3469028 
-16.5889301 -0.0609644055 20.4733448 
-0.986361563 -0.282701135 14.19454 
-19.1520386 0.189445823 -15.7866306 
-11.8048048 -0.592630208 -19.1716557 
7.5463891 0.115273461 2.43344641 
-23.2091236 0.448171169 -17.3046684 
-17.6608639 0.384770244 -19.1008072 
4.52286339 0.636189044 -7.84995317 
0.627800167 0.468208909 -15.6598206 
13.9308653 -0.212540716 -22.2046852 
-1.8432492 -0.462969422 21.7395916 
2.36767459 -0.341616124 7.18063164 
4.59369707 -0.136223197 -20.3378315 
-8.82883453 -0.0679884031 -19.5327244 
1.03588247 0.00494251447 15.4067822 
-1.57176542 0.461907834 -14.9235897 
19.566782 0.295063674 15.2739353 
-18.1162987 -0.173650026 9.31605625 
1.09734416 0.13971433 -23.4265614 
15.5905914 -0.0735098496 9.09662819 
-19.4551735 0.266894042 20.4161987 
-11.4077768 -0.0327275544 -0.461022168 
-4.95910788 0.76523596 -20.7837029 
8.28981018 0.0711233541 15.045289 
-23.0843449 0.479911447 -15.7657681 
-2.17378354 0.378561556 -23.7984848 
17.7541809 0.0636508316 15.0646667 
16.5834541 -0.00667131878 -24.3431435 
14.2868881 -0.236011326 -13.0206642 
-6.02167749 -0.239178047 -15.0325451 
-17.1181698 -0.0721274018 23.2685375 
6.74747324 -0.02918672 24.137579 
-16.3695145 0.0327011347 -23.7049427 
-11.5118551 0.0573445261 23.0835056 
-1.74496484 -0.287388295 15.1442385 
-12.2078857 -0.673896372 -19.0874596 
-19.7889004 0.216294125 20.0057716 
-3.74435568 0.344727635 -14.4347076 
0.122202314 -0.317041904 21.4267921 
17.3190041 0.0657711253 17.8784351 
5.82488155 0.279225171 15.0577412 
19.4604588 0.432180375 13.2943478 
1.12138426 0.402203918 -15.9295597 
5.34642458 0.543457747 -5.61194706 
6.64846516 -0.0648222268 24.4332485 
5.07474899 0.0601052195 19.2534523 
21.1075134 -0.578594506 23.9533939 
15.1974516 -0.0625860095 24.480402 
-7.12220764 -0.240944833 3.88540435 
-6.59638023 0.277468979 22.7599163 
-24.8244572 -0.583988249 6.05684566 
4.87800741 0.0968240276 14.8310642 
13.0346308 0.305015624 21.6422462 
3.987185 -0.063292861 16.6803036 
13.244647 -0.163839757 2.47082329 
-6.32278442 -0.163181484 -15.3510227 
-17.5761242 -0.0446131602 20.0779552 
-1.08872247 0.45607093 -16.4153175 
-17.9633007 -0.0405811518 20.9222221 
1.54460168 0.097858645 -21.697813 
-0.452456594 -0.20365648 -3.11583924 
9.18891907 0.452354401 8.62162209 
-6.33592987 0.116132118 -18.2450447 
9.97746658 0.0464703366 18.7579689 
-1.75298035 0.563299716 -16.2560406 
-20.75383 0.0757213682 20.0380726 
7.58602476 0.248861536 18.6932812 
16.7164536 0.162317604 18.5607433 
-5.45172548 -0.276823044 20.4692345 
8.83809853 0.0918257535 16.016201 
-7.79605865 -0.332217544 -0.921042025 
3.60917854 0.0132023506 14.3132095 
3.89351273 0.545675993 -11.6303415 
13.5240221 -0.298546016 -21.7818146 
17.7484722 0.100919962 15.6085892 
2.26227331 0.119118698 -17.5021935 
4.85732794 -0.147970587 -23.1074276 
-21.6172142 0.16707848 22.3386745 
-22.172472 0.261844635 -3.37019539 
-7.51956224 0.245314494 -22.6933994 
12.7604351 -0.257137328 16.9588013 
10.3203449 0.0664102361 16.8699112 
8.43229675 -0.335008085 -22.2273254 
-7.49556541 0.0564027093 18.7943707 
-4.88067341 0.688862383 -19.777401 
4.29346561 0.124603301 13.9126902 
10.7367239 -0.0702573955 -24.6715107 
4.88795233 -0.151694357 -19.8768349 
-13.607646 -0.846181393 -16.0249939 
-2.22849655 -0.294777781 17.64151 
3.56301928 -0.140834868 17.5720348 
23.3649693 -0.685599148 -22.7404995 
11.993391 -0.0711114556 17.5378895 
8.2201395 -0.340808868 -24.9621429 
-19.1664734 0.172781557 -15.3436804 
0.289282262 0.459539145 -16.768837 
-24.116251 0.0146412374 -18.0042286 
