ply
format ascii 1.0
comment created by gply, a Houdini tool.
comment converted from .[b]geo
comment for more information about Houdini, try:
comment www.sidefx.com
element vertex 1270
property float x
property float y
property float z
element face 0
property list uchar int vertex_indices
end_header
-18.70998 0.256540567 -5.33833218 
-21.7421856 0.820708811 3.41105342 
17.6000729 0.0329051539 -3.69411993 
-3.53886724 0.07178545 -12.7801676 
22.552002 -0.582517087 -7.14264107 
-13.2769003 -0.378968865 6.53613424 
-12.1150103 -0.0771381408 -5.95965528 
24.9862461 0.184439003 -0.218836188 
20.0083733 -0.14524813 -7.30298233 
15.5906687 0.248766452 2.31730556 
-4.5495801 0.00862369221 7.99299479 
-22.1123524 0.548988283 -0.289385766 
-17.3469181 0.220168144 -10.8857298 
6.71177149 -0.219185874 -7.18820047 
-14.4133816 0.238379881 -7.3580637 
6.7861762 0.226707771 19.2434406 
-4.25222063 0.029699916 0.814735591 
8.39123154 -0.411619544 -6.50076771 
-1.17749286 0.525420129 19.223053 
19.9522533 -0.331728578 13.5644035 
4.11553812 0.254633605 15.1397953 
-9.94366932 0.215419292 -9.05687809 
-12.5867004 -0.266832918 3.86982274 
-23.3480415 -0.440926611 -10.1879749 
6.81009293 0.384479374 -19.1199951 
-13.3412809 -0.102482863 4.33169508 
-18.719696 -0.397844136 -18.9757824 
23.7883797 0.241117835 -2.48754668 
19.1136646 -0.585594475 5.88965082 
-18.5567989 0.0290949009 -9.18467045 
-18.4019165 0.100902356 -7.42536688 
3.16716528 0.146353722 8.95635223 
23.1923981 -0.277069777 9.3337431 
-2.33841801 -0.350020587 -18.1402836 
-14.8649139 -0.318947136 3.28227639 
-18.0466251 -0.0674879551 4.55608702 
-5.34692001 0.0194981713 12.6049242 
14.4379835 0.933767378 -7.75727272 
-4.56831503 0.0574905127 14.4671183 
-3.77838922 -0.0379995331 2.01466918 
-22.5303173 0.853259802 9.3706646 
-9.81232738 0.318037093 -18.0717316 
-21.8997269 0.733761251 3.79820776 
9.14434433 0.0106250048 13.7466106 
-4.99473953 0.236837476 -12.8676672 
4.20844412 0.310755759 6.67136478 
-18.4288635 0.110215895 16.4364014 
-22.7236214 0.57176125 2.61988306 
-24.5952225 -0.69414252 -11.963397 
-22.3960152 -0.159803003 -9.38354874 
-4.45805597 -0.104030624 5.38236904 
13.805892 -0.196128771 12.1111841 
4.65603018 0.390337527 7.50094557 
15.7966795 0.591039658 -6.63941813 
17.6967182 -0.216285884 1.90285301 
7.43743706 0.0260698423 -13.3835201 
-11.9065599 -0.266191572 -4.34729052 
19.8909073 -0.549379885 10.0374432 
13.8760958 -0.192468926 11.9863205 
24.6878986 0.215518892 1.84290528 
8.7881012 0.0684692189 7.48852444 
1.01503265 0.176544145 13.4935093 
8.44202423 -0.155042112 0.778679132 
17.6786575 -0.0724360123 12.7474146 
-5.04533672 0.316860437 10.9407635 
11.2077456 -0.122430921 -10.2753925 
-12.7332439 -0.224205121 5.5474143 
-4.30821085 0.0600885078 -4.31924963 
-0.16446811 0.0707749873 -8.05316734 
-7.03718328 -0.152389392 -6.17167282 
3.49388289 -0.249486879 -1.94985282 
-13.7592545 0.159680054 -9.77904797 
-7.25456762 -0.0662541091 8.93883991 
15.8324594 0.678580105 -7.98333597 
23.7507 -0.173786893 10.2165699 
-16.1287842 0.0468830317 11.1691666 
-16.7541599 0.143544614 -11.4985342 
1.19436121 -0.0545231737 -10.1239901 
-21.3626842 -0.0868410692 19.9617653 
8.00041199 -0.072233662 -0.143265426 
-24.2939091 0.575452626 7.79776525 
-4.91549349 -0.234538361 19.2634144 
13.1071911 0.261345118 -5.14314699 
-15.2011499 -0.719029486 -0.419988126 
4.54953241 -0.124616168 4.66685057 
-15.1854296 -0.00189449638 -15.7420702 
14.1414051 -0.511060536 18.3979187 
-10.3528509 -0.340739667 18.3827953 
21.5389709 -0.244029835 -0.714655399 
20.2386551 -0.310264617 -22.8983021 
16.6236286 -0.393326283 8.65238857 
6.44373798 0.169239268 3.60530758 
14.974431 0.329928964 -5.13425207 
14.8429184 0.767549396 -8.34385014 
-7.77773142 0.595656812 -12.1425219 
-18.5023708 0.134703517 16.5947952 
-23.5050869 0.283948541 13.0232668 
-24.3077927 0.503365219 10.1976643 
-12.0789652 -0.250182718 3.16161823 
-19.6141586 0.30997175 2.21032286 
14.3614969 0.948787868 -7.79210186 
9.25979042 0.0979442373 11.8811617 
-0.929530978 -0.142472833 -1.00637865 
-4.73486996 0.14249301 -2.08616996 
23.3485146 0.512244165 -22.1384945 
-24.0147953 -0.135223791 18.9895687 
2.66120267 -0.480684161 3.25047469 
-0.930517435 -0.000776985835 -2.51839566 
19.9572468 -0.0528567359 -3.73982692 
17.2968922 -0.238020465 10.5058603 
-1.11738801 0.251883507 -4.00853109 
10.0685654 0.271989346 4.67783356 
-23.0774708 -0.131573558 -7.83580399 
-16.5389576 -0.265390962 20.4364052 
22.2736721 -0.109140277 -14.0669537 
10.6959591 -0.000436666422 5.58498144 
-12.668684 -0.0267924834 -8.00801563 
2.53757715 -0.177232713 -2.8552835 
-1.05222297 -0.475894868 -19.5744686 
-14.72472 0.0726454407 17.1277676 
-3.27496696 0.275847197 -1.93571186 
-20.4821796 0.700204074 6.39759636 
21.8383102 -0.445638448 1.15104473 
8.61330032 -0.110207185 0.158303544 
-7.0401082 -0.146820933 -6.0246706 
-7.13450003 -0.228651851 -0.21825406 
-8.02413845 -0.124323025 -7.27315998 
7.93332767 -0.0690041706 -4.1769495 
0.803481579 -0.0958800763 -11.1493473 
13.4144325 0.376264483 -10.8257084 
20.4420128 -0.600351691 10.239706 
23.1474819 0.324159235 -18.1472034 
-7.71157789 0.432784289 -16.6545925 
-1.90895963 0.136032224 -0.804477334 
-8.37371349 0.306502551 -16.7740192 
9.36180592 0.241974875 -19.0466518 
2.1712563 -0.282571405 0.852926135 
-9.42328835 -0.418157756 -1.48305976 
-18.0124569 0.156682938 -5.51305199 
-3.75318575 0.0381849855 -7.43506002 
-3.69882059 0.21232146 -1.82554615 
20.7001705 -0.588844717 0.242292374 
14.8581591 0.366882056 -11.7486973 
19.7620239 0.0130271073 -3.7737236 
-14.6415253 -0.415601641 8.84710026 
13.4075108 -0.217503607 12.9150152 
9.86380291 0.220806941 -16.4746838 
19.1315269 -0.10289529 -0.353730559 
-15.9496613 0.0706182495 -13.0000296 
17.7566528 0.092318058 -4.57469463 
4.3525629 -0.0706738234 11.7412806 
1.26787758 0.52564013 18.0808239 
6.29394388 0.231602803 -16.5204144 
-6.2169981 -0.0222543478 -1.37784863 
5.83823061 -0.162095547 -6.04898262 
8.99767685 -0.0029180767 1.93884385 
1.69933963 -0.405343413 -12.5094194 
0.592899263 0.161220849 15.4446249 
-5.91947842 -0.0132481614 -6.01176691 
-9.69065857 -0.50282979 16.1519585 
-10.7845011 -0.652535737 10.5632849 
-22.3484707 0.60967052 10.0490932 
-9.3064909 -0.540842891 13.2452345 
-18.5199337 0.376875818 6.99733829 
-6.2565999 -0.0580201074 -3.84330249 
15.1091738 -0.153113693 7.61730909 
17.8181114 -0.452938139 -20.5389652 
16.4848824 0.200807869 0.622944415 
13.7111235 0.372948378 -4.48090029 
-8.55438423 0.550257564 -13.7394209 
12.1995659 -0.0814673156 -6.0233326 
20.6228905 -0.395534307 -24.1801319 
-4.20239973 -0.12917158 5.5889864 
10.0719118 -0.637283564 -6.76895046 
14.8973455 0.670346141 -7.6803422 
4.43339157 0.152678922 13.6132717 
13.2571459 -0.185769051 13.4909945 
-10.7637939 0.171176389 -13.6042347 
-6.42610741 0.247738123 8.79707623 
4.66650295 -0.230107635 3.90919018 
-2.18212461 0.0966097116 2.32463503 
-12.8288717 -0.241647854 4.74925613 
-17.9432278 -0.0434335284 -13.5389843 
5.26614714 -0.147781983 2.38316059 
3.64858055 -0.159889817 -8.70858383 
-0.187799558 -0.112915754 -13.1562195 
16.3103924 0.570279181 -10.2070847 
-6.83874559 -0.291261047 1.5684799 
11.3184814 0.262395084 5.06673527 
-16.2599754 -0.267520338 4.04697132 
13.0934391 -0.00581334252 -14.4735098 
-10.0149584 0.271446884 -12.4417152 
20.7275848 -0.760484695 1.79466796 
-23.6724625 0.305177838 5.77764034 
-20.2663498 0.63729018 -1.41595256 
4.63982487 0.0165004712 11.2583809 
-8.47085381 0.360978514 -11.8192377 
-4.83725309 0.0435510613 -5.4115591 
-22.3469048 0.0982720777 18.8032036 
-10.9867916 -0.45450145 -4.57937431 
2.71835327 0.0633079484 6.30227375 
-10.4328671 -0.543805957 -1.68733966 
13.2258883 0.00921779126 17.3414135 
-4.70196915 0.116210118 -10.000844 
-4.36020184 0.126286864 -2.5720017 
24.48843 -0.49799791 -8.8358984 
24.1586819 0.230458602 18.7960815 
2.00480819 0.0878042653 13.5351639 
-16.1608334 -0.725965381 0.99707365 
-17.5222893 -0.489727467 -16.5354061 
17.277256 -0.541462243 17.7149162 
-14.9856415 -0.315158367 3.05128384 
-14.8319387 0.122434609 13.4046726 
-21.3232841 0.886113644 6.54075098 
2.26825118 -0.281125516 -18.7957211 
-18.9184151 -0.0823440403 -8.6363039 
-2.50976515 0.250328869 10.9459257 
13.3245325 -0.100030564 7.01633453 
11.2884159 -0.0319155529 17.6315289 
4.08868217 -0.205036834 -14.671689 
21.1802578 -0.487073332 10.9785633 
19.8371029 -0.0474837422 -16.3831806 
14.5910988 -0.224944279 -14.7491789 
2.72189426 -0.0398893915 11.0965643 
16.6080894 -0.707363963 24.1312752 
6.42097998 0.210443079 -17.5480175 
-17.7460938 -0.173006505 3.73483133 
6.99940634 -0.0660480112 -1.90304017 
4.30343485 0.553723812 18.400444 
-1.91146922 -0.151668936 9.6028862 
-0.407832444 -0.265862405 7.12784195 
14.7277584 0.626495779 -7.20561266 
-0.472296149 -0.468487412 -17.2635307 
11.6188831 0.709362864 1.32568455 
-1.37877536 0.281713068 17.8200016 
11.5952187 -0.0696818084 9.96576214 
4.23460579 0.281991571 6.91620016 
-16.5965042 -0.468860298 -2.66727185 
19.1279125 -0.0310197156 -5.01849365 
-1.79381776 0.545967221 14.5245733 
15.3526859 -0.237875387 7.42480469 
24.1016254 0.133528352 4.61507416 
-16.0202045 -0.673467875 -1.38402975 
-16.8337116 -0.243355393 19.9467602 
17.6130714 0.316781253 -5.41001654 
5.71983957 -0.191973686 -5.99859381 
2.50251198 -0.151876524 13.1654329 
20.6329327 -0.123199143 14.2885656 
23.5961323 0.211624727 -4.51136827 
17.6229897 0.379397213 -11.8364134 
14.4060383 -0.651208997 21.7602959 
-15.9231701 -0.095745258 7.18270636 
25.261097 0.289222538 10.7043571 
6.73951149 0.356162667 7.29022932 
-16.5723076 -0.183203787 -4.28056145 
-24.1051388 0.331285238 5.10178375 
-4.75174856 -0.257943511 19.3761444 
-20.1923523 0.62307322 -1.78241265 
7.73394871 -0.340908527 -7.03776836 
-20.2601128 0.71144712 4.27196169 
-16.7395535 0.391011506 -9.32208633 
5.77282572 0.169689909 4.76763058 
1.18792486 0.215993434 10.5305386 
18.946167 -0.130962163 -15.7609177 
19.4301147 -0.522455513 13.0943813 
-4.5849328 0.272227317 11.5948019 
3.27151823 -0.183241338 11.9526205 
2.05901527 -0.480745822 2.71492124 
10.959013 -0.0332383774 14.8609676 
12.4020948 0.0535646938 -12.9442072 
4.34581327 0.0216153562 5.45031357 
-1.95534503 0.581771195 13.3079252 
6.49015951 0.339194775 -21.7728214 
25.1855297 0.137178317 11.9480648 
-4.46503639 -0.0384895243 2.69210601 
24.8881359 -0.210624322 17.0560093 
8.85374069 -0.189228922 -3.30604219 
0.710765898 0.289932519 9.63376617 
2.13888574 -0.16643475 -1.63194561 
-9.72633266 0.397240669 -9.72891903 
-7.35405111 -0.482013196 -2.56371903 
-2.53031206 0.398365885 -0.816019356 
-0.634863377 0.447276324 20.6467094 
8.76988697 -0.0930197984 1.07678652 
5.38883877 -0.178409591 0.64294076 
-13.9577522 0.158669665 -11.7371607 
4.01526976 0.492038965 17.9275398 
5.37707043 0.30689311 7.52155924 
23.1313534 0.0909217596 -3.68013334 
21.0023518 -0.604802489 0.721699357 
6.26401281 -0.224683836 -5.61338186 
-17.0570412 -0.129283711 -13.8393736 
-7.35866928 -0.439983815 19.7855129 
12.8511429 0.0464312136 -7.07205343 
23.2292423 0.1226236 -3.56271863 
-5.43621016 0.133196756 -14.7498388 
-6.62891865 -0.125220314 -1.00484776 
-16.5858326 -0.714535356 0.621905744 
-5.21086931 0.193911761 -2.47694659 
-18.476181 0.411017895 11.1723738 
-21.6741295 -0.467860222 -12.927228 
3.25300455 0.344692022 15.8879623 
-16.7626801 -0.419138491 -18.7593403 
-21.7573967 0.115846761 -4.53855038 
12.3197498 0.112118676 -14.7143793 
9.79394531 0.125828996 5.30402517 
-7.59522629 -0.181329057 1.12982941 
18.9438858 -0.554604113 2.45362353 
7.25589228 -0.0344572179 -2.14719868 
20.3524075 -0.0434964523 -5.33849001 
4.13544655 -0.0352592804 12.2774448 
16.7965355 -0.249581441 4.80245304 
-3.19351745 0.23149617 -0.257278651 
-11.3154926 -0.0648491234 19.7351093 
-17.6943836 0.281989932 16.8723564 
-20.1651688 0.334338903 10.298975 
1.39086652 -0.257909328 1.95264518 
-23.970787 -0.294143081 -14.2331343 
-1.36524141 -0.428135723 6.40335941 
-11.5289202 -0.367085487 15.693593 
-10.9504499 -0.662331581 10.4915571 
-10.8377924 -0.412472993 16.0121918 
-14.3028479 0.0118312985 15.9644747 
22.2235394 -0.234016389 4.46735859 
-18.6902657 -0.431011677 -18.8283939 
-17.5186939 0.208079115 8.37339211 
-24.0795784 0.0986503363 -3.61056828 
3.00496626 0.169418558 7.53056526 
24.1293068 0.0537916794 -5.47100258 
-6.54822445 -0.118764699 5.1814189 
-12.5171585 0.127543271 -10.2158241 
-11.5917845 0.211819559 -13.7479019 
3.40243554 0.440063328 17.2336349 
-11.7506065 -0.409111559 14.9402313 
-8.01530743 0.279733092 -9.7973423 
-9.78905106 -0.480007082 -6.6216116 
20.699297 -0.0996388644 20.5483322 
6.73372746 0.0717283413 5.3900547 
17.971014 -0.296438307 7.44592857 
14.7652473 -0.145807117 6.69436789 
-12.5179453 0.0307033509 -8.79449463 
4.90469551 0.0478327461 -14.4603291 
-13.7611542 -0.142387539 -4.22577763 
1.1024704 -0.449490666 -15.5383883 
16.1677876 0.147355884 -1.66412222 
23.3785839 -0.0823711455 12.111784 
9.99079132 -0.0909497663 9.27324104 
-10.6654615 -0.403812885 16.9613743 
21.6975441 -0.209996 -2.02268887 
-8.30069733 0.0744808689 -8.50058556 
0.881357908 0.432533026 23.1649857 
-3.99387813 0.0214728732 15.978651 
-1.72178245 0.168630362 -2.71595025 
3.48787355 0.0498890281 -17.7974377 
-0.248444602 0.534047246 16.568943 
6.44290257 0.424813181 7.21534729 
10.0597811 -0.559513628 -8.26881599 
-6.79447842 0.481147617 -9.81166744 
3.05630445 0.572947681 23.3195 
-6.27728176 -0.264132679 3.684798 
12.27738 0.00201196037 -7.5190053 
2.62325287 -0.183284342 5.00823307 
17.6580067 0.357837796 -6.37609053 
-22.4316158 0.296212196 11.7058983 
-24.4389 0.350375652 10.8785467 
17.8233547 -0.169520512 11.4054031 
0.802914143 0.222321987 10.8605537 
-23.0983181 0.598239899 0.848533034 
-8.70048046 -0.25638029 4.45485401 
-8.25147247 -0.166638806 4.47629929 
7.53232622 0.105346285 11.7720871 
15.7890558 0.146263689 -1.59130967 
17.9818134 -0.00231864862 12.2620926 
16.4731407 -0.0338834822 2.67604256 
20.5230942 -0.162779495 -11.3294687 
-8.36879158 -0.146357119 -7.45190477 
-1.90268087 -0.381925434 -16.9501534 
-11.9689198 0.228949964 -16.802969 
3.41110516 0.141247362 8.36217403 
-3.07828808 -0.318398714 7.30394363 
-6.49649048 0.251009494 -14.4046926 
-19.9696579 -0.121812634 -7.19533491 
-20.5848694 0.0191601664 17.2561531 
-20.4647961 0.118432797 11.445838 
-1.96905005 0.28437534 -2.31494069 
-10.5165329 -0.526532471 5.31069422 
15.0350561 -0.814736784 18.9257908 
-10.7423725 -0.2413975 -6.55980349 
-21.7821178 0.781989217 5.09402514 
22.6270008 -0.745301783 -7.58919668 
3.22894526 -0.295080215 -11.9800386 
-13.6513453 0.107590273 -5.93022728 
6.52690411 -0.175531447 -5.18301296 
19.5445938 -0.351845324 13.5874434 
-7.41875076 -0.0158321708 -19.2252769 
-3.22600985 -0.0911120996 -16.0608559 
1.97382629 -0.157178208 -5.20856476 
-24.620142 -0.707197905 -11.7554073 
2.72559071 0.137959763 6.66602325 
6.90012074 0.180430338 5.93902922 
11.0204573 -0.0706910789 7.57909012 
-17.3418999 0.336005449 -7.97845364 
23.9736023 0.598535359 -22.2560406 
17.1363277 -0.182289585 -14.8777742 
-0.611139596 -0.287057698 7.1466012 
10.9332075 -0.148478299 8.64497185 
9.0600214 -0.044370804 1.41709399 
-4.98648882 -0.159726292 18.0480003 
0.820532799 -0.43322733 -16.2255993 
-2.62351775 0.138927206 -10.6336269 
-4.62464762 0.10407155 -3.04560971 
-13.3970404 0.14834027 -6.13687325 
11.8142309 0.677787662 2.79513216 
-12.6372185 0.0894454271 -11.3733845 
10.4786539 -0.153927803 9.568367 
-14.4777174 0.0400020368 -13.6962776 
-13.7679462 0.19926247 -9.26344109 
10.2573833 0.0812271833 -23.9557247 
6.46646929 0.21827288 -16.4569893 
-14.4113607 0.203691825 -12.2640047 
-0.186872154 0.579519331 16.8419552 
-12.8511105 -0.0892483443 11.8246346 
13.196352 0.384643704 -2.07986474 
-13.3431816 0.304594398 -17.5845966 
0.15971753 0.128692374 13.0044746 
14.5903387 -0.205223292 14.4856062 
17.3477516 0.425360799 -6.20799303 
-8.82041931 -0.229241729 7.11937714 
-15.3660507 -0.037720751 -4.80247688 
-7.73755264 -0.800403893 18.0337429 
8.29554462 -0.0701058656 10.5471172 
-15.9780149 0.102056533 11.2537956 
-1.20273864 0.407047987 17.3812008 
25.2829494 0.366687715 0.787802815 
3.23481083 0.0472124442 5.68798494 
-24.020319 0.690861285 9.09689045 
-14.2837658 -0.479280204 -3.24906516 
3.22666454 0.425515771 16.7507553 
-4.76730537 0.00522993505 4.44603205 
10.927578 0.115860656 13.8301554 
-12.4574099 -0.252861708 -2.18530822 
-3.38974929 0.111896798 1.82410586 
21.6175671 0.0332170427 -16.8819389 
6.38377619 0.362696379 7.6852479 
10.821311 -0.0894337893 6.67029715 
12.6780109 0.0909924209 6.101336 
14.4046822 -0.158335388 9.9094286 
19.8197231 -0.157449216 16.3731689 
-20.0860157 0.153488681 13.9580002 
15.1750526 -0.202964008 -18.1110706 
25.0690556 -0.587438226 -12.8110027 
13.6396561 0.13060315 5.05144167 
4.32786751 0.303425163 15.601244 
-5.18653917 0.0585414916 -3.79563355 
7.66782713 0.220116243 8.57358074 
-10.1763716 -0.420885801 15.8337545 
-0.251497805 0.285671741 12.2114191 
-3.03488946 0.173911035 -10.4580536 
-21.2775059 0.112550944 -4.7411623 
3.43502808 0.052553989 -18.1916161 
-4.29876661 -0.0147179887 8.69791317 
5.60745192 0.225336775 9.64501286 
-22.8873329 0.110432953 12.9718781 
-9.80191994 -0.406854987 7.49893045 
-16.8872452 -0.0552387834 -13.4276562 
2.15512872 0.10860204 9.06211853 
1.40715313 0.109302446 -7.30154228 
-8.53188896 -0.243111774 1.32202506 
18.958107 -0.131132007 14.3002338 
-22.6223087 0.646112025 3.89699507 
9.49694824 0.184071779 -24.5636101 
-23.1397972 0.33027634 -2.56699276 
6.48585749 0.301829278 16.1654434 
-17.8096085 0.300109059 -8.8798914 
-8.72378254 0.0103812516 -20.6996002 
-0.938092947 0.724736214 18.9377193 
13.05054 0.124491014 10.1299429 
22.020565 -0.309725791 3.6417346 
6.24869108 -0.216388404 -10.8806858 
13.0689974 0.123989351 9.85197926 
14.1062698 0.272008032 -2.42930365 
-23.2767048 -0.427373827 -13.1781301 
-8.5522337 0.52894336 -14.5402374 
-1.61972666 -0.388338983 -18.2588863 
-24.4155407 0.111978441 13.8614759 
-21.5038261 0.578381717 9.20059776 
-17.8654766 0.11296992 6.15987349 
17.4187202 -0.021713784 -13.9478502 
13.1553736 -0.452696651 -17.9778385 
-7.88395691 -0.08023002 -7.21663427 
-21.1231632 -0.292057633 -9.76918125 
18.4372978 0.0985042974 -5.17272806 
0.966037571 -0.189639971 -1.17007864 
5.53555536 -0.172714993 -5.27260923 
-4.13486433 -0.0075339824 1.02665961 
8.3994894 0.0722646117 -14.4273205 
19.8594875 0.0317564122 -15.4515085 
4.16245651 -0.0608305186 11.7838707 
-2.41822481 -0.216666579 -16.6359177 
-21.9151897 0.0343332961 17.6660213 
18.8058949 -0.510312378 2.53129673 
-19.7364082 -0.0991984233 -7.38442373 
24.7955627 0.288738191 -2.13388658 
1.39963138 -0.380899996 -19.3565102 
8.38827229 0.284456134 -21.5115204 
18.3295479 -0.525825024 2.91243839 
-11.3163242 -0.123009764 18.7307377 
23.1710796 0.194129869 19.6117649 
-4.25636053 -0.375559479 22.0154591 
12.1898708 -0.140032917 8.75268269 
-10.4320297 -0.406450003 4.15480185 
-21.0259266 -0.130901843 -17.724205 
0.698968649 0.19886677 11.458519 
17.9512825 0.260603935 -12.4710484 
3.8869195 0.0452011339 8.6852169 
-21.1842117 0.494020641 -1.84119439 
-22.0290184 0.037594419 15.5930042 
23.2351055 -0.037955787 13.3189535 
-7.58654976 -0.132701814 -24.4630985 
-15.585392 -0.197445288 7.7920785 
-24.0123158 0.0444671065 14.6674662 
20.9799976 -0.301837862 -2.17470002 
14.2962561 0.544577003 -9.48051739 
0.304011703 -0.160095602 2.21933866 
-16.6119175 -0.00324608339 10.8947973 
7.97787428 0.231189936 7.82597017 
1.37591028 -0.096198909 -2.88371205 
18.4989376 -0.440209538 9.38230324 
-22.7103233 0.669442594 -0.399456948 
21.4998856 -0.219418421 14.9498262 
-1.1554414 -0.00294205174 -2.49455214 
16.4624214 -0.176174268 13.3027267 
13.2797003 0.0102487011 -13.3776808 
21.3962917 -0.401438445 -11.1931562 
23.9366589 0.270958215 -18.2891979 
23.1375694 0.0824286193 19.2349548 
-0.982738376 -0.056528762 4.90205097 
6.69967985 0.327994257 8.76846218 
-17.3053875 0.0455332473 7.92819691 
2.0441432 -0.400430977 -15.6451073 
-5.26565695 -0.244311199 18.0511265 
20.7202148 -0.613377929 0.40537554 
0.821543932 0.16788438 13.6352482 
5.54894829 -0.195301861 -10.3800306 
-17.369009 0.195192248 11.1126099 
17.7574596 -0.251381099 10.5050507 
8.26494789 0.0776002854 9.13493633 
-7.55711985 -0.4808442 -2.40131307 
-13.3081131 -0.480185747 -0.296585977 
-23.0520496 0.0341289751 19.2187691 
25.0473919 0.262212664 -1.12594771 
-5.77177143 0.585980594 -11.6582937 
-23.1218777 -0.507792532 -12.0612764 
-22.8356438 0.862268507 8.0836916 
-15.0363903 0.10987968 18.852478 
-21.3472805 0.442755729 9.86328888 
-19.1431084 -0.414953589 20.9209175 
6.18231344 -0.130859911 -6.23214197 
-18.2688084 0.355215877 7.53372812 
-4.20031166 -0.096509248 6.24189568 
-5.74815035 -0.14717178 2.78956175 
12.306776 0.414421678 -0.0409188494 
8.13223457 -0.124100573 1.53502369 
3.91298771 -0.24482137 -6.29914856 
16.5496597 0.559660912 -5.60908031 
-4.06638956 0.0355956033 -4.64413452 
15.4241943 0.148007154 4.62425709 
0.79920429 0.504693389 17.4827061 
11.6257753 0.183010355 -13.8346462 
-12.321022 -0.275370419 9.74363422 
-20.7109203 0.726614594 6.27408361 
20.7912292 -0.0250406694 -4.87725019 
19.0240135 -0.470251292 19.6095238 
7.83371305 -0.00586534105 -1.18176651 
6.59601545 -0.0819706917 -1.50738919 
-14.9263859 0.165131301 -13.133111 
-3.78826261 -0.0464698672 9.45091438 
-15.1386929 0.108000353 17.2569485 
0.582304478 0.595211983 18.5475502 
-0.697247326 0.439195722 16.6943913 
7.74680233 0.531441927 -22.0133591 
4.84996748 -0.210505679 -0.901331306 
-24.6357346 -0.0124107916 15.1558886 
-6.46178007 -0.125405908 -1.51613772 
13.2597284 0.364110082 -7.75001001 
-12.9484196 0.160053715 -10.9449415 
10.7783623 0.309138477 -13.6418152 
0.00242863223 -0.100037865 -9.07173157 
5.70063114 -0.0774773434 -13.3011675 
-13.2988644 0.0386706665 16.1083603 
-21.5632648 -0.274403304 -7.13598537 
-19.8726921 0.0780469477 14.3775635 
11.6078644 0.20933722 -11.9545546 
8.9649868 0.0394756719 6.23812294 
-21.1254005 -0.10599988 13.6074781 
5.9576025 -0.0315829627 -0.475048304 
-23.2431641 -0.169079572 -8.04274654 
-21.5481892 0.483525097 10.091918 
23.6516705 -0.418868661 -13.8685446 
14.8151722 0.581330121 -7.07997847 
-21.9012089 0.880793571 6.4084053 
-6.53282785 0.0560303815 -7.4535799 
9.47380638 -0.231959984 17.9205246 
15.3199234 -0.243298799 13.8482342 
1.63963413 -0.119460568 -2.77541232 
-0.53696394 -0.0440110564 -13.0569983 
12.591979 0.0844277218 -11.5160561 
-10.9338188 -0.153535917 -0.108498991 
7.18103027 0.216601148 13.9452333 
8.45836258 -0.521232903 -8.17020226 
-15.9208021 -0.690115213 -1.70915139 
15.3017693 -0.159694254 -15.0843801 
16.2979031 0.0149831548 3.73027968 
-20.3390942 -0.0590552166 -5.48899984 
21.5091038 -0.471426398 3.24603605 
16.6901588 0.519382358 -5.20088243 
-22.5547714 0.598534524 10.6581841 
1.16295373 -0.241449848 -0.612940013 
23.6558342 -0.40025267 -14.254324 
-22.1817055 0.884209812 7.25215244 
8.87622166 -0.137205034 -1.7264452 
16.3532162 0.114241451 2.15407991 
-11.6340542 -0.330975771 16.2672253 
2.92451215 0.0825095102 8.42454529 
-1.04602444 -0.0609620325 -7.65457106 
24.92733 -0.75961262 -11.5026264 
-15.9646473 0.129407898 -12.1399231 
6.92953396 -0.116071418 -12.0960636 
12.3572884 0.728905559 3.70387983 
9.4671917 0.3294442 -17.8351898 
-21.2555199 0.26792556 -3.80662727 
9.23949814 0.0608092584 12.0823984 
16.3743668 0.156960145 -1.98399317 
-23.1473064 -0.0371639654 15.602519 
7.66670799 0.274796724 6.58152199 
-14.8933296 -0.0283735506 -18.5885124 
19.1514454 -0.271099985 13.8518896 
-17.3077698 0.137559041 8.61614323 
4.85865068 -0.199869886 -4.99898148 
-13.9335403 -0.264994472 -3.58836985 
-7.26875496 -0.470601201 13.3064985 
23.2494297 0.375924677 -19.7902203 
15.2776203 -0.653781533 -24.1731453 
19.9656181 -0.529295027 4.45717382 
22.292841 -0.0506854951 -0.7894575 
23.8102703 0.189979076 -16.8140278 
-1.00629747 0.626600683 18.8363304 
-3.04529047 0.166655391 0.800352871 
15.3152494 0.13121286 -0.0845661983 
24.5277767 -0.314120203 -7.65603924 
-24.3227177 0.338715553 2.89244866 
1.33077741 -0.0685557947 7.27302265 
1.7065239 -0.227709875 5.32102346 
24.6334133 -0.467735052 -14.4761715 
24.6566486 0.877588332 -24.044529 
24.3854561 0.661536276 -19.4345894 
-8.38679028 -0.269585162 8.52442455 
-9.38585186 -0.64014703 -3.20802498 
-13.4168835 0.128473744 -13.0192347 
14.6475382 0.805579424 -7.88404083 
16.2639809 0.528345287 -11.2034464 
14.4382057 0.0155260134 -12.7295761 
14.3835783 -0.332119226 -15.974371 
-23.2123795 0.726731837 9.10974884 
-13.8694077 -0.543592572 -1.49593687 
-9.52679443 -0.546532929 -2.58669496 
-2.84362292 0.0678375959 2.25403666 
3.39730144 0.112479754 -22.5338135 
1.9767698 -0.0213500187 7.0403347 
23.3954468 -0.293567449 -14.4793262 
-15.4947472 -0.312284023 8.70193386 
-3.56884575 -0.0939763561 -18.4791965 
-9.79081631 -0.612555325 12.679306 
5.26628971 0.185626686 9.47416687 
-0.181903809 -0.295283556 -15.2867632 
25.3678188 0.681255639 7.91456318 
-14.7994699 -0.093534492 4.98912621 
-1.63684416 0.0371908024 -0.527889967 
-10.9031448 -0.0527572632 -9.07868099 
16.6147976 0.198460475 -2.1850884 
-20.9268169 -0.200425029 -12.9998608 
12.5605698 0.666229427 3.41268301 
3.73585629 -0.345060587 3.72425723 
-1.68262625 -0.190764502 -13.9434767 
-18.9079857 0.18656604 -0.539215565 
-18.8302593 0.319774896 10.7942133 
5.54625797 0.260395586 9.36699772 
-5.26738167 -0.156901851 0.0289342627 
-13.9039993 0.289408267 -7.8518858 
-24.3149853 -0.508557439 -9.3263483 
-13.8899279 0.0972252935 -12.2696505 
7.81343031 0.490368098 -21.4461613 
24.140564 0.321254164 6.71175861 
-22.6645794 0.554855704 4.9281311 
-2.25069571 0.0576495044 -9.59790707 
-7.91644716 -0.235635698 4.93486643 
-6.05443573 -0.0859129727 11.3964815 
13.1620617 0.354678333 -0.0237007439 
-1.44660902 0.0768153369 2.12858248 
-3.92877364 0.184750959 -0.520843744 
-14.0157442 -0.212156445 2.21756053 
-12.6603336 -0.014199174 -5.55109215 
13.1332483 0.0345724747 10.5429144 
21.83354 0.0255118087 -14.3653955 
16.5084286 -0.358118623 11.6375179 
-20.3227043 0.636999965 3.9338131 
-11.2653465 -0.350862622 -5.69571066 
24.9692631 -0.172336459 -6.22110367 
-13.8842449 0.0843798071 18.066927 
-19.3252621 0.23612161 1.36588883 
-7.79472637 -0.285615563 10.5057116 
20.1052704 -0.483186722 11.752737 
19.8655968 -0.689590037 3.03662896 
3.50801158 0.124881983 8.43499374 
20.0089588 -0.208045781 -1.07841313 
-10.5446272 -0.0895013809 0.590309262 
16.0455189 -0.139601156 6.38659763 
13.6699266 0.395304859 0.106720708 
-4.123559 0.170739129 -10.9698353 
24.1835518 0.0542345047 18.1287003 
-20.9535294 -0.377615511 -9.48703861 
23.2397022 -0.158138737 17.8182697 
-0.116556913 -0.113632768 2.64342093 
3.11208963 -0.276899189 -15.6113377 
5.01116562 0.318996698 8.38462734 
-18.1879387 0.319328457 8.39605713 
-15.9738092 -0.11888589 22.8420982 
-22.4847107 0.586213112 10.5389366 
-14.5000486 0.279139936 -6.87415552 
-8.35478783 -0.553237736 -3.40522075 
-14.2215033 -0.451239258 8.18841553 
-13.629365 0.145005479 -10.4616413 
-14.4467783 0.190396115 -12.5851727 
1.68646681 0.138541535 8.56467819 
9.93679333 -0.605916381 -7.71312714 
-19.0528812 -0.0193641987 -14.2405987 
-3.35674787 -0.0314251147 3.77139854 
-16.4339657 0.246415436 16.1666698 
-6.84586906 -0.326507747 -2.23689079 
-2.48299479 -0.020504985 2.70830512 
22.7153625 -0.0331973396 1.86826861 
11.9503012 -0.0799627528 7.64382935 
-24.9454002 0.081621781 -4.52528811 
7.64965248 -0.235629991 -8.53197479 
6.46530104 0.220429957 -15.6316032 
-23.828928 0.428139508 4.21715593 
2.06716681 0.156943023 8.34032249 
18.2882404 -0.319791913 10.8302422 
2.13351893 -0.0755229294 0.199730903 
8.66121674 0.0665502027 3.12666893 
-7.79906893 -0.159309074 8.1886797 
-13.9435997 0.24532561 -10.788106 
-0.574893177 0.433287919 16.5902863 
19.2396221 -0.706852317 4.17851686 
-0.333570093 -0.444624215 -17.6754246 
-9.49007607 -0.315259576 7.12107229 
-0.875943482 -0.116956919 -1.43600655 
8.03477669 -0.352274299 -10.0461473 
5.63971186 -0.0144285951 12.7526522 
-9.62647152 -0.476864576 15.3454237 
-22.8223419 0.148479074 -18.444582 
-3.68237185 0.217951119 -9.52684975 
16.3178616 0.578111351 -9.25302696 
-7.17569208 -0.186385557 -6.08411932 
-2.54625034 0.509688854 12.7400846 
25.2850513 0.422214985 1.55697465 
19.8205605 0.15007998 -13.8400068 
24.0228062 0.326514512 -4.14878464 
21.5178051 -0.190429315 -24.3824215 
-4.19146395 -0.29553175 23.1250839 
6.85231495 -0.00412902562 -0.233149841 
-21.4656677 0.920675337 6.37942982 
-24.2831841 0.317157358 -2.04538941 
-8.00418758 -0.166424096 0.886206985 
3.83282423 -0.0105506945 12.5518675 
17.5269585 -0.43291533 5.81707573 
17.1333046 -0.314589649 -18.812336 
1.5222708 0.0677647889 -7.53081369 
13.1582422 -0.17652069 13.3049431 
-3.31528139 0.114885263 1.35266376 
-21.0954609 0.276272982 -3.76998138 
11.5565596 0.323757321 -14.5499821 
-6.52384472 -0.103678696 6.41543913 
-24.0878811 -0.566870391 -10.2355938 
8.61691856 -0.259777278 -13.2250214 
-6.73736 -0.238576204 22.8653603 
1.97662067 0.593904912 23.5713272 
16.2821865 -0.237320855 6.89896202 
14.3422117 -0.547645807 18.2397118 
7.9093709 0.035079319 2.60362959 
23.6787491 0.232033655 -18.0603848 
-8.39539146 -0.617189288 -4.74418879 
-0.311869144 -0.108238094 -0.681422412 
18.3213978 -0.781247139 4.21803808 
-7.045084 -0.273780882 -1.15382302 
-19.3573723 0.0696332231 15.4157267 
24.0666733 0.258280188 6.5699296 
10.1472292 0.169897243 12.0777617 
7.41271782 -0.0692447573 -4.64371538 
19.7036076 0.150033727 -12.0768795 
-7.40237713 -0.140081257 6.32334852 
-21.4664936 -0.316364706 -8.20924091 
-4.44410753 -0.338584691 21.4081116 
-4.02980518 0.152834371 -10.1460133 
10.4583988 -0.364038259 -10.0610075 
-13.5786619 -0.508585691 -2.01935387 
-20.787714 0.0877973884 11.3772783 
-1.11808109 0.250091851 -6.43867588 
-23.190546 -0.197841674 -8.56869793 
-19.3813038 0.388366163 11.2546253 
16.3956413 -0.0355364941 3.94494653 
9.4442873 -0.642541051 -7.45600557 
7.33850431 0.259599417 6.60311127 
-15.0545778 -0.373522401 9.1832304 
-12.7476454 -0.242175937 3.07177687 
-18.6465816 0.584665358 11.638463 
13.4084616 0.318658918 -8.44380665 
15.2909527 -0.158203349 -17.5443096 
-20.8791809 -0.260925949 -13.9903193 
14.8997889 -0.71453619 18.7940884 
-19.37047 0.405685395 10.673439 
12.4881878 0.321583301 -0.39814055 
17.0604687 -0.232379153 -15.9691839 
18.4683437 -0.561999381 8.21493244 
-15.2609119 -0.292077124 -4.1814332 
-1.59654856 0.159886599 -5.49354696 
4.27496815 0.0713751838 -20.2929974 
12.933053 -0.19353193 12.9386988 
-0.987894595 0.351807147 12.1385002 
-16.7695313 -0.262561888 20.3959999 
25.0878792 0.133735374 11.2023849 
17.1260548 -0.522939086 17.5584278 
6.38047123 0.13595435 5.57696295 
-8.67259312 -0.190159738 6.65584803 
6.93460083 -0.307185858 -9.50848866 
8.73558235 0.0409402102 6.87357092 
2.4443047 -0.154936939 -1.77061248 
-7.40963173 -0.224970803 -5.09980059 
14.916132 0.313701898 1.7713089 
-14.8542271 0.0259415209 14.3590565 
-24.1281776 0.282693595 -18.1811104 
-15.3126326 0.0955176726 16.9132118 
-3.12957478 0.0456806831 10.654603 
12.1067095 -0.0972670391 12.2296438 
-13.0745173 0.0723408163 -7.57422304 
-13.7324915 -0.0974588245 11.5715771 
19.1903706 0.175558165 -6.83882904 
-21.6902943 -0.152042001 -6.78060198 
-18.9815922 -0.368277669 -16.9305592 
-2.99012208 0.296353638 -0.84578675 
-10.5814047 -0.239283636 17.9467106 
24.6469574 -0.205859989 -15.5196381 
12.6189833 0.241072491 5.3452177 
-21.911623 0.51595825 -0.396785945 
11.9776583 0.0514315814 15.3897305 
-3.02117252 0.284635454 -8.99917984 
-0.504090428 0.161214262 -7.15689516 
-22.9695969 0.581516027 11.2244291 
-15.5213289 0.202177256 13.5844183 
-16.1792717 0.160200551 16.6698723 
-19.0451813 0.141951248 -3.52970266 
-14.6168966 0.286278695 -10.4155655 
16.8319378 -0.643164456 -24.4276257 
-24.714653 -0.413845986 -13.4925585 
-7.22439814 -0.468877375 13.7839642 
14.2141399 -0.334516674 -16.536932 
21.4278717 -0.270724446 13.7055407 
24.6831875 -0.734110355 -11.8816805 
-0.542139471 -0.0518392734 -0.228364214 
-23.9384689 0.465885252 7.34594011 
-24.4060421 0.213935137 -3.25908971 
7.23806667 0.0329736881 1.08508801 
2.17621374 -0.499356985 2.57165027 
-22.3283577 0.105635114 23.1688175 
14.7000656 0.425643384 -11.0546532 
-13.75459 0.332738459 -17.2853355 
1.6542995 -0.0750207976 -1.82099712 
10.2558289 -0.16186361 7.43037987 
3.21049237 -0.428254336 3.9169867 
16.5380917 -0.0578068867 14.4930286 
-9.14447117 -0.241260976 2.93236351 
21.6279564 -0.0140863433 -17.5777206 
-5.96479702 -0.000488508493 11.0886898 
-11.7121735 0.317234814 24.053133 
6.13792515 0.0266712233 -0.804938316 
-9.60427189 -0.395522177 -6.90647459 
-6.47153378 -0.206160516 13.4948263 
-23.7673378 0.290937185 5.21713018 
-4.24180365 0.0822213963 3.72942901 
-15.9486866 -0.721481502 0.913457692 
20.7829933 -0.112191521 16.0527897 
-11.065114 -0.445893586 -1.15994692 
-23.4478912 0.476898104 0.194096893 
24.9119644 0.0356702395 12.1521473 
-16.2289772 -0.177529365 6.24241781 
10.2294216 -0.547107935 -7.54960632 
8.6153307 -0.225082904 -13.3501492 
-15.1343317 -0.289099127 3.12309766 
18.0834999 0.419730127 -10.9864388 
20.3436928 -0.147411168 -9.31684399 
0.790373564 -0.0695790201 7.79447842 
2.78076077 -0.190573469 -10.3891563 
-2.91907549 0.18212533 -9.69928741 
-11.3638325 -0.279219538 -6.10040903 
16.8295784 -0.24089317 5.24739313 
-23.003027 0.70008409 9.75949669 
2.90559101 -0.496875048 2.34904099 
21.1921253 -0.116090693 -13.2884836 
-13.1939774 -0.386063665 7.26758766 
-22.5523109 -0.0953729451 -4.72245789 
-5.88914251 -0.372326404 15.7594023 
5.38256645 -0.308396608 -7.98938084 
-18.693121 0.127794832 2.5422945 
-24.5676384 0.295967788 0.281471282 
-12.4918327 0.360346615 -16.6730366 
15.1154404 -0.0567559451 -13.9308538 
21.7308407 -0.626884043 -7.98931551 
-4.74772549 0.0245764814 -9.43178368 
-14.6692753 -0.171594635 6.01001835 
-2.86324382 0.327603281 -2.99376392 
16.4675159 0.287194103 -3.121732 
11.3191462 0.0241819564 6.85892439 
6.42084312 0.0251461845 0.66352272 
6.51430273 -0.210708633 -7.85859346 
1.09320903 -0.0924426541 -2.98427701 
15.8068075 0.711438358 -8.41879463 
24.3601036 0.722661018 -20.4850426 
24.1718102 0.690348268 -20.2580795 
-0.852879703 -0.0294449851 -12.1266432 
19.5500412 0.11165905 -8.28309059 
-14.6013098 0.0737783313 17.266201 
16.9824829 -0.428231776 16.3012543 
-17.1708145 0.0164160188 8.04482555 
7.87470818 -0.0658533275 -0.459909737 
17.6152096 0.0263639744 -2.35108352 
19.5199203 0.0528200902 -9.75395775 
-8.84525394 0.225280479 -18.0862064 
17.6718025 -0.314186096 9.09411621 
14.1648798 -0.16455698 11.4625463 
13.2392282 0.300180227 -4.66581631 
-13.2888622 -0.139735237 14.551754 
22.8543282 -0.433903426 10.4698172 
-7.85319805 -0.417537004 -3.34095478 
19.6134052 -0.0345551744 -1.88669086 
-22.5224247 0.0200400483 19.3788757 
7.90676832 0.314319581 12.4412832 
-19.1662731 0.467374504 5.31318808 
20.9350796 -0.535823166 3.27312684 
-6.07225657 0.00220592506 6.92047358 
24.5881596 0.170480773 3.89031696 
24.1249828 0.323991925 -4.17009974 
2.3202095 0.179473475 7.66382504 
-1.15569103 -0.0533654392 10.2814293 
17.8167114 -0.39120394 8.67849255 
6.85713243 0.0535899512 4.61640882 
15.7767038 -0.296366662 7.94312191 
3.32760406 -0.351154715 -13.4799595 
-2.24830604 -0.258390307 4.71012068 
-13.6915894 0.0176984798 -5.50143957 
10.2104549 -0.618593574 -7.05336666 
18.7323055 0.186409637 -6.90568066 
-8.30753517 -0.135299593 4.14302492 
16.6922073 0.237721771 -2.81179166 
22.85186 -0.441603631 -6.78644991 
8.83956718 -0.528934181 -8.89941311 
-11.0593481 0.230864987 -13.6645889 
-18.057272 -0.110258698 -0.348825634 
13.5203276 0.459709376 -5.85546541 
4.77468777 -0.188578635 -5.18589592 
10.5488615 0.0270329826 10.9061365 
-16.5086212 -0.0107531501 -12.7602768 
-17.6467152 -0.474974126 -16.3544025 
17.1853161 -0.358014673 5.96019411 
2.9117763 -0.2311057 -6.23980331 
-8.69406509 -0.61647296 -5.00572634 
-0.195986658 0.332958192 15.0368299 
-19.4896355 0.236770481 1.92028892 
13.5535574 -0.498256922 -18.0955715 
1.55434394 -0.0392063446 -10.4012365 
-24.2028942 0.341236234 0.11326047 
-17.9622459 -0.0493601933 -12.5492001 
2.7356205 -0.111592777 -4.86499786 
9.95051861 0.178605303 1.89328218 
-2.30061412 0.292295784 11.1810017 
13.7115288 -0.125252828 13.9534893 
-21.4799271 -0.00193186197 17.1197529 
-15.7031164 0.189701483 14.9141359 
-21.8443432 -0.26224038 -9.90715504 
21.3662567 -0.0671332479 17.8000679 
-6.2485199 -0.0938667953 -2.72219563 
6.47839928 0.184110001 -15.2295876 
21.1490479 -0.52956301 -10.1740036 
-18.2357597 0.344484955 7.37810898 
10.3059006 0.480338812 3.48297715 
-22.9725342 0.66156292 -1.01092339 
16.2618599 0.590836704 -9.12963104 
12.8533163 0.177216634 -8.69920158 
13.4538536 0.18472077 4.53915787 
7.09422159 -0.329510301 -10.3613882 
-15.2342939 0.0852066427 17.8954544 
5.00558472 0.181693494 13.3278561 
-11.3242817 -0.553790748 10.8705339 
-8.52150154 -0.258190006 1.15111411 
-21.0140858 0.0267353225 -5.68398571 
14.3061256 -0.0940947011 8.48021603 
-2.45322537 -0.0174074806 -7.99760151 
18.6874638 0.459973603 -9.73398876 
-9.17731285 0.365767479 -11.606473 
-20.421236 0.602361798 7.04320049 
-19.4856014 0.0543916039 15.1727085 
-22.4051952 0.681876421 4.89263153 
-20.4733887 -0.289902627 -19.3326378 
-4.01366282 0.0219104961 -5.30930471 
-6.56255054 0.126231536 -15.9263391 
-20.2273731 0.573462188 -2.87150288 
22.3562641 -0.144915402 16.9593639 
-23.3569946 -0.408385098 -13.6814127 
16.5859833 -0.142711729 -14.9550667 
-21.8996716 0.00956792198 17.9376945 
10.9885693 -0.112829171 8.16226864 
-15.8845005 -0.0859297439 7.02817202 
8.36089706 0.0204037782 19.2598133 
-3.19743824 -0.259094536 5.838902 
20.5675011 0.165508136 -17.6653576 
-8.27349567 -0.734530389 18.2986698 
6.58147001 0.119058877 -14.9287224 
9.06198692 -0.18732281 -2.80123806 
-13.6942005 -0.353319794 7.70806313 
24.5502949 -0.571274817 -13.8795767 
-4.37940311 -0.481811911 -23.3352089 
5.48507214 -0.181625351 -2.21848774 
5.90766764 0.180126637 11.0030231 
-20.6684589 0.528171062 -1.81598282 
1.49993026 0.0725324154 11.2683687 
23.3752441 -0.118754447 3.80350637 
13.1470118 0.303044885 -10.7314377 
-8.21406937 -0.223426476 -6.79979515 
21.0729027 -0.392407835 4.10215807 
21.4592705 0.0519186966 -19.1594849 
6.87668848 0.0341986157 -4.14570236 
-17.130188 0.245954961 12.4289656 
15.447608 0.426118076 -10.8852558 
-20.1718559 0.658720613 6.38362694 
8.59191704 -0.559704423 -7.67816019 
-4.4100976 -0.118727885 -8.15577698 
-12.3718109 -0.378197491 0.221016079 
1.68176711 -0.0988436937 -5.70952177 
-22.946806 0.106071621 -17.6862679 
-12.6379356 -0.295021027 1.53457165 
3.29881692 -0.0249027945 13.9487581 
-23.3855877 0.295589 22.3893585 
-3.2522819 -0.0860858858 3.95731592 
6.43298721 0.200201795 -17.7386246 
-20.227396 0.399416327 1.5140717 
0.952783585 -0.127112493 5.67745972 
20.3302822 -0.353809237 13.2906818 
-8.79728985 -0.751717508 17.9174042 
7.65232849 -0.0250948984 -1.3871727 
-4.92013025 0.295112103 10.5580568 
-12.2037153 -0.296237707 14.5460606 
-10.4823017 -0.57309413 -2.05085945 
1.75617099 -0.240347311 5.00279474 
8.50169468 -0.0042170845 2.63435555 
23.7129498 0.231596068 -2.75985789 
-22.0624485 0.238457948 -2.41910553 
-17.1361713 0.259589583 -10.5251904 
-23.7639542 0.457538933 11.8360586 
-19.8137341 -0.299129039 -9.73489761 
23.762455 0.0326591134 7.09002447 
-6.49612331 0.739413977 -12.2050447 
6.02615356 0.219551399 5.38295984 
-4.70032167 0.00369258178 -4.53926945 
-18.3707161 0.201418072 10.21984 
-10.0882187 0.0553849451 -8.31308556 
-3.32198811 0.271134079 -8.96485043 
15.3690271 0.680254698 -9.59062767 
-10.5579224 0.384390742 -16.1186886 
-14.2107983 -0.475511461 0.54895705 
-17.3507061 -0.0540336519 5.36950541 
-2.49719977 0.210569665 -3.65084147 
-19.8753681 0.347470641 1.5754652 
-0.212709785 0.223642498 -5.53313637 
-5.0490098 0.00728160702 -5.5179224 
19.9942169 -0.0891513154 14.8881388 
13.5759811 -0.000180763192 -14.4501514 
-3.60364866 -0.130871102 9.45743275 
19.0321121 -0.100232512 15.8255281 
-13.7930737 -0.112021498 13.1250172 
-14.4394054 0.212966725 11.5751629 
-1.89800346 -0.468005955 5.96778393 
-9.10636139 0.244418681 -12.7925816 
3.1941433 -0.363622397 -13.6203737 
-11.242898 0.243245423 -12.6331587 
12.5392399 0.561128676 1.45751345 
-12.2620735 -0.237892568 14.9247646 
2.32045174 0.16729486 15.2095184 
-24.0935574 -0.612008929 -11.2974215 
12.5675869 0.409298956 4.33572483 
22.7505627 -0.284971267 -13.7705116 
-13.7245407 -0.378570408 7.14725018 
22.628706 -0.117099881 17.3371868 
-14.4007607 -0.60491091 -2.11146379 
-7.10425234 0.65832603 -11.5096388 
4.05544424 -0.188205272 -14.8179598 
14.3123484 0.68315196 -6.71396828 
-2.66490173 0.422365546 -2.24161625 
0.691251576 -0.193491697 0.310679793 
-2.86874008 -0.139684469 -18.2129745 
-5.75799799 0.15129225 10.8195896 
-22.4281845 0.876146734 9.11072636 
14.5379848 0.310007781 2.35528541 
-5.08064079 -0.0163942017 4.09608221 
-2.93740988 0.325031757 -2.87064004 
-13.3362379 0.0812570378 -5.88186121 
19.0386086 0.108664602 -2.22142291 
-11.563674 -0.265562326 1.61839449 
-4.20134115 0.0967689306 -0.862516761 
-20.7659225 0.470637172 -0.120153815 
23.5915642 -0.0525978878 3.91715217 
5.70178652 -0.100316413 -0.962876976 
3.16363668 -0.0260329247 11.0508852 
-14.017498 0.0213016141 15.7148571 
14.813386 0.398909152 -11.4459038 
-1.27143049 -0.258351713 -15.5568218 
2.53733635 0.179912925 7.1855216 
-5.28687859 -0.221870497 0.860102534 
2.91796207 0.129439592 7.96087694 
20.793911 -0.465441614 -0.44920674 
7.38002586 0.016015172 -3.44784808 
13.3114185 -0.074201867 10.865777 
-7.19656134 0.340110332 -9.22638226 
-23.5832195 -0.370637894 -9.30413246 
-10.4088326 -0.423422873 -0.999748409 
-3.81642723 0.166955099 14.8521976 
15.2303858 -0.228836432 -16.8726902 
-0.618760169 -0.0506527424 3.27735424 
18.9609241 -0.538745105 6.11812925 
22.769186 0.236771762 -19.8808212 
4.95635128 -0.00125547848 11.5828724 
-18.9500771 0.0538461357 16.1278477 
-22.1455173 -0.0221146941 18.1451836 
-21.1885433 -0.104416363 19.3499851 
20.2315273 0.0234936439 -16.6053886 
-22.8829823 0.887381017 8.64267826 
-1.24757659 -0.339724869 -18.2851086 
20.1786366 -0.546750486 10.3477631 
-3.26119614 0.143473312 14.7899227 
-13.8349543 -0.124364078 -4.38195038 
-16.1142273 -0.547857046 -2.85155177 
12.8386374 -0.43870464 -18.8538589 
-24.3767662 -0.372878104 -8.30628109 
-10.0811663 -0.3407242 4.18075657 
-2.01546431 0.0346288718 -9.75298882 
-18.4246807 0.0767390206 3.88349771 
-20.7916298 -0.066121839 18.0890484 
5.93328428 0.436717957 16.0460281 
-1.58743322 0.0493826084 -7.46338701 
-1.13922763 0.387858868 13.157486 
-6.87617207 -0.335996479 2.48259926 
-8.65333271 0.495968521 -13.6820412 
5.4240613 -0.248047799 -11.9144678 
12.8840952 0.227869064 4.685215 
1.05997825 -0.184566423 0.578402162 
-6.39576054 -0.267476469 2.7018497 
21.2411823 0.0644370615 18.5015411 
23.1291428 0.14851585 -2.65540361 
-15.4665699 -0.746054053 -0.829324663 
0.878610253 -0.264689416 -11.9280758 
23.7139473 0.138772979 -2.06082678 
-9.44726276 -0.279705286 -7.15852785 
9.32379055 0.2536349 -15.8147554 
-5.0323019 0.0974170044 12.5187311 
5.62610579 0.13496089 -14.9883766 
22.460556 -0.40956971 7.60355711 
-11.1224051 -0.338178486 6.66153431 
-2.14731288 0.0585662834 -10.1808519 
-2.7401371 0.340137511 -1.04937112 
-18.9052773 -0.403760254 20.6853352 
11.0516739 -0.332844734 -8.3989296 
-20.5557594 0.171534598 -4.42612028 
15.2099333 0.251524538 -12.3664942 
22.5755119 -0.87725991 -8.198246 
13.9451885 0.694566309 -7.8742609 
7.20301819 -0.198435128 -6.08370781 
18.3385735 -0.0974116698 16.4331627 
-22.1575928 0.587524652 0.459704012 
16.4102764 -0.224207416 -17.9157925 
-23.4248562 0.210573405 13.3453846 
15.9396267 -0.0873927027 -17.259409 
1.3791306 -0.323280036 -11.8094206 
11.7709761 0.547499895 3.48931789 
-1.48348475 0.381070346 12.413022 
-2.90718269 -0.0646760389 20.2682228 
14.5891418 -0.0382740274 -13.711113 
4.86985064 0.041368369 10.8408804 
-17.4621887 -0.26475206 -0.90544343 
-15.39398 0.114502221 19.416523 
4.43361902 -0.037440598 11.5967283 
2.51698232 -0.207174182 -2.65459776 
2.91420865 -0.0373588838 11.3984346 
9.86796188 -0.0145430556 9.7064724 
-16.8765965 0.0960375965 -12.1580353 
-7.1278367 -0.122309253 -6.62642241 
-0.124321885 -0.192788869 4.98317146 
-17.0521755 -0.273600429 20.5088921 
-23.1404896 -0.0124571705 14.5239697 
-16.9151821 -0.597106695 1.26109385 
-12.9777365 -0.361944288 2.0754354 
10.0004263 0.136114866 -0.932176352 
12.5558977 0.274302185 18.9756336 
11.6999798 0.449033588 -1.15941906 
16.6671505 -0.172075823 5.75521851 
19.6590385 0.00261032046 -2.25034809 
10.5161228 -0.0576156415 6.22021723 
12.6433382 0.249730453 5.22757864 
-2.58718395 0.15647468 16.8640556 
22.5278187 0.116861314 -19.1020393 
-6.23231745 0.358201802 8.61802006 
-9.7538166 -0.206409916 21.7751656 
12.1752768 0.0982403755 -13.198616 
-19.9982128 -0.112663403 18.5091496 
-5.24980021 -0.0172110219 13.2707891 
1.00133896 -0.172700197 0.288835377 
9.39482403 0.0912905186 -14.4550409 
24.7698765 -0.561674058 -13.9812984 
-13.4273634 0.240186065 -14.8131781 
13.0783978 0.621055782 2.76381922 
-5.70988703 0.130210221 -2.55448842 
-19.012289 0.270810306 -4.97657967 
18.505724 -0.340701014 -17.4533367 
8.89950085 -0.189035222 -4.34767151 
-7.78161001 0.43209362 -14.9574804 
-12.2620115 -0.256483644 -3.01217866 
-23.144907 -0.103065945 -4.07515907 
14.5244799 0.238068402 -2.04970813 
-18.0192394 -0.06275516 1.90760779 
9.90965366 0.0461986028 -21.3468781 
6.13510418 0.0994261354 10.2154007 
7.30531597 0.0171893779 -13.3417349 
1.7442323 -0.053987436 -10.0762053 
-13.9519901 -0.426564842 1.00845492 
-2.65129066 0.160839573 1.37268496 
1.28402555 -0.0549209751 -1.96155906 
-17.2148323 -0.204389974 -15.1135635 
-22.1000843 0.534243882 -0.12576203 
-24.6617985 0.367507041 5.45643568 
-12.9583387 -0.237876341 5.90947008 
15.7015276 -0.170989379 -15.2414284 
2.49545693 -0.46360445 -13.3603411 
15.9096041 -0.0151514271 14.902132 
24.0777283 0.172811389 -4.67202806 
-13.4632139 -0.389345229 6.66414165 
-23.7541656 -0.083189033 16.6886387 
-5.53113127 -0.0644944161 5.18634462 
-17.5176353 -0.113877647 -1.5581044 
-1.99120796 0.275296539 -1.46109891 
-1.69906342 0.219559804 17.0170822 
15.9360332 -0.801639616 18.6504841 
8.91379452 0.202839062 -16.5614777 
-2.75679255 -0.43763721 22.7524986 
-10.0763521 -0.674963057 10.8009958 
-10.4969921 -0.374828756 13.8962889 
-23.8804855 0.374174148 3.77573919 
-20.3771172 -0.30211243 -8.57659245 
-8.13828564 -0.164656013 0.816921592 
21.7491932 -0.636872649 8.09687519 
4.2780776 0.0583672673 9.51695633 
-17.0383053 0.494671732 -8.44902229 
-24.5736027 0.651242495 8.39553547 
18.5263329 0.262337476 -7.6248517 
