ply
format ascii 1.0
comment created by gply, a Houdini tool.
comment converted from .[b]geo
comment for more information about Houdini, try:
comment www.sidefx.com
element vertex 1266
property float x
property float y
property float z
element face 0
property list uchar int vertex_indices
end_header
-2.66787696 -0.0644955039 -10.0497656 
1.2432878 -0.0604677983 -10.1397247 
-14.5113068 0.415652454 -15.0805511 
-23.989809 -0.332354844 -12.4633856 
-16.371563 0.12791498 17.9329777 
-2.96457767 0.377198279 -1.2052629 
22.4987888 -0.860431194 -10.182579 
12.0360994 -0.0793957859 6.7102499 
11.8503122 0.252399802 -2.73013735 
6.08600998 -0.0903167725 -1.67066622 
24.677845 0.306124955 10.4940777 
20.3471127 -0.2716254 6.17660379 
12.479064 0.01281951 6.43688488 
-5.64302206 -0.318845809 24.5567322 
-24.7465401 -0.102512546 16.4178715 
1.90958273 0.0044093309 4.68136549 
-4.49658489 -0.0770939142 19.1419277 
13.5993958 -0.116608053 6.15235758 
6.87600899 -0.00803698227 15.5546989 
-0.995312929 -0.548020303 -19.1689987 
-23.9079304 0.762214005 8.89056683 
16.6493702 -0.324820995 -17.6048241 
1.48409116 0.173628151 15.4613581 
20.2656403 -0.383982152 -12.1790791 
-15.1959829 -0.800472856 -0.549298227 
10.2820053 0.111975275 -19.2740173 
10.5409031 0.270503253 4.23359585 
-14.4568472 -0.393754989 -3.21570563 
-4.05440283 -0.219137385 8.35688877 
15.5895767 -0.393350631 8.20086002 
3.90473628 0.281032711 -22.8563461 
-3.30128431 0.257328331 11.8245573 
15.4549408 0.525438607 -10.6991949 
-7.5873642 -0.237519205 12.0312681 
-7.0992732 0.155121818 8.02255726 
-14.1895275 0.463384956 -19.2460003 
-9.69429874 -0.445328712 -5.60901356 
19.1342888 0.107299231 -4.13131428 
-7.89485836 0.0403465517 -7.52264881 
-22.5061283 -0.218341872 -15.8777332 
12.0707645 0.000463359174 9.25408077 
5.34476376 0.0479745045 7.64966202 
-20.9866295 0.10635642 18.8257332 
-7.96313524 -0.135264814 -3.97064066 
-19.4793892 0.0265278295 -12.180192 
-7.76518583 -0.095544301 -3.70294428 
-19.5418644 0.297567546 10.4457693 
-21.093523 0.278791666 -1.61662304 
-0.128511637 0.168686971 -7.76058817 
-17.384306 -0.00020785458 11.4879112 
-18.7352886 0.202189371 -11.6476727 
-7.58803558 -0.178014323 0.891627312 
19.1395149 0.0728206336 -15.5094185 
-4.79449463 0.028760219 -13.5962753 
-15.8521576 0.106717393 -8.42543316 
4.87156057 -0.0949885398 -1.35776031 
12.1260233 0.283250839 -2.76983404 
-5.33805513 0.0365004577 -0.816015184 
-18.5231724 -0.021241406 -4.44884968 
-5.23719597 -0.169815332 7.41023636 
19.0270004 -0.572366953 10.3459721 
3.70320249 -0.265314132 -5.72479582 
-7.46571922 0.688324273 -12.2465191 
9.61814117 -0.129799932 6.15702677 
3.93304849 -0.0101356888 13.0804663 
-2.14310884 -0.593914151 -18.3129349 
-22.0091667 0.107039019 -6.13954973 
-1.59900951 -0.0833864734 6.14582348 
-6.76458836 0.00622906256 -3.14311337 
-5.8512249 0.0792743638 -3.16339517 
-16.849966 -0.385396957 7.13102102 
5.52883816 -0.179041639 -4.67676735 
-22.2335491 -0.372923434 -11.6254702 
13.3442287 0.620411694 -5.40575314 
6.64214849 0.352971911 -17.3838272 
-4.26592922 -0.39993462 -18.1765404 
23.0507317 -0.867915571 -9.57276154 
-21.2118721 -0.0632962361 21.3736362 
9.410079 -0.404709071 -6.24453735 
-3.17318964 0.323723376 14.4284439 
16.6921101 0.496737093 -6.05758381 
-3.16947579 -0.45087713 -17.2080841 
8.69383049 -0.138099328 10.3525486 
5.61015177 -0.0139435735 13.7777443 
10.7938089 0.0142297735 -10.584383 
-4.301507 -0.0821234137 3.28133368 
-6.31820345 0.118139394 5.53160238 
8.58170891 -0.182728082 9.98166847 
4.41491652 0.0483263321 -14.6833429 
13.8700542 -0.197394073 7.62588692 
21.0342064 -0.0422896445 -17.6231632 
9.95650673 0.337868065 3.25899577 
17.393177 -0.0556638166 12.8377714 
-19.5629864 0.228720576 9.10357285 
-5.80482483 0.262534708 10.1946678 
-22.4277515 0.209422961 -3.95450783 
-8.2397995 -0.143119887 7.82021379 
-11.7206154 0.0389290601 -9.04545498 
-23.4413109 0.0476895235 24.9221497 
6.30558681 -0.0181917269 3.61452413 
9.20499706 0.218680605 -16.7974873 
-21.3967762 0.0297593344 -4.72611141 
-13.7848539 0.356805354 -13.468853 
-12.7910166 -0.549746871 11.6798229 
-5.29362011 -0.0692250505 7.94313526 
14.6560297 -0.0665442273 -18.1951733 
-2.74716854 -0.196586147 -12.5408335 
-22.1161022 0.146588326 14.294776 
12.7969513 0.25954321 -12.7273912 
10.1359091 0.194650739 -13.4656706 
-10.9967432 0.571192086 -18.7567234 
-7.72079897 0.632552683 -11.6687717 
-10.0856037 -0.533240914 7.48896599 
-4.41694164 0.162873432 15.565876 
3.75652456 -0.346545339 -12.5064564 
-6.14379549 0.421737164 9.24209118 
-23.9949455 -0.155335367 -7.23614311 
-10.6484261 -0.199295744 -7.68383169 
11.2405243 -0.130726874 6.59368134 
-16.3566628 -0.374302387 9.05694103 
-14.6459179 0.209059879 -6.03515911 
23.7308025 -0.038118314 -16.5748768 
-14.8540249 0.400822818 -16.629652 
15.0346327 -0.344047815 9.1160059 
-14.0366411 -0.460684925 -1.23553538 
-5.36189985 0.0415085144 -13.1881142 
-3.25799084 0.426584899 -2.94500065 
15.6637611 0.255023509 -12.86127 
11.0149899 0.0668718517 -9.47783566 
5.44718456 -0.046862524 2.16569877 
0.522469878 -0.0276518334 5.45418215 
-16.3747139 -0.407691687 8.22939491 
-18.3297234 0.122322164 -5.57039213 
2.00202703 0.017769482 4.75558233 
-2.5325408 0.210685208 20.7333031 
-20.0792465 0.156155974 -2.89976549 
18.4512997 -0.274121642 0.84588623 
6.49210167 -0.0477398485 1.21837974 
21.4232979 -0.264149755 18.258131 
6.08063126 -0.186721444 -12.4412174 
-24.1878872 -0.202564776 -8.01133347 
22.724823 0.577069461 -24.4060383 
-0.12184678 0.270112813 10.0509386 
14.4749012 -0.602513731 23.0987091 
-23.8389702 -0.203395188 -10.546237 
-9.04346561 -0.19600676 3.80833983 
22.6843185 -1.04227138 -11.197443 
-17.6599903 -0.339899182 -1.67894936 
10.0937853 -0.158386111 -7.11617279 
-7.24181223 -0.0576470867 -0.870156407 
1.05003262 0.25866133 7.33682585 
-7.62477732 -0.0848240405 11.3541613 
14.7609892 0.00322475773 -14.3631706 
19.2841835 -0.293774605 -0.263685852 
0.0874279737 -0.413644195 -16.5623798 
0.45887658 -0.178004041 -10.9680128 
-20.7559891 -0.0947038457 -12.8373556 
16.3996887 -0.251333833 -21.4524403 
14.922616 0.473610938 -11.6751432 
-4.22154999 -0.00581485825 -12.9425793 
18.8731441 0.114483535 -9.40033627 
-2.45319843 0.25957334 20.0496292 
11.9426851 0.0961742103 -7.43244314 
22.4472275 -0.512281299 15.5833282 
1.2925458 -0.0760435462 -9.79485035 
0.719715714 -0.372640401 -18.7011623 
-3.21773052 0.102859415 18.2534771 
12.6564474 -0.087160781 12.408371 
21.5425053 -0.786581039 -10.1019878 
-18.4644127 0.0422813706 -2.85426307 
5.24404097 -0.23539412 -4.92507315 
-23.9892044 -0.147569597 -16.4561367 
-7.52423668 -0.364435613 -22.4081936 
-1.1571573 0.139515072 -4.18495846 
22.6548576 -0.0321998522 6.58034515 
16.222477 0.496058166 -5.02556038 
22.9459324 0.0921748132 0.993705869 
-4.40417004 -0.00109731848 -11.4082451 
23.4082603 -0.0571287386 -4.99018431 
2.27221656 0.390927464 16.5980244 
20.583662 -0.288375348 5.64196348 
15.8262339 0.510372639 -11.0245399 
9.27068806 -0.355400473 -6.90252924 
-16.9638062 0.257973433 -10.8932686 
-8.05235577 0.748209834 -13.3193388 
-12.5925531 -0.42627421 8.19577122 
1.76893103 -0.154813007 -6.00689936 
-12.2823677 0.592177153 -17.5466957 
-12.589756 -0.158288509 -6.62737226 
2.25742388 -0.187206328 2.46813798 
-16.1208076 0.199811876 -9.04629517 
-11.7055902 -0.119045965 23.6398888 
-2.77985978 0.347682178 -1.68950939 
-13.0855389 -0.0319921561 20.5495205 
10.4959488 0.419158816 3.1046319 
-4.41196203 0.147306398 10.9928036 
11.0890121 -0.0814408958 9.67974758 
-16.7502346 -0.311499774 8.65145111 
-16.276722 -0.585157692 -3.11588764 
-15.6353569 0.339305937 -12.5738878 
-6.20878601 0.397395074 10.5329962 
-4.43857002 -0.106722623 6.33742666 
-15.0332088 0.379242718 -10.1559381 
-18.7068672 -0.0610882416 -2.84734321 
-11.6051188 0.207098812 -11.1670809 
0.10477525 0.115392826 11.7056503 
14.2486315 -0.247201234 6.66208315 
-23.4932652 0.511169374 -1.90646827 
4.61657429 -0.0039156843 4.03439856 
-1.8120079 -0.272701055 -13.0086555 
-8.04716396 0.0641691536 -7.50673914 
24.7767067 0.572538435 9.81408787 
21.1724758 -0.804378033 -10.2774782 
16.8692589 -0.0926278904 10.2844353 
-3.40267873 -0.228475139 6.22330856 
-9.44569492 0.549710631 -14.5263424 
12.4854479 0.0587584078 -14.0990353 
-7.19311047 0.00443164445 -5.84936094 
14.6749763 0.302026719 1.02390873 
11.2265291 -0.0296055041 -18.4403915 
-1.87763834 0.213975996 -6.33501339 
11.459466 0.564337432 1.98409343 
-23.4268017 0.160119608 -3.46727943 
12.2970066 0.174578711 -13.3529282 
-19.1042862 -0.270428002 -15.4295645 
4.74644327 0.282692432 -18.9714222 
10.0631628 -0.266881078 -4.86974382 
0.260988891 -0.151323318 -11.065567 
-22.6181622 0.110620283 19.3314056 
-21.7150326 0.129011095 -3.77596331 
-10.2041044 -0.396646142 22.2580357 
12.3608847 0.163756534 5.24001694 
21.4389763 0.0296291523 -3.26807284 
-0.502876401 -0.0726034865 -1.14308846 
-14.8983841 -0.230585009 4.84180737 
-0.0642511547 0.130451322 -8.43308353 
-1.99257147 -0.0893256068 3.78693104 
-7.55003214 0.640975475 -13.1225891 
8.60699654 0.0772197098 3.42293262 
-14.5213985 -0.458112806 -3.08724833 
11.7806549 0.448578805 3.2250464 
7.35652685 0.177048028 -15.7693052 
8.15144062 -0.26399672 7.27363729 
-6.11641598 0.460683912 9.70438766 
9.27746105 -0.0788320228 15.5994902 
-8.73976803 -0.35263291 8.86378288 
-16.6068115 0.23397617 -8.27924824 
22.5712261 -0.113141559 8.39420891 
3.51595306 0.152461722 5.42537975 
7.32653093 -0.0662244186 7.3115015 
3.14442968 -0.223520607 -4.6362114 
-15.9512672 0.138069898 -6.21490335 
18.20611 0.270783037 -9.94098377 
-3.0560534 0.351182342 -3.4487474 
21.1630249 -0.548316419 7.42481899 
-16.8711243 -0.337444872 -3.6202898 
22.2390614 -0.837975085 -9.56581116 
-7.14393997 0.441217571 -13.5766382 
9.0594368 -0.258154571 16.9019451 
13.4424343 0.418308139 -12.6233511 
-5.49442673 -0.091064848 6.23737812 
13.9130898 0.513865054 -0.334210217 
-9.58860016 -0.16457808 -8.09235573 
11.9622068 0.196541637 -12.3942823 
-4.95448112 -0.0373057127 9.9139328 
5.18792439 -0.281686783 -6.48386383 
-14.7404995 -0.063100785 -5.02508593 
11.5130377 0.32706216 17.0211372 
21.7041645 -0.0433489494 -16.789814 
-8.69593716 0.206010774 -16.1295872 
-21.639967 0.197830021 -2.97615266 
-10.8928108 0.654941559 -17.1450596 
19.4868107 -0.592777967 1.83319807 
-0.734930456 -0.246424586 -9.27622795 
5.67685032 -0.403724849 -11.1340895 
-16.5051041 0.0665998384 -14.9020424 
13.0927658 -0.036152292 6.03753901 
-13.922102 -0.205540672 11.5787573 
14.4349985 -0.0751777515 4.09300709 
-20.2840919 -0.137720838 -13.18295 
13.865634 -0.129350841 9.63481522 
9.95644665 -0.200584173 -7.42161703 
-0.550933838 -0.105968423 4.44343519 
13.276125 -0.0250772815 11.0187569 
7.83122396 0.131971315 -14.5206299 
13.7001915 -0.205782875 6.92308712 
12.4218998 -0.299358577 -17.8539848 
23.2304859 -0.159599632 17.6654911 
11.419282 0.192538485 -11.0257864 
-11.4120979 -0.447161287 3.34240127 
-4.70508766 0.0579030663 -6.76644993 
18.3531094 0.108805716 -7.90272713 
-11.669466 0.600839555 -18.4277687 
15.6943426 -0.306412756 7.27501011 
19.5982914 -0.61797893 3.24837971 
-5.03584623 0.0391048342 -7.98992586 
22.0742588 -0.0960827023 -17.0176029 
8.68591595 0.262046993 -15.0014782 
8.48999882 -0.281579733 8.99759102 
2.93046641 -0.350271732 -7.20780659 
-21.7619305 0.166982681 13.3775787 
19.7937202 -0.283036321 -10.7189865 
4.04268885 0.0427043885 12.3560801 
-4.00211096 0.199064881 -10.1907187 
-15.2598448 -0.579796195 -3.53835559 
-2.81126785 0.450099349 -2.87887645 
-15.4077473 0.396915346 -11.606492 
-23.9249859 0.537118614 -0.0265582204 
-19.8009815 0.28123939 -5.49221659 
12.7697134 0.45347333 -5.5550642 
11.4846535 0.182179958 11.2241278 
24.5900669 -0.0521667823 -4.85275793 
18.0423584 -0.368317276 13.2168379 
-22.883503 -0.0133366073 -7.49142599 
-0.382439345 0.145699814 -4.80899715 
2.00302911 -0.0236882754 -4.83939171 
6.0931654 0.481918097 -21.1695061 
-9.37008572 -0.0147930086 -8.97459698 
-17.4743843 0.406581968 15.5518684 
16.3586159 0.405713081 -10.7019711 
-8.63767433 -0.238347232 -0.498107165 
-11.919836 -0.466207594 -2.04339957 
5.05462074 -0.331290543 -5.83854532 
-19.7517338 0.248385221 16.6402225 
6.02431345 0.00777623244 -14.7589025 
-16.6308594 -0.0185107831 12.32232 
10.5039721 -0.188020289 9.09213734 
-21.3676205 0.342890054 1.51166511 
23.5767784 -0.910064757 -12.1872787 
17.3688984 -0.350766897 5.26421833 
-3.64507174 -0.211371049 8.25267506 
-4.54188728 0.311246216 -3.23306656 
-9.95548916 0.300359875 -12.3072424 
23.5260029 0.273069233 -18.524971 
8.25617218 0.371498197 -16.2794724 
4.59047985 0.122208104 14.8497534 
-22.4642601 0.178273961 13.495307 
-4.59178877 -0.212925851 8.79496193 
-22.4290237 0.115468398 -5.80067062 
13.2501373 0.191321954 4.40158081 
-6.38615131 0.108990215 -8.285326 
20.0344334 -0.0832509771 -13.1034193 
-11.7662001 -0.722291887 9.69274807 
12.5941467 0.158715934 4.90704775 
-11.7009239 -0.679477155 5.49337626 
1.85142732 -0.199285075 -6.36790991 
24.6110439 0.0969824716 11.6709766 
-9.66066647 -0.521023452 12.8027477 
-16.6075859 0.0493022725 -15.9859028 
-13.9869251 0.193981603 -8.39573574 
-0.247261792 0.0298056267 -4.50812578 
12.4651222 0.243489936 -11.4786091 
7.45723772 -0.500002444 -6.5552597 
20.8720322 -0.336690843 6.62586308 
22.9046555 -0.163775221 18.6751118 
2.36470675 -0.409768999 -14.3747072 
-13.393734 -0.273813695 7.84578323 
5.24726772 -0.364672363 -7.76265001 
-0.06701985 -0.0284399651 -24.8142433 
2.77973151 -0.346256316 -10.245285 
11.3057318 0.162843004 -8.05081463 
23.471489 -0.163028091 -16.2551842 
2.255548 -0.380398333 -12.7184553 
16.3864422 -0.125054896 13.3272219 
17.1949062 0.0109721571 12.5938034 
3.75728226 0.385422915 7.27853251 
21.2863426 -0.228794023 4.81125355 
-14.4984798 -0.305132061 2.45554018 
-11.8067722 0.321194947 -12.9509735 
3.69336629 0.0987942517 9.78818607 
-23.1927547 0.87008363 10.3839464 
-6.06397581 0.248891085 -10.0182695 
1.10921133 0.224882796 7.02557373 
-1.57381344 -0.0257946067 3.20529914 
10.3710766 -0.023429608 11.0763483 
-2.56982899 0.0178745296 -7.37878561 
-7.80710745 -0.147493973 11.7176504 
-24.0373154 -0.0461644791 -4.20573664 
2.25420189 -0.110107698 13.2730322 
-13.941659 -0.212559789 7.5969739 
20.4984589 -0.290603727 5.91296482 
-2.51269507 -0.156847388 -10.3096704 
6.83677101 -0.25791344 -13.1007862 
-10.8995199 -0.620711803 -2.74894834 
0.505004168 -0.145773485 4.50771427 
4.79747677 -0.481388301 -8.67431259 
-17.2444687 0.326462358 -10.021883 
7.12683105 0.639098465 24.577364 
24.5916748 0.244523108 10.6358566 
19.9046288 -0.0459297039 -12.9378824 
9.42194939 -0.326150924 -5.70851278 
0.258977294 0.424656838 9.57490921 
-8.58922291 0.632045865 -13.8818464 
3.15380812 0.0363613404 9.50081825 
-0.929151773 0.259598881 -6.86231804 
-9.52733803 -0.595454335 9.4620142 
5.08575487 -0.354409605 -11.3844776 
-11.4172897 -0.701901495 11.1355696 
-8.80288887 -0.236827523 23.8463535 
17.821043 0.255850911 -9.19737339 
-4.41745377 0.0998489261 -0.500684261 
-7.15296888 0.524300098 -11.1161451 
-3.24780869 0.268735141 11.9711218 
-2.32582116 -0.603405476 -24.3705463 
3.91903043 0.00618499052 12.4346266 
3.34421372 -0.285042971 -3.56519198 
-14.1987181 0.177948698 -7.46652699 
-2.15203619 0.215595514 -5.69719505 
4.96470642 0.501192153 17.6615067 
-12.7821074 -0.135545477 -5.78679657 
12.0601969 0.206357613 -12.519454 
-24.4329185 0.180859938 -2.86592197 
-19.0110283 0.373149484 -6.3199749 
-1.05556166 0.107711524 0.404258132 
16.7050037 -0.27142027 -15.7826176 
-24.1674557 0.497460693 -0.565290689 
-7.50564861 0.0903254077 -15.9210148 
0.418224663 0.13180396 11.5666933 
-4.4983058 -0.000991546083 -14.2461624 
-22.8624077 0.104856096 -4.49814558 
-9.29208374 -0.397347778 5.46881199 
-21.4324875 -0.0686599389 -7.4734273 
-2.77877808 -0.32828474 -13.6613379 
-10.2557058 -0.695340276 -4.00837946 
2.35304761 -0.299346387 -7.14569473 
4.64488935 0.47180444 17.0584297 
16.5260735 0.133887559 1.14299262 
5.05356646 -0.448623359 -8.24650383 
0.658595204 0.260048151 9.79136086 
-15.7026272 0.165281639 -9.03971958 
-0.257310033 0.267176718 -6.7849555 
-16.1687698 0.0531184152 -14.7859077 
-5.34863997 -0.168778032 1.36106193 
10.9919968 0.077939719 -9.27881527 
11.8741503 -0.0934737325 9.13476944 
10.1946278 0.196147338 -22.2562275 
8.60493088 -0.169623166 15.4434538 
-18.9214573 0.306593746 -8.01569557 
-16.646225 -0.308034837 8.84772205 
-15.7049503 -0.853084266 -0.239706352 
6.73196363 -0.244879723 -5.36087227 
9.2210865 -0.318359792 7.14341068 
-7.09338856 0.0244979095 7.1476593 
-5.87855721 0.0553560071 -9.00763321 
-14.8663492 -0.326664537 -3.90489149 
7.36127138 0.623953581 -24.7489376 
-12.3232212 0.497015178 -16.3784981 
-16.7512074 0.216102019 -7.16088581 
4.77244759 0.20119372 7.51756954 
-7.36241102 -0.0658008382 -4.79495907 
1.53956199 -0.242775291 -8.54938889 
-13.855238 -0.200321347 11.1023321 
8.63370419 0.330536515 -15.8358946 
-5.26925373 -0.0938954949 5.91778135 
7.32438898 -0.226410151 10.312108 
-17.2238121 0.0273515508 -14.4428663 
4.28858232 0.348200709 8.261199 
10.1111135 0.311911196 3.01129651 
-1.09649646 0.0101415692 6.4322238 
-17.6288013 -0.0603302419 -4.58160591 
23.0109177 -0.817506909 -8.45233345 
-7.43437433 0.40355286 -13.9292488 
-17.0995865 -0.181758344 20.7935162 
-14.2165823 0.0117378179 13.7128553 
-5.46732903 0.0150599275 -5.15450859 
3.84176135 0.116559438 9.34048271 
6.6055479 -0.067818135 5.16901302 
-1.94404328 -0.140404284 -8.20376492 
-8.45245266 -0.285474479 4.09550285 
-13.0766296 -0.0367927887 20.2815247 
5.18008471 -0.337829709 -7.25075483 
19.2000313 -0.484542042 8.15675926 
3.20652151 0.0371914469 -20.0262928 
21.6707497 -0.481231153 11.7192049 
-4.16330481 0.324669212 -3.1540184 
15.0601625 0.650973558 -10.5940027 
24.3144684 0.481600583 -19.4936695 
18.2597198 -0.434092164 10.3578291 
22.3510303 -0.0952818394 4.88753319 
16.004261 0.0755239725 -13.8787117 
22.5741711 -0.103799768 8.8012104 
-9.71723461 -0.435216039 4.59573746 
14.9064894 0.108010739 -0.689410865 
-14.8231897 0.481908739 -12.1814823 
7.71017694 0.0372028127 6.25174189 
0.272132486 0.711594582 21.7415009 
3.19342136 0.0929590687 -17.5353527 
-3.47898698 0.0458618104 -7.77850676 
-2.82765651 0.398412526 15.703023 
20.8939724 -0.294329315 4.55697966 
8.99408245 -0.0331847295 -0.280599833 
18.3380051 0.22255443 -10.0881119 
-15.0644283 -0.195500761 9.88737583 
-13.9726095 0.307949126 -9.61834812 
-14.6160173 -0.0432242192 -4.44841337 
1.61602771 -0.123868436 4.64226818 
-20.6455078 0.423968911 10.5468969 
21.0776787 -0.070318222 -14.5011549 
4.25113678 0.277528048 6.58696508 
-22.8890915 0.0220077299 23.498558 
9.10749722 -0.144054174 -1.73689604 
12.6872997 0.539951086 2.62818551 
20.9705162 -0.684092522 -10.5543022 
19.3789654 0.184008881 -18.1435928 
10.5973577 -0.11914397 -8.42404938 
-22.803894 0.993018031 9.28270245 
-11.462162 -0.536739469 19.4197159 
-0.455160975 0.140158758 7.43233347 
1.01400852 0.190309823 9.38965893 
-10.0462303 -0.486206234 -2.13912773 
-9.81836128 -0.607932329 17.3311405 
-15.1057739 -0.322831303 1.85333157 
7.46349239 -0.579356194 -7.36739683 
0.468233943 -0.0742909685 -2.19465494 
0.788460135 0.21187222 10.1987371 
-7.50576401 -0.139556274 6.10259485 
7.63885403 0.0774880648 13.8807316 
11.1895552 -0.113740966 -19.035984 
-16.6861725 0.115283318 17.5348034 
-6.54777765 0.0402770936 6.80110884 
-23.4377918 0.310316414 -2.75739956 
1.17905283 0.301940501 8.37824345 
-20.8879337 -0.266653776 -9.01181984 
-7.8259263 0.101083457 -7.67968082 
12.9866867 -0.108337633 7.92336798 
-20.6220074 0.0638990402 -4.93963718 
-23.8896027 0.625903785 0.851941228 
-3.01764321 0.00581718143 -7.03426933 
-22.6332817 -0.48349154 -12.5674515 
5.97106218 -0.0349855423 5.72294235 
-17.588562 0.260125399 -10.5475073 
3.59285665 -0.0661402866 11.5419912 
-6.57733583 -0.0684073195 -4.23287678 
6.91567373 -0.0438245907 5.59724522 
-18.2640839 0.135199383 -12.4838209 
-4.45516634 -0.150779933 2.0187211 
-22.0456696 -0.415625244 -13.6228762 
-11.3949108 0.113002971 -9.81738853 
-12.889389 -0.349252135 1.00023305 
6.0953722 -0.517947912 -9.76671124 
-18.3520489 0.0126134027 -4.68631172 
18.537632 0.163104996 -12.0941238 
14.4687338 0.353050292 -12.4978962 
-15.3757229 0.314946622 -13.0580215 
5.54038382 -0.53732723 -10.2896309 
7.39726877 -0.285505354 -5.36853266 
-4.27741098 -0.0328187235 -11.8261242 
10.8819714 0.0646010339 5.64320517 
-5.65598822 -0.0240163188 -5.4613204 
-16.2600403 0.165459365 17.91535 
8.63016319 0.226727471 -14.8459883 
-8.25983715 -0.349244684 4.33882332 
12.7468529 0.46521014 1.32278097 
21.3805466 -0.743564904 -10.5291157 
13.3887949 -0.126629099 6.56032181 
-18.9002285 0.011399339 0.115051754 
-0.781433046 -0.0982099473 3.7357378 
5.35050869 -0.02503388 3.29700756 
18.1717873 -0.363928854 9.66580296 
-4.8625989 0.332134306 12.4935312 
-23.2748051 -0.0374587625 -17.5915203 
-17.2335491 0.000181283103 -5.96636677 
0.83733952 -0.318235815 -11.3737068 
7.35297966 -0.0418026298 6.63219976 
24.793335 -0.158075988 -15.7277937 
7.98235846 -0.162555084 0.151155978 
-0.767339408 -0.0643439963 2.58175588 
21.6666889 -0.0321077518 -17.8287354 
-1.28705084 -0.225886762 -11.4482365 
1.14128089 -0.0728945509 -21.1881561 
13.0578346 -0.304881901 -16.5298367 
-14.3123074 0.208623722 -7.69719315 
1.96485531 0.595175028 19.8710232 
17.0085926 -0.416386843 5.89054441 
25.1600513 0.553676307 10.3435869 
-5.50205994 0.0939943865 -6.8539114 
-21.779623 -0.285700917 -10.8476686 
-9.42318535 -0.519210875 12.7651043 
14.9547729 -0.632344961 17.9948769 
19.0342312 0.0834167302 -2.5218761 
-14.2655077 -0.379701972 6.56173038 
-0.0496332273 -0.172691271 4.00171709 
-10.3289194 -0.526294649 -2.69931841 
-18.1839924 0.339498729 10.966856 
-17.1168385 0.202945426 -13.3408442 
4.35498381 -0.184780777 -2.12859058 
-1.40776539 0.818051696 18.3049488 
-1.96217799 -0.276557386 -13.6633444 
-23.7459641 0.826031089 8.90177822 
15.3039894 0.527493238 -10.3826103 
6.41549349 0.0257616527 6.95788431 
19.1145973 0.111068204 -18.2166977 
-20.1079578 -0.0540200323 -2.11861944 
23.2040043 -0.231918767 12.286458 
-12.2181721 -0.431538284 -3.17135024 
5.90732479 -0.408535063 -10.818614 
3.09631419 -0.0875622854 13.046567 
2.39804888 0.244045809 8.84185123 
21.2950611 -0.0603554808 -1.65049005 
-22.2519321 -0.180333167 -16.4677906 
9.12513065 -0.239670262 9.47307205 
-21.814537 0.712106109 3.74250412 
-12.166914 -0.348088712 -1.84706533 
-6.27498007 0.317886204 -10.2110424 
-2.52754903 0.22062242 -1.21772003 
-15.9234371 0.0968338102 -6.74755907 
-3.08201885 0.00449422654 -9.73665237 
9.42160416 -0.271256268 8.41039848 
0.0256215744 -0.0685097203 1.31909645 
-6.37709045 0.0728950873 7.29909086 
12.2781448 0.49737817 2.1232698 
11.4443855 -0.205169857 9.27754211 
17.1008739 -0.420096129 -23.3450565 
-6.1243577 0.0919206366 -3.22374797 
-7.62908745 -0.13786976 6.01647425 
21.157568 -0.509994209 15.9578524 
5.01758051 -0.0661067739 3.26963615 
15.9320641 0.492032021 -11.0988626 
-12.6915693 0.247907579 -12.0045691 
-14.7885132 0.384187967 -13.300642 
11.0296793 -0.198243916 8.00946808 
4.19873428 -0.0249003898 12.9943905 
-1.40477824 0.169188127 -3.68676591 
-7.37415409 0.249232113 -8.12380505 
-4.88837576 0.277520269 11.6298256 
-18.4015636 -0.0499609597 -4.25438643 
-15.6878958 -0.821160018 0.0120455623 
-10.1516485 0.578293145 -14.4164362 
-22.3268681 0.231432974 16.2406368 
12.442584 0.0524700843 16.7261028 
12.6861658 0.377395242 -11.0491199 
8.97751999 0.269621372 -21.5230637 
-12.1326723 -0.373384207 -4.51541233 
-24.0810623 0.286059737 -2.95647883 
-16.4071236 0.235298395 -10.0068932 
2.82627273 0.293222785 7.62176704 
-15.9053955 0.167018086 25.0482712 
0.768732667 -0.115520865 -5.05060244 
-15.4403639 -0.573092937 1.13115406 
0.685898423 0.529526591 23.726511 
-22.2583523 0.21259068 -3.72840548 
-3.84097099 0.108059801 -10.7516098 
-13.1052275 -0.0230889469 -5.53130627 
0.287150711 0.372723311 9.78429222 
6.964849 -0.139086217 0.727698982 
-0.784297585 0.347850829 15.4414921 
-4.97473478 -0.143471405 7.69215059 
-16.5754929 -0.357675016 5.34320498 
6.39606524 -0.0282265451 0.585761428 
15.825057 0.401299477 -10.1497879 
12.4804087 0.427900434 -0.778546929 
-23.6904335 -0.0285693221 -6.96344566 
-14.6325254 -0.00447294768 17.0228653 
19.247324 -0.416140944 5.03686905 
1.5901401 0.139205411 10.3659258 
-7.31419897 -0.344034076 1.68168557 
10.7097454 0.222082928 -12.3056974 
-18.7793159 -0.0816260874 0.0197891835 
-23.7467194 0.783751965 10.4063482 
-10.9672308 -0.650728345 -4.71451473 
15.206358 0.0939844623 -2.29403925 
-23.3312912 0.252248228 13.1417665 
-8.9399147 0.704757452 -13.5091524 
-22.9850025 0.00814340077 -6.07189989 
-16.7819118 -0.828965545 -0.196770146 
13.0904484 0.755603552 -7.6284852 
-21.3999043 0.306051791 -2.35953379 
21.5963211 -0.866790652 -9.78421307 
-1.86525083 0.306088597 20.929245 
-19.3525581 0.69145 11.6462374 
-6.14885473 0.0260603596 -6.96181393 
-17.3689537 0.249171719 -11.3518105 
-6.09876394 0.4409329 9.36764336 
-1.27482927 -0.116096981 4.34502316 
16.2128696 -0.325764924 -22.7759323 
-11.1975031 -0.110201061 -7.60929441 
20.6320362 -0.264738888 -0.481179625 
-9.6975565 -0.266903579 2.7444582 
-10.6059141 -0.458506167 -6.8955245 
12.8839617 -0.0361703224 -15.0355854 
-8.67310524 -0.305306137 6.97189951 
-2.94229174 0.177220851 1.36901391 
-9.86894989 -0.485551685 7.5283227 
2.55434966 -0.341791511 -12.0874262 
-19.732336 0.0430559814 -3.25309825 
22.2708435 -0.0736354515 19.6486301 
-24.4435253 0.0476847254 -3.76759887 
6.87492228 0.0536033474 3.24941182 
-8.88979626 -0.352793783 8.55593014 
-23.0333576 0.770100415 5.81227303 
-15.365675 -0.661867082 -3.30376935 
19.8258514 -0.315701663 -9.49639034 
3.63154054 -0.356865853 -12.5712948 
-6.40983152 0.00395369716 -6.95186472 
-0.993294656 0.390051246 -5.66540051 
15.4495659 -0.314833164 10.0198221 
0.822421968 0.0884666368 16.4284115 
23.5066605 -0.769526541 -9.40988636 
3.17242146 -0.21274516 -3.30533147 
-11.9241114 0.630103409 -15.2111282 
-20.6899738 0.601593792 7.15804005 
-18.7366142 -0.545414865 -18.2981911 
13.9488869 -0.109967664 11.1495037 
3.28377962 -0.245596021 -10.1507378 
10.341958 -0.185016498 9.42236423 
21.5267525 -0.201394781 4.55861044 
-0.93921864 -0.0437633321 7.90611219 
18.4151516 -0.0844495818 -17.078928 
14.0248747 0.839093864 -9.75085068 
11.3931923 -0.151406363 -19.3959732 
-0.320811123 -0.161772996 -1.93901122 
24.9676094 0.658678412 7.53768349 
0.238071308 -0.12371631 -0.825631261 
-21.1926899 -0.0735608116 -12.3583164 
-5.69171 0.231137812 -2.17013645 
20.7730331 -0.654285908 -10.7445602 
14.3586655 -0.241971582 8.93720913 
-8.67768669 -0.481302828 -4.20656967 
-14.8447895 -0.0337287523 15.1176214 
-14.0218935 -0.183822826 8.73989296 
-14.8758831 0.399328798 -18.917305 
10.0966234 0.143091947 -23.0145702 
-19.1669331 0.281996191 -5.52627754 
21.1169891 -0.0887726322 -18.4939346 
7.44030714 -0.542722046 -10.7903357 
-22.5104504 0.117937349 -5.37825918 
-1.96237266 -0.639675319 -19.0104485 
2.79394579 0.383644044 16.0962391 
15.7803373 -0.0392956734 -18.4856701 
-6.93514538 -0.189959511 4.26270962 
-11.7560205 -0.653775215 11.4528713 
-7.80252886 0.31451115 -8.53087807 
4.29647398 -0.129321218 1.75906467 
-11.22089 -0.410256535 -6.02266073 
6.08547592 0.00413723849 7.80863333 
-16.5488567 0.0535627753 -6.31881714 
19.784132 -0.403180271 7.57182264 
8.97987175 0.109694876 13.6635704 
15.8770342 -0.311392426 8.53017235 
-0.0559931099 0.0539866686 -4.61484528 
6.62770748 0.032189291 7.44111586 
-18.2637329 0.03017129 -5.02849531 
-17.3629074 0.235125661 -12.352684 
12.1406012 0.392532825 -3.58709431 
-23.0708656 -0.0948830247 -5.25579929 
-0.135865718 0.0226120055 7.49394321 
-22.5569839 0.96809262 7.48871851 
5.13221884 -0.0801883116 -2.91792846 
-7.73317051 0.0109470636 9.93624496 
0.389319599 0.264526576 8.26220894 
-0.356608629 0.118843518 7.52539253 
-13.6947813 0.398140788 -24.2119427 
10.0646801 -0.0377138928 17.6838245 
3.84550953 -0.272865266 -10.8420506 
-10.1861258 -0.221996337 1.73498797 
-16.0894051 -0.284871668 5.47673893 
25.128376 0.654344916 2.31102586 
-7.66956377 0.025556786 -7.36207581 
24.5146141 0.433992833 5.30849361 
2.89916301 0.37714991 6.95259237 
20.0858841 -0.0135583319 -4.91622353 
18.4493217 0.194007695 -10.4352446 
24.0666885 -0.631837785 -14.1990356 
-10.0865335 -0.450054854 14.0736008 
12.5311623 0.00774638355 18.4402828 
0.0433129817 0.0641105995 -5.11697054 
-13.983345 -0.263297379 -4.00020695 
-18.8752155 0.0466954298 18.5763626 
-5.32952404 -0.146104589 7.25430679 
2.91595793 0.319903255 15.9703503 
22.8747177 -0.219156727 13.3224907 
-9.80351067 -0.567803979 12.6410904 
-12.2532196 -0.0285790395 -9.24944973 
1.99714923 0.285611868 16.3249302 
0.51268959 0.193397656 13.2850561 
22.7929211 -0.883509398 -12.4635563 
12.9145718 -0.0291634277 -14.8798695 
2.09109259 -0.0587555617 -1.33424461 
-18.2389622 0.227547899 12.0692768 
-5.88089037 -0.018453043 5.04954529 
-20.5288963 0.359801859 15.3335505 
-8.17056656 -0.0999781117 8.06099415 
18.2000751 0.254912555 -2.95733476 
-22.4266014 0.147176653 -5.2396102 
-13.2869177 -0.355946481 6.43187284 
0.337741256 -0.470089972 -16.738163 
-4.14285421 0.0287335068 18.3862514 
3.63460088 0.23203212 -22.0310879 
-11.7021828 -0.60838145 4.51314497 
17.9508705 -0.318684667 -22.760664 
-6.71284723 0.211296603 7.93666935 
-3.95780134 -0.331906319 -17.5772896 
12.1323414 0.269374192 4.58043385 
-7.01376867 0.57787472 -12.0348511 
-23.0791016 0.0382930748 20.2986069 
-7.26896429 0.596250117 -12.164257 
-7.81729937 -0.271348178 -2.03291726 
-18.2949142 0.126957878 -5.69304562 
24.9268875 0.494991034 10.3688526 
-16.3153763 -0.392269403 -3.90440083 
-4.37662125 0.0298208743 18.2537632 
2.68212104 -0.125538737 3.94308567 
-20.1646557 -0.0983265862 -10.0177689 
18.0795498 0.292963564 -11.2748804 
-7.34874058 -0.00843889173 -6.7227354 
1.2307409 0.110805467 15.911603 
-18.4544086 0.129396766 -5.48940945 
20.921402 -0.498096168 13.105134 
2.69886088 0.453361809 18.09412 
0.336981833 0.241758302 13.6971865 
-12.0475159 -0.160917714 -7.26365948 
-0.837693274 -0.516716301 -17.9534664 
3.30469418 -0.405328393 -11.284584 
-17.2910175 -0.0559141934 -4.7772851 
-11.9052534 0.77556926 -18.6125526 
0.0551744886 0.461905092 18.1879997 
-4.58936691 0.199386686 -5.46804476 
23.1857204 -0.724521458 -8.363554 
5.77010822 -0.317325324 -6.52860594 
13.5587072 -0.189760134 -15.7426624 
8.75217724 0.0659593716 12.0151243 
-22.7007809 -0.238323599 -15.1865788 
-1.53298426 -0.169991598 6.97647381 
-1.97471261 0.496395588 17.1663895 
-11.5207109 -0.534545064 14.7046604 
-22.9529877 0.101152524 -4.13040304 
-1.8352716 0.528343081 14.529377 
-15.091383 -0.217949837 9.72669983 
-17.3013859 -0.0761619136 9.21524906 
7.42238855 0.0349892862 3.58149958 
-19.4876022 0.143514097 2.90381742 
-7.2161932 0.0752800778 7.64315844 
22.1616631 -0.222030178 18.4349689 
24.2995892 -0.784838736 -11.3256474 
12.5795774 0.333643526 -7.85240841 
2.43501878 -0.0710993484 -4.81655693 
-14.4572363 -0.0769888461 -4.9842844 
18.9443836 -0.379017174 15.4271536 
8.25856972 -0.360322356 -5.87795687 
4.13158083 -0.036576502 0.592116535 
22.7836189 0.220873177 2.67380333 
9.34325027 -0.131969437 18.0017567 
0.399682641 0.408023357 17.5525475 
15.3672304 -0.369327813 11.9316254 
-15.9715614 -0.157090887 -4.55443525 
-3.54618883 0.022392612 -11.1586981 
-21.3396568 0.314141154 11.7696228 
-8.69472313 -0.255884826 -22.9676323 
3.16027164 -0.137320369 13.6689787 
-9.15621662 -0.331394464 7.72511292 
-0.56099242 0.00473512616 -8.31306171 
5.89773989 -0.0660375878 -3.97342634 
-8.27199078 -0.171538532 -6.90881443 
5.33696747 -0.0867613479 13.6705942 
7.51872873 0.0601159707 12.3641367 
11.4048853 -0.036811199 -17.9233532 
25.1396961 0.622198701 9.65508461 
22.8655167 0.410060078 -20.5819168 
-12.4918976 -0.219893456 -6.32306433 
-11.6870365 -0.472347587 -3.80305004 
20.4439316 -0.20477359 -0.982263207 
14.5323811 -0.30939579 17.07411 
14.9398518 0.11739137 -16.4949913 
-2.16893077 0.02314936 1.3442111 
9.91586399 -0.0993087366 -12.0531607 
5.7798872 -0.235411257 11.8566017 
17.3674793 -0.294567049 -15.5699291 
1.79616177 -0.230466053 -10.1558552 
-8.05613327 -0.156973958 -19.2777405 
16.9411469 -0.132497773 -14.3284588 
5.98216867 0.268274844 19.2442226 
-3.45568967 0.268804818 -3.7718215 
1.30739319 0.253934383 6.64482594 
23.9652328 -0.748022616 -13.4766121 
17.7343025 0.0167213716 -1.19629133 
0.186279595 0.0271243956 -5.05599833 
-14.8853798 0.0973452032 13.190196 
-5.75219107 0.186424911 8.57301426 
20.9936314 -0.516717434 12.3176088 
17.4030056 -0.0236806758 -13.1028547 
-7.71826649 -0.108903438 -4.89555407 
-11.7352972 -0.773787677 9.92817211 
23.8834724 -0.580009699 -8.95231342 
13.0876389 -0.128119558 8.1830864 
6.16954088 -0.356751889 -11.518899 
-18.3528461 0.176041201 17.7741776 
-0.259860039 -0.137146398 4.95323086 
-11.2691183 -0.138384774 -7.40815783 
-8.54219151 -0.00628590723 -8.52866459 
17.3090782 -0.359173208 6.64811659 
9.51290798 0.293685108 -18.8665619 
7.98831177 0.277572155 -20.5740185 
-9.83743286 0.012434924 24.5504837 
8.67302513 -0.150796756 6.2312603 
-16.1343174 0.107490055 -6.02285576 
-7.07692575 -0.322150528 1.46792078 
-8.79041386 -0.215910167 -7.21796465 
17.2681217 0.317462593 -8.86457539 
-9.35974789 -0.531707048 11.8661165 
-18.2096634 -0.101332456 4.26124811 
-18.7220592 0.201056302 -5.95535088 
-11.0943213 -0.130513623 1.08862746 
23.2344398 0.121652924 8.91112328 
14.1218748 0.57788384 -11.1643915 
-1.89978886 -0.109049909 5.06167698 
11.3217001 -0.0278463811 -18.0429974 
11.8671589 -0.0765468851 -16.8167019 
24.4048977 0.16286239 19.77878 
10.7862501 0.345179677 -13.5855818 
1.8476932 0.219340965 8.31468391 
15.6103411 0.39357698 -12.090806 
-1.90374482 -0.0991348922 5.55178118 
5.60402918 0.0117070954 10.1287909 
4.74600887 0.306623548 15.6851282 
-19.6877174 0.250760317 15.0501957 
23.387867 -0.0498971045 10.2183342 
12.5075207 0.339775026 -8.99156666 
-13.1410809 -0.0558321588 -5.74666739 
-4.86197567 -0.263165057 -16.9260845 
-2.71877408 -0.203988999 5.91418695 
-14.9522371 0.107141547 13.3238945 
6.67395306 0.165770918 14.0619516 
19.3310204 -0.618594766 10.7196188 
3.18014097 0.348855495 -24.0810528 
21.4231358 0.0512380339 -3.39812875 
9.62709808 -0.263962567 -4.48562431 
7.3819108 -0.153784603 9.15144539 
-4.82319069 0.134675846 -6.83684969 
-0.459344387 0.267941266 12.277112 
6.81901264 -0.0162665695 9.06425667 
5.14964724 -0.225961953 -4.48025131 
23.0175533 -0.736515939 -13.1116209 
-23.8357677 0.728738248 3.9003334 
-11.7331867 -0.466005564 -3.20823574 
21.6154099 -0.135328859 0.926272571 
7.69270658 0.0138880881 4.8068552 
-1.55637062 -0.204252347 -12.507472 
-23.9027023 -0.0843228251 20.5809803 
-7.67047405 0.0387344137 8.96401882 
-2.63880205 -0.570995152 -17.6540585 
19.7682819 -0.592980087 11.6840754 
10.492794 -0.0523202009 -9.25066757 
-23.1582718 0.847401977 9.96379662 
-7.92143631 -0.244721696 -5.23114014 
2.53232956 0.196105108 -23.211771 
20.9082794 -0.399353981 6.99366188 
-4.06940889 -0.333575726 -17.7459221 
18.1487694 -0.30653441 7.82679653 
-15.22188 0.277344674 19.6971264 
-8.13599205 -0.182232946 6.93079233 
4.46230316 -0.301370025 -12.3286171 
-8.40711784 -0.482267469 12.7716627 
17.1470432 -0.194558859 13.7376537 
-10.0333958 -0.118862294 -8.09921169 
21.3474197 -0.0296079163 -1.25418329 
2.72110891 -0.321040571 -7.62459993 
1.69039488 -0.451512784 -12.8919706 
-19.827631 0.0767897964 -6.54931641 
-1.36335456 -0.0910903513 4.4676981 
5.50677681 0.289664149 19.8537102 
-12.1236687 0.0747092068 -9.91662884 
-18.1093693 0.209499389 9.20695114 
-3.72377133 -0.15509522 8.76000214 
21.8075771 -0.2179465 3.48969722 
-11.3077888 -0.544976652 -3.67646432 
-17.1797791 -0.0196936913 10.6109209 
2.1303966 0.229749918 9.19632626 
-18.0373325 0.273183942 -7.6204524 
16.8256607 -0.314112931 -15.9441881 
12.7037516 0.0224723071 8.5047884 
-24.0929394 0.626883984 3.43966436 
4.95243311 0.334013194 -15.9641008 
20.9428596 -0.235929534 -13.4901972 
8.31692028 0.0112077817 3.17111421 
6.49632931 -0.000262792804 6.46101093 
-6.74846983 -0.0555511415 -5.61003256 
-5.48225355 0.0734785944 -4.25331068 
5.78371763 0.209309816 14.7416859 
-10.783762 -0.638776124 12.6062489 
22.6433735 -0.0908733532 7.13129377 
-16.9196587 0.180152074 -8.95828438 
13.613904 0.0312441383 11.6092234 
-17.7159195 -0.131341666 -3.94227314 
4.05106258 0.202439621 -16.5685616 
-13.0337973 -0.440480053 16.1499405 
-13.8642197 0.267237931 -9.06944656 
-6.1704855 0.441295326 -11.7810631 
-19.9666576 0.442437053 10.2687845 
-16.9010925 -0.378741175 7.29679632 
14.4617319 0.25223875 2.48107052 
6.96958256 -0.0255177598 2.32462931 
9.39988136 -0.121903792 -3.22852111 
-19.8229027 -0.567826509 22.4833775 
3.00830364 0.365048498 7.03201771 
-21.1342869 0.230070591 16.8743401 
-10.0870981 -0.0100073898 -8.9338398 
18.8335018 -0.451743811 5.25819302 
17.4486637 -0.392617136 4.99731016 
-9.94696426 -0.656481862 -3.51023436 
-16.1851368 0.0483454317 14.5202589 
-10.4805021 -0.282180309 2.62791514 
1.2393074 -0.0980231762 -2.3414669 
23.7206612 -0.759916186 -12.6910992 
-13.9546518 -0.261034817 1.24259663 
-5.7601757 -0.0451959074 6.8020792 
23.3983994 -0.601888061 -7.32714987 
22.7600746 -0.832942009 -9.16990948 
-4.30386305 -0.182444006 20.8149643 
-10.9990196 0.291580051 -11.4491138 
9.49858284 0.122257009 -17.9332695 
-12.4561186 -0.193355381 -6.73102903 
7.75854015 -0.256980985 -5.06128025 
4.76170254 -0.366532624 -11.0437346 
3.41197085 -0.134567827 -13.8897238 
-22.6564522 -0.434018791 -13.1597042 
0.204935163 -0.167670622 5.72626925 
6.2586751 0.504174232 -21.0364037 
-6.40042973 -0.134313136 3.34816718 
-3.84660006 0.166846707 -0.828099787 
21.9232998 -0.28153345 6.63306952 
20.7524719 -0.683198392 -9.00840569 
11.8192301 -0.49011305 -24.1751995 
10.95825 0.0706628785 10.2297497 
-17.8917923 -0.347791702 2.73715615 
-6.45348406 -0.0643603578 12.9906683 
19.5863075 -0.213866964 -10.5620995 
-11.2647543 0.573986888 -17.8349342 
1.66609335 0.0755348951 11.2934084 
19.8653793 -0.482338786 3.95118046 
0.548112154 0.148541346 -8.15213394 
-19.887146 -0.441080868 -17.1794033 
17.087265 0.180657402 -11.574069 
10.7468596 -0.199358568 7.37949514 
-8.04718685 -0.286293089 12.4184952 
11.5695839 0.158702031 -3.80901766 
-11.5559597 -0.370423734 -1.30047452 
19.3532352 -0.13174063 -0.864649355 
18.7572842 0.147179022 -9.10172844 
15.5594559 0.177016869 -2.81528616 
6.02035952 -0.329395145 -11.5901365 
-5.52388287 0.148842186 -6.29612923 
-14.2138319 0.465030193 -19.1346169 
-9.0688715 -0.324051142 -0.292579353 
-12.4239645 0.280842692 23.9311543 
15.9966164 -0.110370152 -15.4200907 
7.21091795 -0.21070914 -2.38655639 
-2.18496537 -0.465451956 -16.3782063 
-1.10160255 0.00346783549 -2.04337835 
10.3220034 0.178852513 -21.5714397 
16.6862698 0.169124171 0.100278705 
-15.2062006 -0.756990016 -1.53550816 
-10.2308102 -0.647625446 -5.01529741 
-1.1798588 -0.186290428 -24.0646839 
-17.717432 0.418944597 -8.50117111 
14.8963757 0.52071166 -11.4405451 
-17.5825729 0.106252283 9.50275898 
-24.9853096 0.613266051 -23.2964287 
-2.33089089 -0.280646443 -12.932765 
-12.47258 -0.0496760271 -9.25240898 
-17.4486332 0.0132448031 9.29904175 
14.4500923 0.864953816 -9.7123394 
12.4846277 -0.0786224678 12.191885 
-21.8371811 0.107571907 -4.24869967 
7.81374884 -0.412255228 -8.79959202 
19.1079979 0.0546147078 -4.42443323 
22.9100552 -0.00033849699 9.1394453 
-14.4898691 0.283459187 -8.73737621 
-14.7042599 0.119705319 12.1625147 
4.27674484 0.0691353083 -15.0549755 
3.68328476 -0.0443901345 10.9631643 
-8.76200199 0.480495304 -12.1073599 
0.535763025 -0.0721704885 4.89019537 
11.012929 0.320302367 -12.5746574 
7.89006758 -0.191422507 10.5443258 
-24.9278488 -0.263415486 -15.1826687 
23.3690872 0.0620963499 9.58071804 
-4.43714333 -0.0848324299 19.6734276 
-14.9120455 0.358536452 -9.85871983 
-2.67897034 0.405833155 -2.91978693 
9.81919003 0.140814245 -18.3598232 
-0.19616729 -0.153301671 3.1603229 
-7.13765907 -0.109100498 5.46485424 
17.3451614 -0.184360459 11.712986 
4.78934431 -0.0684895664 12.7652903 
-4.75096464 0.157445446 -5.19123411 
22.9802628 -0.232611775 12.027669 
-18.4241428 -0.407215446 20.8605137 
-23.2913532 0.279780656 -2.84522986 
18.4014912 -0.379964024 7.89116573 
13.3619137 -0.152892992 8.24700546 
7.16957617 -0.316312373 -5.72458696 
-16.0016804 -0.33255595 9.47385693 
5.83855677 0.090106599 4.03307867 
6.51401043 -0.0687428117 4.14222527 
-1.6566807 -0.576390088 -16.8339577 
-6.41650009 -0.231503919 -17.3117256 
14.7922239 -0.254103541 7.48044395 
-24.7275944 -0.0888540298 -5.62343836 
-4.93082523 0.154206857 -6.02342033 
-3.14256406 0.150030494 0.952298701 
-22.5297375 0.970372617 7.05749035 
21.2368183 -0.258176565 -13.598959 
-23.0430984 0.0674625039 16.7499256 
9.70816422 0.371326953 2.3086319 
2.9378643 -0.310384184 -10.3145313 
8.07332134 -0.362967879 -6.13258982 
-10.2128801 -0.597550392 9.6273737 
-5.71876144 0.0905289948 13.4105148 
-7.53927565 -0.205440059 5.00105286 
16.5168915 0.33327961 -10.5528135 
-8.97828579 -0.363150269 -6.84430408 
-13.6517744 -0.373850942 -1.48622215 
-20.778389 0.823406637 5.57978249 
-6.75950861 -0.118285157 4.99649668 
-13.9049034 -0.16162543 18.3100071 
0.636449218 -0.24795346 3.56683779 
-18.0363884 0.278092772 10.1940098 
-7.24399185 0.170816958 10.0880651 
16.7867641 -0.296108663 6.5560627 
11.5972929 0.188163117 -13.0476942 
23.6397476 -0.189763501 13.3643894 
-6.45488262 -0.122277252 20.1812286 
9.19719219 0.324299842 -22.5771332 
-19.0111103 0.345931321 -8.10554314 
10.8154573 -0.105146118 -4.19498158 
17.3929329 -0.295923769 -18.8311253 
-14.9129553 0.330132455 -6.83793926 
-8.88604069 -0.335068583 7.183846 
18.2585602 -0.392448217 2.478616 
-8.74600887 -0.183008939 2.94328141 
23.4425983 0.251774669 4.53418112 
21.9549503 -0.507491052 16.3319225 
20.7703915 -0.684915602 10.9954615 
-8.15309525 -0.218702748 0.324343801 
-20.004488 -0.163252294 -13.0086002 
-21.9775772 0.295099467 -1.78795612 
5.1809659 -0.145367727 -4.11822605 
2.02538896 -0.136465386 -5.49222136 
2.03783464 0.309480339 6.14960766 
-16.1395168 -0.0458013564 10.5050449 
14.1293039 0.870566666 -9.18414783 
-2.02931309 0.25818944 12.5423059 
4.33687496 0.42189163 16.4080524 
-16.7882881 -0.196374089 -17.6121979 
-23.309145 0.0273116045 17.6541424 
7.67860699 -0.00408773823 6.87699461 
3.93117619 -0.366858333 -10.4027195 
21.1378288 -0.379240304 17.6186466 
19.7740555 -0.189528137 -8.60628796 
11.3390121 0.0673701093 13.27946 
4.85269451 -0.268119782 -4.73941088 
2.90084529 0.131082341 4.98926401 
-3.84931111 0.315102786 -3.13799739 
18.9582615 -0.487879068 7.69260597 
8.39055729 -0.322751015 -11.2348042 
-5.85080481 -0.119596034 16.7692871 
-13.8267822 0.0712386072 -6.52300262 
-21.4681492 0.316630721 12.4950047 
8.3703928 -0.332644373 -11.8487368 
-7.23699665 0.00115993351 -6.72278452 
1.87715924 -0.0180666856 -3.12059402 
6.95442867 -0.160564169 0.458167136 
24.8802299 -0.532776117 -9.71556473 
-9.54556656 -0.392814755 -6.67554379 
8.94515705 -0.183859169 -13.2358265 
-24.1495304 -0.080176115 -6.77951574 
21.4532204 -0.509755969 7.60032606 
0.433372349 0.22501795 -7.37843752 
16.3064575 0.187291011 -12.9658232 
8.73567295 -0.477784157 -8.56793022 
-7.18099499 -0.106520161 5.87980318 
9.9894495 0.191815794 -23.4276867 
-21.1022282 -0.11439275 -6.15438223 
2.60886693 -0.0847141817 4.31653404 
-10.6619062 0.680750608 -16.8854103 
-0.687421262 0.47230044 16.1413841 
-1.20613325 -0.423054278 -14.8178434 
7.9597187 -0.32562843 -5.87364435 
13.6808128 0.569257379 -0.88793534 
8.57301903 -0.290036559 7.05933952 
-23.258234 -0.442965567 -11.8088074 
13.3954687 -0.169525877 16.9477806 
6.15932894 0.0560547747 8.45265198 
-12.0295038 -0.443300754 -5.01283264 
3.67672896 -0.348703682 -6.04337549 
-2.77254558 -0.239599064 6.93972158 
-19.3500385 0.0915324688 -10.775629 
-19.9063625 0.568049312 7.10039139 
7.85281706 -0.487829804 -10.6797018 
-24.9207745 0.0595646203 20.5389214 
10.2105198 0.32079336 3.91499805 
0.873517513 0.166798159 7.44613695 
-23.6087933 -0.125733301 -6.13210011 
24.7367229 -0.66093266 -12.0386324 
-2.41763592 0.0643544942 -7.12184238 
-1.172943 0.0233024918 3.48449636 
12.3684015 0.360398144 -4.49757719 
-18.7700958 -0.113715127 19.3113365 
14.4958391 0.203010291 -0.0805367678 
10.7603521 0.315143108 -13.3680439 
18.3632431 -0.249492526 0.734701335 
-0.403398633 0.0699031055 -4.53778124 
9.63338947 -0.231935412 7.08812904 
5.35789251 -0.105578326 13.0368004 
3.9350996 0.123553529 -17.3926067 
17.9314613 -0.465554208 12.4199438 
22.0918922 -0.208176821 -5.12009716 
-12.2578964 0.821964085 -19.3065453 
20.6639767 -0.409312159 17.158514 
19.8305912 -0.121370971 -1.18898213 
-22.7502804 -0.367919207 -10.7198572 
19.4031353 0.00451085996 -4.49636459 
20.621048 0.0622248836 19.1922741 
2.96594763 0.412786603 18.0398769 
-20.5072613 -0.104186304 20.3623676 
-0.73945123 -0.13217409 -2.83851099 
1.64122343 -0.162769154 -6.57338285 
-24.6725388 0.316972107 24.7667694 
-6.80383205 0.0369503796 -6.67321301 
20.7560787 -0.0336370468 -19.5718002 
10.5660658 0.433629632 2.99477696 
17.7164402 -0.475457788 -21.0318871 
0.801616371 0.122747727 13.9718227 
-6.28513432 -0.0751937926 3.86791849 
-24.2405758 0.58464396 11.0969296 
2.27011251 -0.0642753243 -4.89169741 
-14.0195494 -0.369525164 5.87138224 
-16.3986816 -0.0123366648 -5.3785615 
7.17134285 -0.48392725 -11.5415649 
6.74911261 -0.133880153 10.344595 
-1.73413622 0.298560798 -5.62241411 
-4.3210597 0.298666149 -4.99688816 
6.08412313 -0.0838574767 -0.91453439 
18.3144131 -0.538206518 11.6732788 
-24.7790489 0.394148529 -0.298835695 
10.6754169 -0.0553168021 -5.66180801 
-10.0705204 -0.472255141 4.88632298 
-16.274395 0.064264968 12.5332794 
-9.74175262 -0.315492302 -7.6263361 
2.05687666 0.361522108 7.337883 
-3.5064373 -0.406847239 -18.8852921 
21.1770687 -0.0180251412 -17.2872849 
-23.3949356 -0.439626724 -13.303112 
-14.1247349 -0.0561932474 14.2838526 
-22.060564 0.269282103 14.9057932 
-3.72610116 -0.0361629203 -11.380372 
-7.08060884 -0.490238935 15.0267982 
-3.26712751 0.246977136 -4.05314541 
-13.6150751 -0.202955142 -3.75555229 
-12.4117765 -0.263523161 -4.49887753 
-17.3744946 -0.218631104 -3.89132524 
13.7576923 0.000554023893 12.2918358 
-13.8246412 0.219262615 -10.3841105 
22.2658405 -0.400682092 14.2010984 
-13.8425865 -0.115825608 9.72859764 
-15.5460882 -0.281415284 -4.27219343 
-11.9905834 0.404452115 -13.9905367 
-16.9591751 0.264660597 -10.6048985 
-5.63417816 -0.650128663 -18.9711056 
20.8259773 -0.329618335 6.06111574 
18.1891441 -0.289497733 6.54088259 
-23.6395626 0.310102671 13.4636993 
11.2149611 0.119464733 -2.35066056 
7.26028347 0.310051113 -19.057373 
-18.3273239 0.320843995 -7.78731728 
-0.56566453 -0.320284843 -12.4816427 
