ply
format ascii 1.0
comment created by gply, a Houdini tool.
comment converted from .[b]geo
comment for more information about Houdini, try:
comment www.sidefx.com
element vertex 1269
property float x
property float y
property float z
element face 0
property list uchar int vertex_indices
end_header
18.5599422 0.265043616 -13.468771 
8.74437523 0.17225723 -1.21579766 
16.1887398 0.315157264 -9.33377552 
6.4961009 0.120397694 -12.9654503 
-7.77834845 -0.556162596 -5.38356113 
-7.41956615 -0.171563759 4.21111393 
7.34674406 0.459300727 10.4865656 
-11.9567919 0.17524676 -6.59550476 
0.149688303 -0.109727174 4.33855915 
5.66493511 0.218858317 11.7400351 
9.25989437 0.0763696283 -24.4725742 
7.71144199 0.276831329 -20.6339321 
20.0401154 -0.254109174 -17.403986 
-11.9387054 -0.398662925 -0.69029361 
-3.28277707 -0.149693325 1.40378392 
4.8246026 0.434991062 -8.99245548 
20.6052971 -0.0972615108 9.42381382 
4.87743855 0.104476988 7.67573261 
-14.4030409 -0.381265581 -11.9197054 
19.0254765 0.219319582 -5.24536657 
21.2328129 0.417482764 14.9148092 
5.78610516 0.412565917 -9.02958584 
-13.3031893 -0.386920005 -17.3243484 
9.75275421 0.060327448 2.44853663 
-7.65440941 0.212984487 -15.9564714 
0.449129164 0.406336397 19.2380047 
17.9241581 -0.539243639 24.1192284 
25.0237217 0.0123027284 6.51874828 
-6.93113899 -0.326214641 12.020896 
-5.97608662 0.331302136 -10.5555124 
10.8887568 0.266304553 0.805004418 
5.35448217 0.283512175 -7.22875834 
7.83350134 0.61621958 9.32923412 
-13.362793 -0.0378540158 4.19742727 
-14.8354607 0.309150785 14.1962729 
-24.3430901 -0.243549228 -8.08489323 
13.6185627 0.11277777 6.86379719 
4.8757906 0.0875499249 12.081377 
-9.59499741 -0.0124666477 -7.98350716 
22.305563 -0.454308093 5.52878046 
10.4881554 -0.256539851 17.6959038 
-10.6139174 -0.208178967 1.25830531 
21.4342995 -0.337096691 7.83578491 
21.6852875 -0.0763826445 -4.83359718 
-7.17254543 -0.418798685 20.5554161 
-19.1252594 0.500366211 3.95967364 
-7.05893373 -0.416477978 -1.4367224 
-14.7322111 -0.333021969 20.2389069 
-8.97440338 -0.332979053 9.81908607 
-20.6531086 -0.1901021 19.3227043 
22.860033 -0.0761502981 -9.84284973 
16.5217323 -0.311768919 -21.2930031 
5.02410936 0.621266723 22.4977226 
-18.6986465 0.368527323 -0.451099217 
17.3168068 -0.610121667 24.5660553 
13.8858681 -0.314946532 12.9428253 
-1.87650228 0.145162895 13.621273 
7.23184109 0.170612291 -3.28025889 
-24.553297 0.286691159 19.6201687 
23.1387348 -0.514097393 7.20591784 
21.6525745 -0.515122652 4.06195831 
-8.81830502 -0.372634917 3.64431095 
-23.8519382 0.254172236 -15.5943851 
22.8272877 0.0858544111 -17.7778683 
1.7595284 0.106005162 12.6442337 
20.6772518 -0.0978368074 11.6318703 
14.0983496 0.525827527 3.50880527 
-15.4964142 0.0234551411 -4.10308695 
-7.75362873 0.118130572 -10.5445995 
10.2746038 -0.0356064998 -21.790308 
-23.9216557 0.314675122 -15.8793602 
-3.83624578 0.359585196 -13.368187 
-15.6088505 0.256902665 9.35680962 
-20.9198055 -0.166236743 11.7311277 
16.3188057 0.431083322 -9.50144291 
22.4214172 0.196920365 -8.83588791 
23.883606 0.0615458041 -3.51353025 
1.62918973 -0.276084632 4.03742838 
12.2578239 -0.220105886 -12.1945992 
17.8318653 0.285483003 -11.8981209 
14.1798334 0.42495209 4.13571358 
21.2924595 -0.140039653 -21.8096504 
3.56628942 -0.239921942 -17.1306019 
1.44010854 0.0983665511 -7.31238794 
-19.8470116 0.732315302 -0.897734702 
-19.4064426 0.866884291 -1.61493969 
20.9656696 -0.383201569 6.84101248 
-6.05342436 0.494927078 -16.7736454 
0.187763631 -0.233343795 -21.4560261 
-14.3989782 0.251179248 13.6617022 
10.2274847 0.0984682068 -18.2506485 
-5.74444485 -0.23227036 2.3874197 
7.53761673 0.114917964 -6.54097795 
9.8790369 0.00890466012 -4.58801031 
-7.90038061 -0.351235569 -6.37292004 
-15.3930626 0.0955366418 11.9589281 
5.05653048 0.454277873 -9.11011028 
14.2734137 0.443666309 3.92054152 
-21.7293549 -0.143670887 -6.54875278 
-19.6070385 -0.174980551 -6.78902149 
-13.2317476 0.0878903121 6.04036427 
11.1732883 -0.238270715 13.3942804 
18.4491024 -0.031226838 15.7294073 
-17.4225063 0.392640233 6.84144068 
13.9965715 -0.26610592 -9.72386265 
-18.7794914 -0.0163476095 -5.0799818 
3.47607732 0.119017921 -10.6874075 
-7.13306332 -0.632255435 18.3688297 
20.4034443 0.102641322 -15.4180422 
15.9570818 0.147829369 -0.664442539 
-12.2614269 0.166759208 5.80951118 
-5.33852577 0.0698291659 -24.6643639 
-22.8905735 0.123143025 1.5454098 
16.6933861 0.626478612 -8.19830227 
-9.21982002 -0.331843317 2.06619883 
-11.2030401 -0.354254276 -0.039969638 
18.8471489 -0.102524504 8.90984631 
6.11109447 0.53170985 8.07058907 
-2.37230921 0.0901236385 14.3058023 
-5.6619854 -0.209498316 -0.919611216 
-4.0629096 -0.189803302 14.2189369 
1.77547932 0.0211576074 10.8615294 
-21.2777348 -0.0100256447 11.3043041 
-19.590332 -0.259239674 -11.4050379 
3.10960197 -0.127372444 -2.1690805 
-0.497961938 -0.190596849 -6.9564085 
16.5573196 -0.100445136 -12.1933231 
17.0401783 0.598161638 -9.79478264 
-13.8435059 -0.283341378 1.8562628 
-21.8773594 -0.100779362 -7.96567249 
17.8917789 0.407082796 -7.45747042 
-21.2339649 0.630577326 -0.91836071 
-15.1838732 -0.0752374828 6.55473042 
21.1258698 -0.350951433 6.87473392 
-19.3950539 0.389241129 8.1646328 
-18.5682545 0.378122985 8.70047474 
-15.8719273 -0.247275233 -11.5425463 
24.8516273 -0.114033438 4.43194294 
-8.43763256 -0.261891991 -13.6091223 
3.10772061 -0.00483934768 8.40104866 
-22.727354 0.259015024 24.502861 
19.9533596 -0.252146125 3.15332007 
-1.69332659 -0.00355799403 -2.04152966 
-16.3238163 0.254637122 10.2937231 
11.810957 0.318769664 2.53425026 
-10.4314098 -0.266867697 -13.9162073 
-5.04517269 -0.235231504 -1.93446898 
1.90636289 -0.00970946159 10.1846294 
-0.102323666 0.147256821 -14.4864893 
-24.4871941 -0.103931315 6.36243391 
-19.2364922 0.467827439 6.0225091 
12.3075495 -0.0273528732 15.8723726 
11.0986643 -0.0129942261 -22.8144455 
17.4467907 -0.452742219 18.0841885 
15.8795815 -0.384110838 23.2063198 
-4.9317584 -0.196460187 12.8323402 
-15.0898638 -0.189800531 18.25741 
13.8690996 0.0797629431 7.39643621 
-11.8419027 -0.163455784 -2.8114655 
-11.0856714 -0.215234682 -11.2104101 
-12.1504145 -0.320729971 -15.7170038 
-3.29738092 -0.159163252 2.36470866 
20.8776531 0.00757587701 -1.81250238 
-1.91959941 -0.348366112 6.30907393 
-16.532732 -0.39421466 -20.4300232 
-20.8392811 0.678288162 0.885954082 
12.7169275 0.0707942843 -0.78059262 
11.038353 0.184163764 -17.1500034 
4.576159 0.375030249 17.7218857 
6.81377935 0.476934224 8.91457081 
23.7269573 -0.141027749 15.0480709 
17.3251972 -0.212633729 -16.3181973 
24.7224998 -0.266182721 1.04843688 
-3.49714088 0.283692181 -13.3859787 
18.6345863 -0.0379158035 0.834799647 
-21.6332626 0.455257148 -0.169073433 
6.66219664 0.451054066 8.96516037 
13.3635731 -0.216707364 12.0715389 
25.0156555 -0.134668365 7.30256414 
9.29338837 -0.0608411133 -3.69138074 
-9.69702721 -0.100907549 -10.6609573 
-15.7139406 0.0261878539 -4.62786102 
18.818182 -0.0955446064 16.4618797 
-5.8056283 0.686608493 -14.7716141 
-19.7043247 -0.187550932 -13.9631338 
5.83651161 0.0163999405 -2.44289327 
-19.569418 -0.276683539 12.549365 
21.3078957 0.14321281 -7.90879917 
-22.7196827 -0.344672799 -8.69665432 
-5.78856421 -0.226407126 10.7375355 
-8.51256943 0.331790149 -20.1622543 
-12.8527699 0.169243008 12.1790056 
-21.3634796 -0.277282715 13.6889181 
20.7684803 -0.152690008 -17.3965893 
7.85198641 0.584357917 9.00427055 
-21.8266659 0.227058128 -15.7053642 
19.7391949 0.385178417 -13.1818218 
14.6157179 0.33285442 1.30199528 
-18.1560459 0.339280307 0.648947895 
-2.97417641 -0.144127578 -4.87320423 
15.6091146 0.207497969 5.43031263 
0.103451431 0.201009899 -14.2284575 
19.2148304 -0.200977802 -16.0801125 
2.11669278 -0.380776346 4.15230608 
12.7877588 -0.148235366 13.7276382 
18.6804371 0.0445764624 -0.792273879 
14.7928705 -0.275305092 -11.4612389 
8.75007915 -0.354507804 -9.87453842 
-11.6048412 0.135303929 -22.7906284 
18.4756069 -0.346274555 -18.4136982 
4.88621521 -0.00734742451 -2.52853155 
21.0041389 -0.159830019 19.1114597 
18.1892929 -0.0234111063 3.85401559 
-20.0404816 -0.0805620477 -15.1647978 
-8.09492207 -0.33334583 17.7113094 
-19.9225845 0.334768504 5.50159264 
-17.3579445 0.00529474113 17.0745945 
-6.25082874 -0.269001603 9.86349487 
-14.1423941 0.232031748 13.3346987 
-18.5520287 -0.181299359 -14.1937428 
6.51525307 -0.164182231 2.3091538 
4.38506317 -0.250881761 4.76892042 
-6.85007715 -0.682786882 13.4321833 
-8.90344715 -0.154433757 5.38095856 
-22.3416538 -0.249900043 -10.3377771 
18.1231766 0.307978123 -6.1926837 
16.7566643 -0.099700056 -12.4797363 
20.6602478 0.00326828682 -4.46454334 
24.2495613 -0.118295893 0.259318173 
-9.30767727 -0.534871161 12.5366335 
-9.37124062 0.132660508 21.1189232 
-4.05960703 -0.126195818 5.06059408 
-1.40214992 0.283179045 -11.7475204 
4.59268236 -0.0771596655 -2.50351286 
2.799932 0.30708167 17.62607 
-18.1171989 0.643945813 4.9320569 
15.203783 0.225896329 -1.17210567 
-5.04854393 0.381916881 -11.0629673 
5.18064404 0.379948407 15.9570875 
-9.50999641 -0.0282268301 -9.95758057 
-2.26016474 0.088526763 -9.63504505 
-15.9017897 0.0941401497 -5.90637684 
-16.4259224 0.478800952 14.2088528 
23.1629925 -0.0946062282 15.6695633 
-14.1718225 -0.0747162327 9.47004414 
-15.0562315 -0.34490636 -12.5786686 
-4.18545532 -0.304474413 -6.01951742 
-8.11124992 -0.323016733 3.60486221 
-23.0756035 -0.286349982 18.1984425 
8.02327728 -0.154850349 -11.5342922 
-2.46775317 -0.116965249 -1.38153863 
19.1824455 0.368147314 -11.4963131 
-21.5993729 0.0871546045 6.53125954 
-22.0218601 0.124942966 -13.8097191 
-18.7781239 -0.404852599 -11.2222824 
-1.3120954 0.235019758 -9.18976879 
11.7301426 0.15626587 5.87603664 
-2.56036949 -0.391950518 5.9127593 
15.2832823 0.32566461 3.26392436 
-2.89476848 -0.121104844 -5.01539516 
-10.6485825 0.285837144 -24.9540348 
12.6990309 -0.228290245 -23.3241653 
21.7885666 -0.455102652 -0.423178196 
-21.4663467 -0.0603810996 -10.6840315 
21.6856956 0.204687461 -8.02773952 
-5.25126648 0.0539822504 9.51929474 
-18.8593216 -0.265910655 18.2798901 
-14.7730122 0.159146518 12.6358166 
22.4797821 -0.390627235 -24.1680851 
16.8193035 -0.101678982 -2.02203059 
-9.78276157 0.317484736 -19.8619843 
21.5084209 -0.437789798 0.434696883 
-22.0662308 0.0604739524 4.59463644 
-20.6981754 0.417264551 7.36401272 
11.1200829 -0.239931986 -3.79978037 
22.0781307 0.298768491 16.666235 
-4.98164511 0.534567833 -14.2163391 
-15.5643387 -0.693728685 22.2368279 
-4.19555759 0.136127964 7.62914658 
-18.214098 0.388267189 -4.84207678 
-5.34942436 -0.377056301 21.2267075 
-18.2701473 -0.150204092 20.8783417 
1.30391693 0.291396767 17.126194 
-3.63098025 -0.443255782 17.8880005 
-17.5012016 0.38802281 4.65311527 
24.1120872 -0.0596285798 -0.122353584 
2.78241873 0.0312122628 8.921175 
3.59466553 0.0501419716 12.81814 
21.534977 0.302435905 -10.7033558 
8.04286861 0.203330204 3.02310395 
16.9140415 -0.0347619765 -1.24446404 
2.57011509 -0.11671073 -23.5170975 
17.5410271 0.0264215227 1.50089324 
14.711751 0.48065877 4.34391451 
10.2949705 0.138750121 -1.43660235 
7.57915688 0.289666533 -3.3634634 
-18.8871861 -0.259498924 -14.4681807 
-24.6249809 -0.114539012 2.44387794 
1.5955025 -0.354348093 -1.58193839 
17.1315136 -0.0514216423 4.44896746 
-4.18658638 -0.152766183 12.6966915 
20.850399 -0.0530094728 12.9465322 
0.786049187 -0.165735513 -2.72257733 
11.4091539 -0.49028036 -10.9949684 
-10.6604319 -0.293850958 -14.2583065 
-23.3373966 -0.378451347 -10.8323507 
-15.1872416 -0.0937617719 -9.47891998 
-22.6547794 -0.263561487 18.056406 
13.523035 -0.112573519 -17.3980923 
12.158534 0.216521561 5.07230139 
12.6932373 0.0624576807 19.1081009 
-20.195507 0.761884749 -0.599285007 
0.256435245 0.19074817 -13.1295986 
-16.7370625 0.2818771 -0.369084775 
12.1894178 -0.0103178285 13.4687262 
12.0165768 -0.0238897894 -0.961248219 
-18.8301659 -0.258258641 19.0334244 
-17.4651833 -0.3294563 -17.6448975 
-13.2985001 0.267973483 11.1965446 
5.44262314 -0.0936069787 -17.0546322 
22.6057796 -0.0964311734 11.7752237 
2.13169861 -0.434456795 3.64669085 
20.1433163 0.427579373 14.3206348 
9.00035477 0.124173045 13.4626493 
-12.6761818 0.102361448 10.3288593 
8.24803448 -0.183058932 -7.33558273 
-15.075388 0.00849464163 17.6273384 
-11.0842609 -0.346325606 -0.347476751 
-19.1992702 0.726967812 -2.52505922 
18.0927296 -0.289654553 5.85586929 
17.5230846 0.621231973 -9.04252148 
16.8812199 0.180687055 -5.42254305 
-5.7299037 -0.729089975 18.7458534 
3.62972188 -0.314699203 1.731341 
11.145092 -0.677611351 -9.40702534 
-3.77066517 0.300432712 -12.0348034 
12.8959436 0.138678327 6.59788036 
14.9831161 0.129199311 -1.75641322 
18.4239922 -0.0551750138 -3.05931258 
-16.8770466 -0.201655313 -14.6041536 
-20.9417305 0.258247584 -3.76694179 
-14.0803127 -0.559641004 -19.2294998 
-4.72062731 -0.358741194 -5.72052717 
20.6255932 -0.433857203 4.03956318 
5.41760254 0.0923421308 -18.5768204 
23.3972855 0.0654761344 -7.41049528 
20.8068905 -0.371583611 6.86995888 
-0.568050086 0.232753307 -10.1534224 
17.9950218 -0.370407343 8.89740849 
0.0738925785 0.0103560723 -4.30962563 
18.4182816 -0.00626487751 11.6434069 
4.60901165 0.0760966167 7.03976059 
0.830764771 -0.0098779127 -13.4487982 
-5.46714926 -0.446322769 13.7940645 
24.0926952 -0.370465964 3.38785195 
4.91406536 0.0239428766 11.2680569 
20.9657745 -0.173785672 10.4987698 
5.56121922 -0.0559149049 -0.374343038 
-6.64834833 -0.342278391 10.6323338 
-14.1736135 0.235754639 16.7157421 
-6.26627111 -0.551509917 13.5671139 
-18.5103531 0.583876252 5.56265211 
0.74129349 0.0736818314 13.3114834 
-0.593634844 -0.221861973 18.1602745 
-10.4311142 0.123150595 -18.6599102 
-8.78077412 -0.371745735 1.68953216 
-11.5507345 0.256218612 5.0284214 
-12.0840054 -0.215588555 -17.9497929 
-16.7275696 0.297726184 -3.41664195 
-2.6611743 -0.101546563 15.2989092 
10.2006636 0.0805945098 -0.92633909 
-15.8753014 0.0808595568 -3.75635695 
3.94244194 -0.33135739 4.72533512 
-18.7967834 0.559661448 -3.74542236 
-16.3050289 0.235697523 6.8881793 
-21.4216366 -0.16517891 18.2747822 
-15.9758244 0.0822771415 -6.83653116 
17.7853317 -0.130824402 -16.5156403 
-17.2381725 -0.388835132 -18.7327137 
24.9577427 0.234530851 -3.99490595 
15.5854216 -0.141459227 9.38075256 
10.1520023 -0.468749285 -12.5450802 
-14.5821409 0.0541992895 -5.49293089 
16.3165112 0.0612865128 0.438861459 
-9.33545971 0.134300888 -18.7310181 
-9.15472031 -0.437006623 13.5061817 
-13.4151421 0.213852957 -7.03434277 
-20.9308739 0.237157911 -17.0380421 
-12.6648045 -0.0177336372 7.3860445 
5.19592524 0.189207941 13.5893316 
-21.6057854 -0.223374948 13.5479641 
-13.7761936 0.24024117 14.7019672 
7.45197439 0.267837822 -0.260850251 
12.1070738 0.216780409 -16.9250507 
5.44827366 -0.106743388 -16.3178768 
10.3543282 0.177070528 -1.27848923 
23.4793129 -0.0274318643 -7.66899967 
-14.9974566 0.0649755746 7.55970478 
-1.15589154 -0.123623118 3.55001545 
4.02544689 0.156515911 -5.5802927 
14.7914371 0.0830525309 -1.25722134 
-20.8871689 0.0935933217 23.0812378 
-12.0848074 0.123264194 6.21395731 
-18.84025 0.465156555 0.149759233 
-19.0613575 0.548758447 -1.36672461 
15.7437668 -0.257513553 13.2441387 
23.3081627 -0.485945821 3.33460689 
1.27425432 -0.0701577812 -23.979908 
-20.8370419 -0.339768857 16.8250389 
10.9519444 -0.66167742 -9.0720377 
12.7642612 -0.167072952 11.974082 
-7.50509787 -0.458612889 15.3439884 
18.302021 0.00825233106 1.24335158 
10.2716503 0.122305684 -18.1305523 
-17.0505447 -0.460018426 -16.981432 
8.57934666 0.623196125 6.79990482 
-10.2660847 -0.196600169 -2.94802284 
-10.1195173 -0.174797013 8.58587074 
-15.0955477 -0.476222545 0.394865423 
19.7144794 0.383710921 -9.40054131 
-14.4313688 -0.630149305 -19.2943172 
4.03954792 0.210591972 13.8778505 
-0.481843442 -0.146756291 -6.07059813 
0.518277884 -0.37562567 6.17561388 
-20.9527626 -0.149858192 20.0834942 
-6.51351786 -0.106849112 -8.25232029 
14.3094015 -0.0693791583 16.2810974 
25.1246204 0.122442536 -2.49254131 
5.36701345 0.228021234 13.1432524 
2.07418823 -0.36502856 7.57263041 
-15.4403801 -0.314301968 -12.5989208 
21.6189785 -0.402926475 -23.343626 
-10.907855 0.00361301377 -7.07632494 
9.1318512 0.182911888 12.3904018 
23.1813297 0.0355373882 -18.3642292 
-19.9847755 -0.105418824 -14.844451 
-4.54315329 0.231650755 9.03861427 
16.5822639 -0.0741306916 6.72200489 
4.7239542 0.0947957337 8.08342934 
15.521347 0.290827751 1.2256813 
-21.4416256 -0.0192271825 -13.829915 
24.9904842 -0.269360393 1.18118334 
-17.5570393 0.23586145 -5.77954149 
22.0524902 -0.0223779473 -5.00608969 
-9.40774155 -0.232988641 16.940527 
-14.9440479 0.0993431658 12.1882801 
0.667295337 -0.181349233 10.5914164 
-14.806673 0.0539349355 11.3305292 
-2.3795054 -0.213523909 3.91534305 
22.9581146 -0.596813679 9.10507393 
7.43483591 0.511935771 5.81723022 
-2.93984675 0.176075757 -18.0140457 
17.5755615 -0.0780794919 15.2038059 
-4.7371335 -0.21703212 22.6801395 
-2.34249926 -0.134752512 2.02508664 
21.4466362 0.440636516 -11.5201578 
-17.7694931 0.0743019134 14.418107 
-0.38319543 0.0469466448 -3.39647794 
-21.3906784 0.282272249 -17.0670891 
-4.06825924 -0.218491867 -2.90910029 
-15.6687632 -0.625326335 21.4756794 
19.6746464 -0.353023678 7.58781576 
-18.0196114 0.271447659 -2.71180654 
21.1405468 0.0743283853 18.1246643 
-10.0289555 -0.300223678 15.1674337 
-21.8426743 0.11075335 2.9556241 
5.69915628 0.462285757 -9.42155361 
-2.52668452 -0.334106475 4.42389774 
-23.5067005 -0.316543281 14.9913769 
4.07257271 0.0265923738 -11.8695269 
18.6903667 -0.122074001 3.16696143 
-24.7149715 -0.119655535 0.759667158 
-6.35178804 -0.676010609 19.3449192 
-9.5268774 0.0439932905 -8.77324677 
6.3780942 0.477132529 6.01326275 
19.0714531 0.154917315 11.5990162 
-23.3602123 -0.283224493 -7.23997021 
-14.2151556 -0.0102104302 10.1707487 
15.4865942 -0.164248526 10.7775869 
21.98703 0.113131709 -16.6942406 
13.6824799 -0.0703665391 8.25043201 
-15.0918369 -0.234862432 -10.5960646 
11.4205475 -0.0577085167 25.0187225 
-14.2724133 -0.28923744 22.0845928 
-18.2764912 0.557799101 3.00779414 
0.1746016 -0.0821820945 -7.98344707 
-23.8727074 0.0608885363 6.37055779 
-18.1885929 -0.137590021 -6.97859192 
5.86581993 0.154347152 -15.3287096 
24.151825 0.280985236 -19.3794651 
15.9226522 0.235996649 4.14537144 
0.943076372 0.0568124503 -5.78629637 
4.80655098 0.081273362 -12.6143045 
-7.41205645 0.261221975 -22.9178257 
23.349968 -0.0476303846 -10.7653112 
-21.8715763 -0.288113862 13.8739443 
16.0346241 -0.268602759 13.273634 
-8.59605217 -0.391028196 9.62014294 
21.6724682 0.225502938 -8.18443775 
18.4110641 -0.0877893344 -2.85577941 
1.04023862 -0.393882811 9.05674458 
4.88480234 -0.146174818 -0.916571498 
13.6050987 -0.110347211 -16.521801 
6.90315199 0.205884844 -10.0488367 
-5.7434001 -0.336868018 -6.10835505 
-20.4514618 -0.0535255112 -14.5554886 
11.2538691 -0.615360141 -9.10996914 
-4.04078627 -0.132057354 12.641818 
15.0790348 0.223597765 -6.29371834 
-17.5830097 -0.281227916 22.8104744 
21.6520252 -0.438638568 6.0010047 
9.54292202 0.0504201017 -1.98661661 
1.61195588 -0.414473325 -19.4214935 
9.28446198 0.451541305 7.0283699 
6.75498199 0.170784578 -5.49069405 
10.7732468 0.23904407 -0.68661797 
17.9357872 0.0474696904 0.630284429 
5.79382229 0.540330768 6.55794144 
10.4673729 -0.0564195439 19.3383675 
12.9839506 -0.313535035 -11.1971493 
3.43506503 0.0856795162 16.2276497 
-11.2458878 0.156316742 5.60617828 
-3.14550972 0.1018162 -18.7915554 
13.0039577 0.191616535 -15.7453985 
4.7573123 -0.00681841001 10.5571804 
15.7853203 0.189513162 -6.62533426 
14.6940308 -0.275867581 -14.3171434 
1.09600282 -0.0133443885 -5.39794683 
-0.0189487934 -0.037036255 -16.4416256 
8.69252968 0.605379939 6.70603943 
-0.814816833 0.225087777 11.6103067 
2.56288958 0.27609688 -7.1510582 
19.8478012 0.0241433717 -4.35453653 
7.23534346 -0.00724706007 1.87105691 
9.76126957 -0.417018354 -13.0242548 
13.1585732 0.550396085 4.56128931 
17.010601 0.641631603 -8.83721542 
-23.3174629 0.638899624 -18.9989281 
12.2566824 -0.324851453 -4.69082117 
-15.9913721 -0.442424357 -22.3131809 
9.05421925 -0.487683296 -7.49519205 
8.8592205 0.0501134545 18.4212322 
17.0310669 -0.0715339705 -0.154522017 
17.9662247 -0.226385698 5.55185175 
12.5891418 -0.202545255 11.5665874 
6.03671455 0.354486316 -10.5911369 
-4.30966234 -0.155200496 12.3084908 
25.0438557 0.361869603 -16.1108742 
-16.0340233 -0.0158036388 3.13926911 
-16.4070625 -0.47746405 -18.4562969 
22.5542393 -0.234388486 -1.40058982 
-1.20712709 -0.0447899587 1.82612336 
21.7142963 -0.0226186067 -19.1811638 
6.44254398 0.247701064 -10.5557575 
-7.51131773 -0.285882384 -8.20715904 
-16.2156868 -0.420187354 -15.4303694 
-5.27439547 0.574727297 -12.5856857 
8.1215744 0.0924999192 -15.3862944 
5.76932621 0.145821109 -12.7806778 
10.7970095 -0.34000054 -13.1543331 
-2.00037074 0.175931618 -16.4472713 
-21.4368935 -0.486919194 14.8364611 
-7.41068125 -0.338239789 7.23860264 
14.9259434 0.0844683722 -5.10057497 
22.8078785 -0.491407663 3.97345614 
-19.3108845 -0.472118109 -9.98027515 
17.6021519 -0.230699047 -20.3168335 
9.34012508 0.465105802 8.84273911 
13.3416777 0.279747397 17.5753956 
-13.3497791 0.202412128 20.3689003 
-22.2704678 -0.167096958 -11.6718607 
15.3300095 0.370851308 -7.34220743 
-6.93105745 -0.314098448 0.821577251 
-9.19718361 0.342004746 23.1249561 
24.9718933 0.151100889 -21.9261055 
-16.6357117 -0.542740941 -17.7737865 
-16.5829124 -0.580764413 23.0487614 
23.2644672 -0.0882674828 13.0135851 
-12.4876451 -0.335973442 -11.9219646 
-20.2969971 0.761448085 -0.520438671 
-4.15835238 0.135786116 7.95490742 
-2.30701065 0.0935483575 -19.786026 
24.3496189 -0.314905167 2.72697759 
23.5496349 -0.0256639346 -11.8135376 
17.8117123 -0.372013539 -21.512104 
22.3252697 0.182715073 -15.6352577 
18.9464912 0.03596697 -14.9688663 
10.5791225 -0.766048431 -9.10954762 
8.91003513 0.14876461 13.4336119 
3.60499096 0.141763404 -8.3282299 
19.7950191 0.392841876 -12.3305683 
-14.1837864 -0.413155645 -14.1730022 
3.60395432 0.0633477047 9.23182678 
13.6672373 0.541041017 4.40464592 
-15.196353 -0.265146405 -1.42734957 
-1.9142642 -0.10606911 2.7186923 
-8.72233486 -0.501772404 -1.87573314 
3.57931781 -0.0616006143 -22.9596748 
19.3263073 0.281232476 -7.60773277 
22.349041 -0.472286284 1.44179511 
19.5860062 -0.295223981 -17.0428867 
0.0885401741 0.177212179 -12.3760509 
-3.75470972 -0.11405392 -9.83765602 
-24.4649563 -0.13084133 12.6540337 
-20.8924332 0.188023701 -16.2208862 
0.462085277 0.176822454 -12.2361774 
17.9187241 -0.193120241 5.24700308 
3.65513349 -0.228998631 6.63668537 
-1.71736324 -0.365936518 8.41128349 
-13.0937872 -0.442253172 -15.8984985 
-23.1544571 -0.0587757714 4.2592063 
0.495888293 -0.268182516 -19.6702271 
-10.5297041 -0.11101573 -10.599597 
-25.0188007 -0.199853316 -7.75620985 
-7.64440012 0.0880309939 -11.5862494 
18.939621 -0.15249607 8.08374786 
19.0694275 -0.280598402 7.62337732 
-9.31560135 -0.360470712 -1.3173511 
-10.7531052 -0.0393240415 7.35785484 
10.2446594 0.0198343936 12.5961781 
-16.9657135 -0.215529501 -13.8027706 
-18.7538853 0.572322786 5.03268147 
21.1262131 -0.2441089 -21.5423126 
25.1370354 0.118018188 -2.32563066 
14.0911083 0.377084702 5.56382799 
-10.4409037 0.0909217224 16.8118992 
5.42073441 0.483859986 -8.75255108 
22.9980736 -0.479000807 6.53692675 
6.94855785 0.213440552 -6.19385719 
17.9942627 0.211865813 -5.75941801 
-17.1940231 0.0555347987 -7.01976776 
10.2581682 -0.112550572 18.0987892 
-23.8671093 -0.290227056 17.790699 
-12.5078106 -0.423998147 -15.2480516 
-18.579073 -0.0595154054 20.889122 
-22.766737 -0.180188864 19.040535 
12.7186623 -0.24251844 11.1931639 
-24.3553448 0.360502481 19.739069 
-13.2446299 0.421811193 15.9009037 
5.5982275 -0.267978311 1.76749969 
-9.4728384 -0.295998842 -0.691410542 
-24.7308903 -0.169049218 16.9790401 
-21.1097946 0.153081462 -4.223876 
-19.2445202 -0.147082105 20.2551937 
-15.6603642 -0.632192135 -16.7761269 
11.4809189 0.0857932568 -0.281245977 
-24.3539829 0.295452744 19.1346474 
9.4914608 0.35408631 5.86289883 
-4.12538671 -0.100892492 -9.5259819 
10.8506966 -0.350804001 -5.24918509 
17.1425056 -0.00735952612 -2.93263483 
17.5427189 -0.550138474 -22.8445129 
23.9595852 -0.369872212 8.79246426 
-21.4569016 -0.203469917 -11.1848974 
-19.3613796 0.0226544831 -15.9644613 
9.75394249 -0.115233138 -3.45977616 
-23.7426453 0.0316887461 1.42243683 
8.55353642 0.00552926166 19.3731194 
-19.8444443 0.335407555 5.32633018 
20.7357464 0.397591859 -10.7574844 
5.61944151 0.236117616 -6.63651657 
11.8716421 -0.307081342 -3.75436163 
-20.1972866 0.523791134 2.81168437 
8.81094074 0.0862738937 2.19372368 
11.909255 -0.465235233 -11.6448832 
-20.3193455 -0.35603568 18.0757313 
15.7746105 0.0698778033 -2.98437858 
25.1445618 -0.160905004 5.54267073 
0.643399656 0.456177086 18.1851616 
22.680294 -0.0336725973 -3.67110777 
16.0811806 -0.274519265 -13.1308975 
19.4632378 0.425667048 13.9834204 
-12.9744053 -0.0391296558 -22.407753 
5.94466972 0.343701392 -11.1495752 
-17.4187431 -0.102732912 -7.84639263 
5.18117094 0.0308799911 -13.7485752 
3.45951104 -0.369479746 4.05450201 
-4.96995115 -0.244994208 -4.48965168 
-15.632247 -0.334303409 18.2872105 
17.773634 0.038879443 -1.20375705 
-9.91484833 -0.258402973 -4.57738638 
-11.4589481 0.0375625677 -3.62216544 
-16.1931038 0.471626371 14.8770113 
15.6316872 0.272819251 1.284168 
12.3267384 -0.113324262 12.4208956 
-1.87633646 -0.0100396797 -1.39961076 
15.0924854 0.0986110196 -7.66915798 
14.9350872 0.373431325 2.49322534 
-16.1299191 0.456745863 15.3642721 
-13.1221895 0.323862493 19.650507 
10.9405823 -0.682309806 -8.3816433 
-24.2203178 0.0833611712 -14.9866629 
-15.0641994 0.30870986 15.8160725 
13.4945326 -0.145186335 -13.5530853 
-11.7108879 -0.230792597 -12.9169502 
-2.58494234 -0.361234903 22.1395588 
14.7467022 -0.150558025 -10.1410437 
2.51451325 -0.322174549 2.28455544 
6.34092236 0.545472443 17.2812309 
-18.2151604 -0.150156394 24.602272 
-23.2064533 0.374062359 -17.0501022 
-2.62078977 -0.0811820924 2.55940747 
14.9535599 -0.403457046 23.891943 
-22.5066776 0.0587392747 4.19960642 
13.7293816 -0.450123101 -21.4932232 
17.6492634 0.352936953 -6.76858473 
-11.7510986 -0.239465535 -18.8440704 
-4.8213768 0.267230928 -15.6737528 
-6.57280064 0.286153346 -20.8009109 
5.91866589 -0.0765454993 -0.297745883 
-8.85175419 0.101142496 -10.7450619 
4.47515059 0.0129895499 -12.7910433 
9.13462925 -0.0279057361 -3.63279033 
19.873085 0.463095605 -10.3017664 
-4.6103754 -0.27919358 21.9772453 
-7.51149797 0.2395913 -20.0993271 
9.33446217 0.126326323 12.6264563 
-3.55492425 -0.330194652 -5.02781343 
24.0286388 0.0313590169 12.3879738 
8.06498528 0.110723309 -16.7787476 
0.459719151 0.348295629 17.711401 
16.2215252 -0.41684106 -23.0858097 
-11.2369576 0.052464176 3.78514194 
-9.71763611 -0.226936415 -6.10471725 
20.1344852 -0.0534995571 11.0036888 
-19.5793056 -0.282918394 16.9221497 
-13.3912668 -0.329041481 -0.546733081 
10.8771639 0.0729080513 -18.7957897 
1.70582724 -0.0531686619 -5.10318422 
-4.19508505 -0.196068227 -4.23213434 
-16.2407932 0.27491802 9.68204689 
-11.6827402 -0.153657004 0.921362817 
-17.0690937 0.251765758 11.12749 
3.47549367 0.223545238 14.3609381 
-7.3503089 -0.275263399 6.87449217 
-10.2915859 -0.352003396 12.150404 
17.9965553 0.308546454 -6.11977339 
-1.09122503 -0.281858116 -7.06179619 
-0.485918999 -0.149903908 -24.1735554 
21.0644035 -0.0804525688 -3.92016983 
8.98665237 0.136057511 -21.2948303 
-14.2190981 -0.224318221 -4.04262829 
12.1026859 -0.338290393 -6.88802195 
3.85930204 -0.258687377 5.20685482 
-4.6396575 -0.0395636372 -0.580142617 
-24.5868301 -0.286442548 -12.6326256 
10.8435459 -0.00325516937 11.6642141 
-20.8701973 0.266750902 -18.809885 
-20.831461 0.748949409 -0.98268342 
-23.0849304 -0.127013445 10.0573654 
-2.20006275 -0.31000343 7.73056555 
-12.2376833 -0.338755816 -13.1862183 
21.7802162 0.233436301 -9.79012203 
8.39491558 0.422454774 6.29353905 
-3.60379839 -0.145616382 6.57371521 
3.84589863 0.114008546 -7.53042507 
10.0102024 0.11845766 -17.7107983 
-21.3885155 -0.231401026 17.8102131 
-15.1865768 -0.00159140956 7.00048399 
-4.72139454 0.0154742748 -8.61194801 
8.36902046 -0.202969253 -9.42754364 
-16.2224045 0.225465551 7.30178261 
1.93019295 0.284900576 17.3231735 
-9.30955029 -0.041917406 -7.95088816 
-13.949069 -0.304196805 0.921486974 
-0.871365607 -0.220066324 -4.98965311 
-1.22245121 0.206053808 -16.7194252 
-11.2171202 -0.0238151867 13.6182566 
-15.5173054 -0.11364267 6.33451176 
-12.641923 0.546920955 18.3117218 
-21.2945042 0.547362089 -1.56637883 
-3.68033314 -0.00763557712 0.819856226 
18.490551 -0.46280852 18.617382 
-7.14485598 -0.577374697 14.6868496 
1.4625957 -0.239638031 -17.2592373 
-20.3800411 0.321528673 4.26022291 
-3.24610257 0.0350337029 10.2119789 
8.95731163 0.0650726408 16.4556351 
14.7311058 -0.332688808 11.6924543 
16.5513058 -0.549311936 -16.9590511 
-13.2255793 -0.0928730145 -21.8041039 
-24.0544815 -0.326221406 16.4764309 
0.227467448 0.0226976275 11.0609703 
3.13790131 -0.412022173 3.14750028 
-19.6692657 0.755007446 -0.59650892 
8.7555027 0.0565347224 18.5699158 
-24.5858517 0.0789957345 -0.111721694 
6.34968281 0.429835945 15.8547516 
17.5048885 -0.18410714 -17.5871525 
-1.93209422 -0.097105898 -2.6133287 
-18.507618 0.59130156 4.79760551 
-20.0699692 0.336878479 -3.61364079 
16.9729824 -0.0612869188 16.4403763 
21.5699253 -0.31849733 10.3205414 
-21.1333199 0.154316679 3.27080631 
23.3482609 0.0594837666 -3.67550516 
11.7593575 -0.123868532 -2.81187129 
-24.4815655 -0.102029465 3.17760849 
-3.31628966 0.170498118 -21.8670597 
-12.8209438 -0.0153013431 -9.41645908 
1.50447571 0.590021551 19.2926197 
-21.9140205 0.0531213395 8.9760313 
-2.68882823 0.317891836 -14.8894949 
-22.6621914 0.0809053853 -13.934535 
-22.7019348 -0.311094552 14.20751 
3.47535896 0.119139403 -9.63064194 
-8.75070095 -0.205316246 6.08509636 
-1.13670874 -0.282009274 19.8430424 
-2.5446825 0.0776540041 -10.6858158 
-3.56531119 0.156402469 -18.7522583 
10.3473969 -0.0991792828 -2.78917336 
-0.104803026 0.00316223968 19.4216156 
22.4941711 -0.325276792 -0.644000649 
16.3040676 -0.0751263127 6.59840965 
-23.3254967 0.115655273 6.11377001 
23.7763863 0.30628249 -15.8853636 
-5.51146269 0.628108323 -13.9925642 
-12.4417505 0.136380613 11.8943901 
-23.9080067 0.235329837 19.2751884 
3.2329824 -0.379882038 6.07414436 
12.6549435 -0.0863236561 -12.2440767 
-15.5827513 0.0650869533 -6.66517544 
7.56049109 0.0982358307 1.66758227 
-21.2409687 -0.109573089 -6.04677439 
10.4603596 -0.0671219602 -3.38239479 
-20.1104012 -0.394370049 17.2167912 
-12.2481642 0.214365914 5.28304338 
-3.9250958 -0.0144911418 0.311453819 
20.5539856 0.152857572 -14.9217424 
-16.5662632 0.142036706 -4.28514767 
-1.9421494 -0.375946432 18.6616383 
18.9841709 -0.32005769 -20.7445946 
-18.6892834 -0.083912693 14.0752707 
-14.5777473 0.0901667848 -7.67544794 
-3.13221359 -0.300699234 17.0635357 
-14.9067268 -0.712102354 -19.4237518 
20.2287216 0.40447244 -12.9188719 
5.82096052 0.214725941 10.3896952 
-1.47324681 -0.130704284 -3.83303833 
-7.33275127 0.285262078 -17.6452923 
4.50652695 0.384401321 19.0302429 
3.44650626 0.177796751 -8.31128502 
-23.0726814 -0.309512198 17.7870998 
24.4226284 0.439956039 -17.7766457 
23.9513702 0.15710412 -21.5704498 
7.19740772 0.0620417371 -9.68043232 
-9.18601036 -0.325193882 14.9033022 
14.3112888 0.139095664 6.74163055 
6.27893591 0.38069126 -9.65569973 
-21.3861961 -0.0875881761 -13.5629654 
13.2485628 -0.500645816 -20.2913494 
6.81363106 -0.0643430203 2.59348249 
-21.7741299 0.433190733 -0.70273912 
-8.12701988 -0.536658883 10.9561434 
-0.88577044 0.126813099 10.9930105 
-0.767224789 0.173563525 -8.81224823 
1.36103976 0.0817840621 23.8461552 
2.58802271 0.183642149 12.6357651 
-19.659214 0.374310642 8.62503242 
8.29512787 0.17859976 -0.64580524 
1.96575379 -0.515963614 4.98449707 
15.4805269 -0.298567325 -13.0393391 
1.64786422 -0.301775128 8.28474522 
-13.2386017 -0.0532700717 2.06513596 
-3.81437969 -0.407216042 15.7918491 
8.81225586 0.111621514 -19.0300903 
8.05776787 0.380386144 10.590704 
4.91463852 -0.138548017 4.50346518 
19.8139801 -0.119012624 1.9431324 
-19.6209354 -0.281251162 12.2959623 
11.978446 0.0306620747 12.972496 
-16.4343185 0.319841951 8.77578926 
14.3093967 -0.347271413 12.4080629 
20.821558 -0.166189879 -18.7343941 
2.85767722 -0.228126079 -14.5838127 
-9.00186062 0.00747823808 -8.50659847 
0.0383733548 -0.176374748 10.3294811 
-8.67728043 -0.507321656 -1.70611107 
-11.9897327 0.112674244 -8.13067627 
22.7717247 0.143265218 -17.3091908 
20.479105 0.186500892 -7.2032342 
-20.6043415 -0.353097826 14.1215239 
-18.3329067 0.0022713244 -24.1505241 
-19.195303 -0.176317662 18.0496044 
10.3294888 0.140619531 2.35053444 
-10.3362341 -0.328412175 -14.694437 
-23.5650253 0.0889267251 19.4744835 
11.569006 0.206277624 -17.1951256 
-6.3963809 -0.571278989 13.1027355 
17.6565609 -0.126739517 -16.6514759 
-1.20326209 0.302699655 -11.0963736 
-18.1302147 0.427736759 2.04347587 
10.6776485 -0.146550685 -14.1653414 
-1.99523556 -0.375823528 5.8303299 
-19.9014797 -0.116104938 20.923563 
22.6980915 0.161292851 16.7742691 
1.75860107 -0.0236680806 -24.0268764 
-20.5738354 0.462244123 3.25104308 
18.425478 -0.0107204095 -3.42918992 
20.8859615 -0.338495702 6.98130417 
-10.4328527 -0.015977433 16.4858913 
-2.26524305 -0.33991909 7.58172083 
-9.39445782 -0.0973676443 -11.873251 
-7.44384336 -0.503660023 9.08049011 
-6.00472498 -0.68596369 19.0957737 
-0.453876138 -0.0127831688 -3.50638175 
12.0759783 -0.00693893246 12.8948164 
-8.60429955 -0.212294653 -8.02560425 
12.9778929 0.487288296 3.43090105 
8.30086136 0.466553539 6.56158876 
-17.0152645 0.360711902 -1.76997197 
16.7014046 -0.124938577 7.32519674 
-3.38286185 0.0224701613 9.80297852 
6.78417969 0.167351365 -18.7603149 
-10.3034983 -0.242001727 0.317949623 
22.2558136 -0.0577437691 -19.8085747 
6.75694084 0.388411462 12.3755741 
-20.129179 -0.0600068942 -14.9700851 
-23.5081425 0.0774249583 5.64302683 
-12.9280548 -0.494201422 -15.2727242 
16.7590599 0.162881508 -4.49559832 
-15.1749964 -0.471698672 0.891122758 
-10.8567238 -0.105895393 2.04753685 
4.09737301 0.0467664264 -12.4872293 
23.8493099 -0.401238739 5.60001326 
8.73042393 0.589527011 7.20179033 
4.80749655 0.104332872 9.9124155 
6.66995192 0.254159361 -16.8685474 
-16.4573193 0.411731839 8.30202293 
-2.61932874 -0.126068547 9.78460121 
-13.6115189 0.0279085357 4.6522541 
-20.8446999 0.669848621 0.406689018 
-16.1886139 0.1814854 7.00765514 
3.44155049 -0.100032352 -3.16915107 
-5.82258892 -0.173674494 11.2461977 
12.1906328 0.113562964 -17.5138645 
-17.2853775 -0.302662879 -15.4993153 
-1.41408527 -0.00856027938 -2.80352616 
17.2313156 0.328145385 -10.8797274 
-6.26530218 -0.0791211426 -8.11142635 
-5.71136761 -0.0376988724 8.05969524 
-18.3290462 0.0212335959 14.5498018 
19.8993664 0.0769420564 -15.1458454 
23.4381599 -0.444743216 4.17725039 
3.63264489 -0.214546695 -16.7966423 
-7.11725044 -0.614575565 14.5034704 
-10.2385273 -0.2086263 4.66698027 
-5.74329805 0.348825783 -17.0186253 
14.8543606 -0.306595236 11.4132032 
-3.39960718 0.0608106926 13.0203762 
24.3422947 0.112830229 -3.05845451 
-14.5584755 0.0628706589 -5.61879683 
18.7290859 -0.165726319 -2.32915783 
-9.97318649 -0.138538316 4.0484972 
21.8101768 -0.426707864 9.36863518 
-21.5221233 0.191827059 2.20706272 
6.09943628 0.424887151 8.50197506 
7.69562817 0.107997447 -18.7150497 
5.78226995 0.186247364 -18.6740055 
16.4119759 -0.0249346085 -1.70373595 
18.0951538 -0.588680327 19.2390022 
17.3862343 -0.223184258 12.943181 
-18.292593 0.533080518 2.70676088 
3.59728456 -0.327177137 5.68462896 
20.5844822 -0.120434985 8.96290398 
-7.45465279 -0.521326959 11.8627548 
21.9897709 0.304015458 -8.3719511 
24.5134087 -0.241802409 15.0603619 
-15.2576847 -0.148304611 -10.1373148 
-8.24003887 -0.0790992826 -8.74215603 
17.3830948 0.211327106 -4.95278025 
2.13604999 -0.170393497 -14.3176556 
-8.92682076 -0.0776863322 18.3418331 
-0.642851412 -0.02941221 -17.9561386 
-14.95434 0.071236901 7.42637825 
-1.90716374 -0.141292691 3.26074624 
8.52035046 0.488305122 6.542171 
9.04929447 0.369031429 10.2389898 
-14.8670549 -0.326838404 -2.28282142 
-1.70277011 -0.100198992 9.40834713 
6.78079987 0.576570153 5.74860811 
8.6841116 0.166356966 -1.87555385 
-13.3210936 -0.355807841 -3.00299168 
6.12681484 0.14868024 -13.6630869 
-10.1633072 0.170288965 19.1553421 
-4.35994005 -0.0950842276 11.7874098 
15.6685295 0.353010535 -8.57747936 
21.5613728 -0.533522069 1.85783517 
-15.5742407 -0.10348314 6.16423512 
14.6568441 -0.505641758 -20.462595 
-17.8881741 0.140751377 14.0415316 
23.0342236 -0.0675552562 -24.9648876 
-1.945292 0.113927491 11.5318413 
-12.3221016 -0.337322444 -16.5016422 
-11.2254267 0.513890505 19.5149212 
-9.25491428 -0.157439247 4.82256365 
-0.833625436 0.233638436 14.9807501 
-2.83400655 -0.221862778 -2.37885427 
6.60924864 0.37237668 13.6249523 
-11.4483938 0.102758572 9.90456009 
-2.11331224 0.190196544 -10.7796869 
-24.8287697 0.458400577 22.3445797 
4.55296516 -0.290946066 -15.4936428 
-17.2704182 -0.441993982 -16.7335625 
-2.31988478 -0.436115116 6.03728914 
12.5536308 -0.409364074 -9.9434309 
24.7927036 -0.0284023043 -7.05070496 
-12.4072199 0.58674413 17.5440197 
14.9289989 0.0572605133 7.07930803 
-7.45104027 -0.557103038 13.0797901 
4.79114914 0.0856196284 -3.83967519 
-9.40959454 -0.209744558 -6.59768581 
23.3789883 -0.0804132 16.657177 
11.7259016 -0.044504419 -0.936717927 
9.83855247 0.113306068 -18.0303917 
-9.80708408 -0.149605229 5.27299166 
-20.3109703 -0.0848579109 -6.37794113 
-12.5823545 -0.0817976147 7.92134333 
16.6317406 -0.422769576 -18.4940472 
4.20818853 0.132137001 -6.39106178 
-17.1642246 -0.082123898 -9.71474552 
-21.6326714 -0.172532722 13.0775852 
-3.81852388 0.17985031 9.68188477 
16.519743 0.139172554 2.4049685 
6.84510517 0.506049216 16.8249168 
8.93741798 -0.453652322 -10.803483 
3.45225644 -0.101207271 -20.7619705 
20.9837093 -0.334179223 7.15821457 
-5.61234522 -0.457349658 13.7594814 
-7.0292573 0.306277841 -23.6118755 
2.0696547 0.191670567 16.2939682 
-0.38910988 0.172382489 -9.825881 
21.8704796 -0.4423756 7.59571171 
-21.3632603 -0.183497787 20.1078987 
22.4858665 0.249056578 18.1719971 
-13.5099716 -0.00466953311 -4.47698832 
12.4504223 0.0344018415 14.9859562 
1.22280467 -0.381331533 4.56717777 
9.83867455 -0.0167537518 -0.0691096261 
-17.712368 -0.0195214376 18.3125496 
-18.9309673 0.709513605 -2.44193506 
-22.0363903 -0.00636160607 11.074091 
7.31953049 0.372608334 16.0085297 
-22.9123268 0.310956895 -0.639867663 
8.57318783 0.0572274886 17.7685623 
-1.34366751 0.34508118 -10.9542122 
-24.3682823 -0.0386126563 11.9031696 
-19.9984169 -0.386778355 17.3352013 
-7.70811939 -0.32993111 8.27826977 
7.72325897 0.0212075878 -14.0887794 
23.8974781 0.00522619765 13.941618 
10.2229738 0.187423721 3.83897376 
10.8460703 0.172714993 -16.9867325 
-24.1048794 -0.115666032 11.5615139 
16.4446354 -0.335994601 -14.087698 
-18.0742416 0.315259963 9.09978676 
-24.1105576 0.122250788 0.0517307296 
8.84753132 0.214784026 3.6651473 
6.04014111 0.561751544 7.63122082 
-23.1256046 0.0189541504 -5.44693375 
-16.2512932 0.250687957 -3.05384684 
-9.59461212 0.308439642 22.295702 
10.8801374 -0.163754553 12.8533592 
-17.5436802 0.451540291 5.78330231 
-4.3144846 0.100208461 -10.7071571 
-0.88065505 -0.25416407 -6.12123966 
19.2327652 -0.120501772 -2.24026179 
-2.79816389 -0.215081051 25.1184177 
-3.09850001 -0.0738323405 14.7926807 
14.2023544 0.0398165286 7.62898064 
14.2653074 0.429193228 1.48902631 
22.1929226 0.256491989 17.4322128 
-0.339337051 0.0529161468 -1.8124218 
-7.46079874 -0.10288921 -9.25871849 
21.9744148 -0.501614034 8.03139019 
-5.3752718 0.0835290104 9.0891304 
-1.85731494 -0.343357712 6.66175175 
-0.192672864 0.0393976048 -3.66145182 
13.9413128 0.480666548 1.99252737 
-9.92590427 0.0461605415 -7.12481928 
-9.53129196 -0.331856608 -3.31224251 
-4.10788631 -0.230362475 3.69771194 
-1.55657923 -0.143902868 -4.19946623 
14.3475733 0.217320889 0.388875723 
5.63873577 0.002586897 -3.11386633 
21.8395176 0.401005715 17.5377064 
14.107111 0.535660267 2.43796778 
20.5372925 -0.348524004 -21.1119823 
7.84029675 0.0456393361 -6.89065075 
21.0380936 0.185454205 13.5935402 
4.82802296 0.0381597914 6.76431894 
12.9308901 -0.00843074825 -1.07948208 
23.1587315 0.0203910843 -20.0450745 
-4.83001041 -0.167780802 3.58537221 
-12.7485132 -0.247517779 -11.4857225 
23.9376297 -0.255942285 -8.24991703 
-17.3149242 0.25004524 -3.3023386 
-2.71006632 -0.138348401 15.6908493 
15.7942724 -0.673593998 -18.3948765 
4.67224646 0.35550338 -8.77953911 
19.3351593 -0.0196415614 -15.5253468 
6.43261003 0.183335796 -19.0602341 
-14.5449286 -0.709367096 -18.1916561 
23.3838577 -0.103937544 15.9859371 
-18.6741238 -0.1016865 -15.4510784 
-20.0978184 -0.212483749 -12.8770685 
-18.0718994 0.219523251 -2.36420465 
14.3535337 0.0751679391 -1.50033605 
13.3743973 0.17288442 17.035223 
-3.66282129 -0.0371730849 7.5515523 
14.0628958 0.0359671786 8.12821484 
-18.6860504 -0.0773852319 -6.54674053 
20.60425 -0.396831542 -22.3974266 
-8.68181896 -0.355423689 -5.52096844 
20.4682922 -0.178392217 0.14386183 
-6.4737668 -0.290464699 0.027531758 
4.62254763 0.379461199 15.2406979 
-2.9437561 -0.218059599 16.3090839 
19.1632595 -0.653079689 -23.4948101 
-14.9646559 -0.489637285 0.540088296 
-11.1860704 0.458016962 24.9384232 
0.138712019 0.167752996 12.1111393 
19.6383991 0.112933792 11.1869698 
-10.2006054 -0.259923369 -2.77645612 
22.5523186 -0.232899785 10.9510908 
-10.4308529 -0.343084812 15.2021475 
17.5065365 -0.0634840131 -13.5579071 
5.75856543 0.0439598784 -1.55988514 
-22.062233 0.0297142379 -13.111969 
-13.1914482 0.162087873 20.7572765 
-4.92759466 0.245918348 -10.6279964 
-0.739028096 0.370718092 13.5396643 
-10.7042627 -0.0153421536 -18.6184177 
-4.02981281 0.267015636 10.1439371 
-11.0443697 -0.180106074 8.98226452 
6.90931988 0.283361137 -2.373106 
10.4711571 0.0207734946 -1.86296809 
-10.8404322 -0.0890581384 2.19511557 
8.25027847 0.0196608435 17.7921677 
3.64897633 -0.379712105 4.35577011 
-19.2986069 0.719291151 -2.71565747 
-0.298261821 0.108667076 11.4007406 
-6.09775972 -0.446356714 -2.01252651 
1.25226581 0.105455011 13.0686703 
-3.33609748 0.332869738 -13.1328115 
8.4929285 0.321640551 11.4157934 
-23.9813251 0.126816869 9.97464371 
15.9581337 0.40305534 -8.51966572 
24.4330921 0.221911564 -22.5161953 
21.6718674 0.071265243 -17.1914558 
-10.5343094 -0.166837707 11.0808554 
-11.5278721 -0.0361082666 -6.91601563 
-23.0169888 0.11202433 -4.32332277 
22.1929016 0.188799024 -9.67830849 
17.3126774 0.337980896 -11.0066471 
11.6209593 -0.00737651344 11.2539654 
4.39438152 0.369337112 18.5776615 
17.7421436 0.140150174 -12.514122 
1.24968159 -0.264035732 -3.04979992 
-0.648518384 -0.0857560635 0.377194852 
-13.1778183 -0.329122961 1.02496445 
17.2754021 -0.54384321 18.8882942 
8.99196339 0.093666628 17.3772526 
2.0798564 0.0259833299 -12.9067478 
-5.38792419 -0.0668125078 10.2780609 
-1.67027199 -0.12098442 -3.41386437 
-18.752697 0.604623079 4.10659075 
16.0319805 -0.177986771 -12.3076859 
15.9133892 0.129913628 5.45777988 
13.5813875 0.648015261 3.90312457 
20.8197994 0.255898863 13.7462721 
16.4046497 -0.395663202 -24.682642 
-11.8763809 0.147259042 9.56525707 
-19.095705 -0.115362093 17.1587734 
20.4971542 -0.519982219 5.57671928 
-6.5538063 -0.399789572 -5.41990423 
16.6447296 -0.225871086 8.53738403 
8.16354942 0.589642704 9.53454018 
-13.7981472 0.121682316 -5.52240038 
8.25416088 0.633368731 7.12055302 
-6.965343 -0.0128721241 23.2488518 
-19.8953857 0.468151897 7.75183582 
-6.44019413 -0.375286132 -5.47157288 
12.8927097 -0.413880885 -8.86095905 
20.5985794 0.0336660035 -3.81616998 
18.3678627 -0.186398625 10.0050583 
17.3156281 -0.0517348461 -2.57665277 
-8.68191242 -0.330259293 15.2667513 
-0.159101889 0.0900985971 -9.38210297 
11.9406252 -0.17938599 14.9474764 
-1.61094511 0.349019825 12.5266209 
20.9287891 0.179556504 -7.74316549 
8.57017612 0.0564124137 16.5821838 
4.90705013 -0.012191534 -22.9470406 
-10.6508484 0.421984524 24.1155224 
-22.6650581 0.306234628 -1.73657858 
-9.50328064 0.287454486 -20.6805 
22.1745644 -0.220615134 10.7919359 
-3.07323003 -0.0930535421 -9.68184376 
15.2742186 0.207742468 6.28202963 
18.3372631 -0.554507613 19.238575 
1.99570906 0.074044928 12.9049768 
0.161958575 0.000735503156 1.19477165 
-19.7581768 0.144019261 -4.52099752 
-23.6583748 0.0173391476 5.29694176 
-18.4918079 -0.123300068 -15.3927298 
10.8419571 -0.0466142185 23.7610035 
9.27008533 0.409304678 9.45118237 
-23.9163055 -0.337666571 15.7506618 
-4.8010273 -0.419742495 14.8088913 
-3.65935302 -0.0402143002 1.16144562 
-2.44205403 -0.0122698955 -7.47540474 
5.91961002 0.425446361 -9.13179874 
-0.802255571 0.15043211 -17.0375481 
10.682312 -0.0335081629 11.9342461 
23.6282387 -0.562692046 7.00287008 
6.50599003 0.428120017 13.0777731 
7.92700243 0.117111817 -15.4551497 
14.5782318 -0.633480966 -18.4415798 
-14.0278101 0.0460280702 -5.30412102 
-17.7942066 -0.00988029968 19.0004711 
-17.3391113 0.147193491 14.3161478 
17.2722969 -0.0876462981 15.046052 
-18.9188938 -0.214804739 17.8038254 
20.967968 0.195038363 -7.95842934 
23.8022594 -0.0979361981 -12.0684566 
19.4734135 -0.149785653 -15.9353456 
-24.2742443 -0.198103249 13.3767939 
19.7233639 0.386781186 15.8961649 
-20.2614384 -0.463484257 12.7482157 
15.3730536 -0.160856605 19.1766415 
12.9168282 -0.146926671 -12.7632523 
23.0406036 0.181518078 -16.9707832 
-6.61554909 0.314392805 -11.6211863 
15.8212585 0.25138101 2.66615701 
-12.0406694 -0.300920695 -16.1359615 
9.28186607 0.0631550923 -19.1339417 
-4.54481316 0.14789103 7.36784077 
-5.91379881 -0.279833078 2.58732224 
24.6223927 -0.059067823 11.8637094 
1.87843418 0.10353671 -12.1273651 
-16.8514767 0.0391458534 -10.6136847 
15.6695528 0.012897403 -4.63406372 
-13.6276646 -0.074250862 3.9915328 
20.8383102 -0.084119454 11.7143497 
-20.982729 -0.113164239 21.1893349 
-21.9951668 0.39752543 -0.59918952 
-17.44837 -0.145703405 -9.53568077 
2.28890252 0.100769669 -9.84017658 
17.2254314 -0.0783631355 5.06815195 
-21.0274849 0.286571741 7.57818365 
-20.177948 -0.380310446 17.3811779 
22.1785603 0.00447761826 -4.76451063 
-17.6813927 -0.181211174 -13.5027828 
-15.3947086 -0.107704364 -2.66418576 
3.85347414 -0.349663585 1.57909465 
-19.3403606 -0.250125468 -12.9405622 
16.3769398 -0.371756583 10.2421103 
-7.9551301 -0.489138484 -0.275375187 
1.46624839 0.311430037 17.2455692 
-4.79895544 0.209856585 -19.4308395 
9.78853416 -0.0785392672 -4.87607479 
-24.551857 -0.017374685 10.9528408 
8.52829742 -0.194899544 -9.26854992 
-17.1558094 0.300470024 -4.78050852 
23.4725704 0.102989711 -4.04006243 
-0.696141362 -0.0713324621 1.05418468 
-7.18718433 -0.541858017 9.52489471 
11.4348803 -0.0668158382 9.93791103 
