ply
format ascii 1.0
comment created by gply, a Houdini tool.
comment converted from .[b]geo
comment for more information about Houdini, try:
comment www.sidefx.com
element vertex 1271
property float x
property float y
property float z
element face 0
property list uchar int vertex_indices
end_header
2.92312837 -0.0640423745 -6.06265879 
23.6625462 -0.45455572 -10.1204748 
24.650259 0.568304956 -17.5478706 
-0.98773402 -0.199090481 -17.3641853 
17.4414825 -0.62667048 23.4644432 
19.8570004 0.178155571 -6.53560305 
-6.48902082 0.595120668 -14.0500784 
-7.92299032 0.271544218 -13.6421719 
-14.6147251 -0.250613481 22.343174 
19.0724182 -0.21785295 10.1825657 
-15.7403765 0.0118034314 -5.49122143 
17.343811 0.346728891 -4.14242697 
-2.10852909 0.217802867 13.7383852 
-1.04656017 -0.258559346 -20.8842945 
15.5824871 -0.305101931 11.4323454 
3.42597103 -0.21247755 -17.916153 
4.94923306 0.291238189 14.6886778 
-0.689736724 -0.145279691 4.74472046 
13.6000795 -0.320218414 13.7022734 
1.4177165 0.109282412 13.8388023 
-22.9773884 -0.0892897323 18.7983265 
10.0536757 0.0624248534 -20.1829853 
-12.7121582 0.138794914 -24.9523048 
-8.36486912 -0.00196740846 21.9948483 
-1.78514028 0.387505949 13.4523678 
-21.4364166 0.466742575 4.42229652 
12.7362127 -0.141358048 9.03823757 
-17.4447842 -0.395555288 24.5170879 
21.7691612 -0.539171934 7.668993 
19.2644863 -0.650326073 -22.5010681 
17.5774689 -0.329128087 -20.4750404 
-24.1069183 0.169693291 6.53402519 
10.0719156 -0.0356872827 -14.220417 
5.99155235 -0.209986225 1.36350131 
-15.2540255 -0.135435998 -12.2883558 
21.4932404 -0.286410868 11.1121216 
13.4193888 -0.444970399 -24.6481724 
-21.9590931 -0.0394842811 -24.0399094 
-5.75127268 -0.0435054004 10.515008 
-15.2739954 -0.307459772 23.6075821 
-3.98041844 -0.01244119 -10.001955 
-8.55378151 0.0126034617 -13.0524302 
-18.9823742 0.536852181 9.00386524 
3.95129395 0.3062765 16.0255508 
10.6929502 0.326871425 0.65983361 
6.59526682 0.0511208773 -4.1807375 
-19.2965755 -0.271229565 20.9555149 
-16.3164425 -0.490446329 -19.7978859 
11.7797661 0.571577013 2.61334157 
-21.0540657 0.596870482 -1.15541291 
-24.2421093 -0.266626626 15.4559174 
-3.02714801 -0.359603733 4.58360815 
0.93630594 -0.0110619552 -8.80022907 
15.365799 0.220046192 0.594825327 
-4.5882678 -0.0853244662 -4.40531778 
22.2838631 0.0386334546 -20.5976791 
-3.83436847 -0.0254897401 -2.37729573 
-2.32254744 -0.420852929 6.4931736 
24.4928646 -0.0537987053 17.7847824 
19.4459324 -0.0380727798 12.7636089 
-22.4654522 0.305378109 -21.815546 
-9.16110134 0.117377147 -12.4148388 
-22.5975723 0.46651575 -0.336710274 
17.3527889 -0.580550075 19.8158894 
-9.56277466 0.182885677 -9.76577568 
-12.7142992 0.118624136 22.8162689 
-14.1340113 -0.0688195825 4.7913866 
23.0795498 0.147583053 -19.5352573 
-1.46648562 0.138892055 15.9632339 
-17.8671379 -0.245814279 -19.7398663 
-11.4003687 -0.205022439 12.1102724 
18.3068371 0.49592638 -7.71696663 
20.2027035 -0.0321286023 -5.38298607 
-0.687058747 0.389240533 13.0425367 
-12.2158327 0.316424251 -23.0517559 
-18.3109169 -0.295910567 -17.8617401 
-15.4269609 0.119263291 9.43021488 
-3.44218278 0.16512458 -15.5463905 
4.43318462 -0.115035214 -13.9421129 
16.3066998 -0.391252398 -15.5943718 
24.5445061 0.131065637 18.6474762 
23.8634548 0.403214723 -20.8512669 
-14.3445053 -0.159566045 -21.3709087 
4.15041733 0.350861192 24.4967022 
8.56807899 0.279394805 -19.9381218 
14.5904169 0.39112258 4.7695241 
-15.5580177 0.0696960688 -5.84569025 
-20.9148846 0.39306134 -4.06022596 
-0.0848135352 0.0213670898 -2.80824399 
-17.7581348 -0.0496860407 -9.08316326 
3.3851757 -0.289767802 -13.1874342 
-13.651082 0.0756539553 -22.3591537 
-12.9990425 -0.520976901 -1.6074419 
0.47966373 0.0855182409 -6.70485783 
15.1596956 -0.256904691 11.5666914 
-0.397406697 -0.173092663 -16.3298035 
19.1186848 -0.189070418 9.51363087 
13.7161255 0.507037818 2.13623619 
-3.37051654 -0.327264577 19.5445919 
3.54672074 -0.0368761085 -18.9447727 
9.51114941 0.174601659 -16.7542248 
4.5603857 -0.0719261169 -10.7522888 
16.1107521 0.62736994 -7.91039658 
-5.51503897 -0.210089758 3.50381637 
3.34764814 0.0865330547 8.84422016 
-24.1765537 0.0570936762 12.4032993 
-21.8113594 -0.139675781 13.5283499 
-3.52647853 -0.110531963 -23.2998581 
1.48489797 -0.511070549 -19.6692581 
9.59980488 0.0478518121 1.63201523 
18.7933464 0.300815254 -13.1145086 
-17.7059746 -0.368756473 21.5065174 
14.1832409 -0.295054406 13.2401209 
10.0269432 0.160612762 11.3452435 
16.5450191 0.0183907859 -1.20089912 
-6.38843966 -0.197462186 -4.48839045 
9.06523228 0.107110798 -23.8770237 
-16.3852406 -0.430071265 18.946085 
-20.2544765 0.665853083 0.826334655 
-8.86274338 0.289685518 -16.7753925 
15.2786665 -0.299650937 12.7478447 
18.0051327 -0.00844326429 -14.5569525 
-20.8190041 -0.0751389414 -14.7491846 
-20.1553478 0.69777894 3.37202191 
-21.0462074 0.623308957 2.48795748 
18.8256035 -0.0498199351 -0.264966726 
-3.05587959 0.0744067952 14.6955004 
0.152722627 0.227814943 21.5736637 
4.30728912 -0.468419582 2.51015329 
24.1933651 0.217929244 19.8048782 
-5.23033381 -0.627303064 17.8780136 
19.8974152 0.377644897 -11.7101498 
-11.455061 -0.112542406 7.26626682 
-13.9318132 -0.145060658 -19.7542896 
-9.22025776 -0.131752387 6.74922228 
21.7481251 -0.164137736 -8.95376492 
-8.93839455 0.234542608 -18.66539 
12.8784409 -0.339301229 -7.85459232 
0.0418738499 0.216795176 14.5704203 
11.1046247 0.410371035 -0.0252277851 
2.85341573 -0.0151359634 -6.44167376 
16.7507191 -0.00642257463 0.801912129 
-2.69374442 -0.0867535695 2.19168329 
-17.2234936 0.182318196 -6.64419889 
-4.2724247 -0.229786828 23.417757 
-19.4808655 -0.0124486573 -17.5031013 
20.6714306 -0.290083021 9.71353817 
-18.0508194 -0.223931029 21.2099133 
-14.0293999 0.153257847 -7.95550346 
-11.7966595 0.32618314 22.4342537 
7.8186245 0.386616439 23.2733974 
10.2962475 -0.637801707 -10.5193796 
-14.4367886 0.162985697 13.1118031 
-12.9842348 -0.0371067338 3.53430462 
18.5212326 -0.711898625 -24.1166897 
1.63599646 -0.215932623 -23.666584 
8.35365486 -0.338402599 -6.41352892 
8.07400799 0.32236439 13.4171457 
-4.26168013 -0.378356129 20.9817696 
-8.40674686 0.269948542 -10.3298101 
-9.74524117 0.178033665 23.4951839 
17.4499702 0.528753161 -8.31159019 
2.0563221 0.30494073 16.9641132 
22.3102493 -0.460352272 6.3329463 
-12.570178 -0.24644056 2.03125 
14.5016069 0.239291131 -7.13656378 
5.93977261 0.663776338 20.6011257 
0.95109117 0.665948808 18.628233 
-21.4760456 -0.211260766 18.7041321 
1.69913924 -0.229566962 -2.34278989 
-10.1286755 -0.0358353667 -12.3187647 
-2.23138833 0.386954427 12.4264975 
-17.8715153 -0.292355061 20.6338425 
20.1929531 -0.164958626 12.857954 
-11.0071459 0.268654466 20.8789368 
7.18277502 0.177390069 19.9118137 
-8.86405754 -0.396704435 -5.74513721 
1.55401361 -0.264064252 -3.0115428 
17.9566536 0.490260482 -9.32931042 
-11.7769499 0.00786987878 13.8491697 
-7.7749896 0.0828360617 -20.0018806 
-11.4696093 0.186186478 -21.6346855 
1.95284212 -0.266285926 -23.2678566 
10.8207369 0.0461963192 -20.0781364 
-5.01900339 -0.066806078 -8.34990788 
18.075264 0.42169407 -10.8380117 
-16.6247158 -0.135096818 -13.1889057 
11.2612505 0.528491437 2.27588558 
11.0943384 -0.0929152966 24.8932819 
-13.4417992 -0.256550729 -14.5755758 
3.54269838 -0.377401888 4.54100609 
9.16299248 0.261397898 -17.7818565 
-21.3574677 0.473451316 -2.21041584 
21.6575069 0.0635871142 -11.6320353 
12.8209858 -0.0750876144 11.0144196 
11.7595768 -0.270281255 -11.2349348 
24.2743435 0.649307549 23.6499176 
-6.56505013 -0.289519131 2.37726521 
-6.83476782 -0.388852835 12.5424175 
11.1671324 -0.356602401 -10.4703341 
-12.6861582 0.414464951 18.4273453 
-19.1196899 0.469898611 1.82462013 
4.99580383 -0.0234522335 -16.3005104 
14.5739098 0.289295822 -8.41680431 
-8.14178276 -0.506205976 9.6229229 
19.8142605 0.291942537 15.6854572 
0.2474062 -0.0273458827 3.23598146 
-22.6481457 -0.196065351 13.9019165 
-10.5230799 -0.298789173 -3.2734158 
23.7825737 -0.321918547 8.44193745 
-16.8106327 0.282053679 -8.88004208 
-4.21062565 -0.296763927 -7.43277407 
-19.3804989 0.0141990753 -22.8915482 
-8.26064587 -0.470772207 14.5360222 
-2.23387337 0.068007268 -16.6094131 
-18.418829 0.161989644 13.3247986 
22.8300838 0.111344889 -19.9410172 
8.20670605 -0.34188962 -9.75044155 
-3.98233509 0.286272556 -13.1947193 
11.4314919 0.089143768 7.05722618 
-10.3404856 -0.177998647 -0.272010118 
-19.3398743 -0.106578268 -22.3552132 
-4.8576889 0.00799184106 -17.2764416 
11.4944344 0.00115059409 21.9001141 
-14.9824619 -0.354083657 -22.891922 
-17.7690258 -0.402452439 -17.9362793 
2.22249818 0.105011366 9.85478783 
-13.0342512 0.388761312 18.9017982 
6.50914907 0.316757321 -16.6920319 
0.552703142 0.451587349 16.2409611 
14.6369381 -0.189934939 15.0020828 
-22.5427475 0.12658827 22.8507271 
3.34979033 0.780616879 22.280489 
-13.7860985 -0.0492291674 22.6949482 
5.42456913 0.587746382 21.9528255 
-10.8634014 0.247512013 -24.8131523 
-20.1053238 -0.235794157 18.8144341 
14.5982847 0.0113744931 8.22569466 
24.1782551 -0.248932391 8.03669548 
24.2776985 -0.110488653 17.7677765 
11.2200508 -0.0949974433 -21.9497814 
-18.0953064 0.214311361 14.2146254 
4.82504845 0.35746181 15.6523066 
-1.90895069 -0.163950086 9.24347687 
-5.02969694 0.560809851 -12.5006084 
12.8683033 0.683560729 3.87911224 
4.0325017 0.402055562 17.1097336 
8.94983006 -0.0515563153 -0.953596652 
-8.71103764 -0.476495773 13.2646008 
-4.34530115 -0.00143285352 12.9580755 
3.8972702 0.0470360294 -18.372467 
0.750438809 -0.0915043578 3.11956954 
13.5224829 0.147781238 18.7502327 
-5.68850136 0.113554351 -18.8425827 
20.4599953 -0.281497419 8.98490334 
24.7667332 0.606456637 -18.9996414 
-5.34318495 -0.236303762 -5.79173803 
4.14291716 -0.000746291247 -6.16886711 
-12.0456867 0.0168670882 14.6189022 
-17.4679565 0.0448901765 3.01740766 
-22.3984222 0.466973096 0.624581337 
-24.2051716 -0.392552614 -8.32113647 
-9.09932327 -0.412255704 -1.05139565 
8.47157192 -0.0309167616 20.3967133 
18.3795033 -0.24421367 10.1648769 
23.0283298 0.295748919 24.2924976 
5.81851864 0.570223331 19.6159439 
-23.9011326 0.170845807 11.3540001 
22.6141319 -0.07515876 15.785182 
8.81896019 0.143200934 4.46255302 
9.38561249 -0.115204804 15.7419882 
-16.3610382 -0.468757808 20.5810528 
20.3610306 0.155990988 17.2378159 
6.76511574 0.215809032 -21.8605633 
-15.4074745 0.0300407764 -5.84525537 
-12.3603077 -0.175133079 -12.4561739 
16.2100067 -0.374768168 -18.47929 
-1.96240282 -0.431331515 22.4859333 
20.3680038 -0.504188299 6.14496803 
18.0895023 0.0422961526 -0.10420759 
-12.6527596 0.446298182 16.5655689 
-13.1320229 -0.0879170448 -20.5282593 
9.83869457 0.0645949394 7.44465303 
-6.34178734 0.627996504 -14.2899094 
11.8392897 0.0332126319 20.5505047 
-5.77453852 -0.190128386 4.42329836 
-17.2166367 -0.456901312 -18.6759624 
-20.1909485 0.74647516 -0.842469871 
-22.2037277 0.364010572 10.3918953 
8.43481827 -0.439105183 -8.16101074 
17.8245716 0.505785048 -11.0620899 
-14.6958504 -0.479361624 -18.6272297 
-20.6596241 0.557969034 6.83404684 
14.0824776 0.227396086 -6.51535702 
17.9716072 0.12635158 0.954052091 
8.92043686 -0.0853999779 18.496788 
7.77263737 0.442994177 -21.4481354 
7.87822247 0.520609498 8.73369694 
17.3320332 0.576938629 -10.8671303 
19.176239 -0.356238276 -18.7165813 
-9.31658649 -0.442985743 13.972681 
17.9054699 -0.438487619 17.5264091 
22.4681587 -0.0125806704 24.4573879 
23.4370499 -0.382070005 4.28915691 
4.2638073 -0.0175385624 -21.1453342 
20.4597015 0.184994161 -9.58123493 
-14.0941029 0.154150516 12.7338629 
-8.93941307 0.225880802 -16.0183773 
-15.2260227 0.34889254 14.8862839 
-24.8891144 0.696182132 24.3087845 
17.0976162 -0.245983809 -18.3604641 
-5.55045366 0.0303886198 10.9241247 
1.0126642 0.592169166 18.3299847 
7.53540325 0.169558987 -15.5111847 
9.87097645 0.185517281 -15.0669765 
21.6180515 -0.0490348525 -2.94817615 
-17.53092 0.573459685 12.5480261 
20.7152538 0.268038839 -12.4427252 
-20.7767849 -0.229841158 15.375493 
-5.86801672 -0.184650794 -1.81093812 
1.00927997 0.680915654 18.7218876 
-19.563179 -0.0200755261 -18.2088432 
15.4901247 -0.0325011946 7.07005024 
-9.64935875 -0.0306163486 -7.23732471 
17.0086384 -0.700968325 23.1915722 
-14.8060961 -0.165734604 24.912281 
24.4348392 0.0287787821 9.04247189 
12.0908995 0.563757896 2.43368816 
13.5912418 0.0201867335 8.77945328 
-5.48270607 -0.210720375 -5.89455986 
15.4456215 0.260988206 -0.118956506 
-8.97949028 -0.620250523 10.9044218 
-24.7890472 0.722006083 -19.3524151 
-4.06839752 0.24717848 -13.4163494 
-0.114369452 0.0650150105 0.125489786 
20.2962418 -0.270667106 19.3288364 
-1.38603139 0.123625211 -2.44666815 
-19.9731579 -0.113945127 23.38237 
-0.829112172 -0.206975594 4.87759686 
8.82902718 -0.444323212 -6.59282112 
5.88840914 0.211818948 24.0093174 
-23.5913448 0.223888487 20.9397316 
17.0598354 0.441402584 -6.64134979 
0.467049122 0.197520673 11.1811285 
-1.59488225 -0.172196314 -18.7923679 
-4.62168121 -0.0716659203 -8.8999548 
-9.94173336 0.0906085297 -9.54935074 
5.08681107 0.408153147 23.4837914 
-6.32646847 -0.180823088 11.4718876 
15.7996387 -0.361402512 -21.4895668 
-18.0686073 -0.182139322 20.3703976 
-24.6682072 0.0965839848 10.3846645 
-11.994585 0.0898656994 4.78971243 
18.188406 -0.446246237 17.8946056 
-2.207937 -0.465708315 6.97031498 
8.73464394 0.0318155736 -2.18410873 
11.8210297 -0.275489748 -7.37400103 
-6.13487339 -0.143379673 -5.24831486 
19.9917202 -0.141996816 -1.45515442 
14.6709509 -0.477664977 23.4003696 
-19.3973045 0.668940544 4.72733116 
15.9641075 0.188541368 -0.199289128 
23.1615372 0.420893252 23.6505623 
8.30327511 0.26245001 13.6224422 
19.708189 -0.62577492 6.58449316 
10.1380472 0.00486991834 24.7714767 
2.84473443 0.0106413644 12.7497873 
-23.4914513 0.577499866 -19.8681622 
-4.52345991 -0.0737236887 -9.34904385 
4.09865713 -0.04473776 -17.3813229 
-17.336729 0.152779952 -1.13106775 
-10.3287268 0.0467985645 -11.9141102 
3.43286014 0.17856057 14.9674902 
14.6634092 0.370171458 1.8449502 
-9.88307095 0.437850952 -19.2554073 
-3.70325804 -0.169370189 -4.58702374 
1.36079633 -0.192859456 -4.20211697 
3.79133987 -0.127246827 5.76728439 
19.1372433 -0.556167603 -22.1341267 
18.7199764 -0.319339365 17.9071255 
-24.1373749 -0.214238033 14.6796856 
4.42028952 0.0643211007 -19.8240376 
-18.1486206 -0.217949957 -9.19542027 
-0.456695527 -0.315383434 -20.264946 
25.0028 0.209850207 18.9581146 
14.3216124 0.00623133779 -10.8064709 
-8.16261101 0.217799455 -11.8503838 
10.5527449 0.129043132 -16.1380215 
-3.0020349 0.120719947 14.0753231 
24.7279549 0.271752864 -2.87474585 
-17.4756889 0.396364331 7.58945656 
-11.3077135 -0.174767688 -15.7267294 
6.09234715 0.629055262 7.39982414 
-8.41912174 0.215888038 -12.0528841 
-17.6144867 -0.429078758 -17.6969185 
-5.44438028 0.0126446113 -18.4272251 
5.69683456 0.412805825 18.6740036 
5.0043292 -0.190664381 -0.608778 
-12.6074791 0.138654262 11.7429104 
-10.9561996 -0.296479851 -2.22189164 
-10.5055218 0.0563998334 -11.0982704 
-19.4535236 -0.251475811 21.4754868 
15.5880632 -0.266641647 9.45646286 
12.75914 -0.218897194 -8.35107517 
17.497467 -0.279797286 4.96597719 
16.4217167 -0.260162383 16.4149723 
-4.72639084 -0.427772015 20.5636196 
17.6798153 -0.618502855 21.4418964 
2.53020072 -0.477252245 2.61380982 
-15.0530224 -0.324780107 -15.909296 
-23.3551254 -0.355739862 -8.51057434 
-4.70094538 0.248667434 -14.3083086 
14.8834171 -0.391491294 -24.2608051 
7.92535877 0.0969359428 17.7238388 
-18.4732246 0.103872448 12.1673441 
1.79369402 -0.301555783 1.26350176 
-2.6465075 0.0699219555 0.866084397 
4.6611619 0.556583822 23.1871605 
-17.2636833 -0.408664584 23.3250198 
-18.140377 0.235206231 1.11464131 
-11.4822578 -0.195919171 8.20783997 
-4.132411 0.0450361297 -0.70226872 
-24.0004349 0.263524473 0.527441978 
-2.00700045 -0.0678872392 16.618269 
-18.7944584 0.458326608 8.8626976 
5.78817987 0.11140658 -13.8770437 
2.42341304 -0.341768622 1.01308966 
-22.5826263 -0.0835674554 18.9934731 
-22.3123341 0.557368159 -1.70263517 
-22.8452187 0.394610912 8.54218197 
2.75456929 -0.199447468 -20.6294842 
-6.21569347 -0.0717046261 8.82843876 
-5.05080032 0.261004597 10.3860559 
-23.0334225 0.25511232 -2.47850442 
4.48901939 0.563978493 18.9199238 
9.93611526 -0.15535225 21.4562054 
-11.4738798 0.379055113 20.6103363 
-14.9589796 -0.233516052 19.6046944 
-0.985214949 -0.376610249 22.6907902 
-18.2003231 0.211533114 10.8507605 
22.015604 -0.320142478 -24.9814682 
22.2185936 0.0826953053 -12.2275801 
22.5638771 0.18183741 17.8019981 
6.6545682 0.0654541701 -11.4513807 
21.917696 -0.0542890467 -20.2623959 
19.9904156 0.115166314 -16.0479202 
-0.435669571 -0.018275734 -1.36898327 
-6.77969217 0.079237856 -8.83429527 
-16.0000935 -0.540740609 -19.4863224 
-22.7296982 0.460204571 -0.245474458 
13.3971691 -0.126096532 19.8695717 
0.434614778 -0.112089522 -10.1081953 
24.8003674 0.141065672 6.85130501 
16.3585072 -0.160454348 -20.6080189 
-1.0735811 0.0636058599 -15.021472 
-1.80679882 0.0515698791 10.8496256 
-2.13234663 -0.452145904 22.5749588 
-13.8616676 0.148529962 19.4058151 
18.1894951 0.20209235 -13.9563494 
-3.24422574 -0.166528344 8.67133808 
20.6177807 0.245171219 16.5159798 
7.66853809 0.157146573 18.3263569 
23.3225212 0.0938768089 -5.68742943 
16.6592922 0.306505322 -4.8860445 
-23.9362736 0.308159769 20.9021931 
-23.1677399 -0.037139982 19.1681881 
-13.2192707 -0.115475893 9.82912827 
8.43421078 0.158343688 5.50047684 
-10.6712017 0.325203478 -21.3839893 
6.24032736 0.160814151 -15.3737516 
7.19169331 0.178388223 12.631609 
-13.9591494 -0.130914286 -20.0353222 
24.3089161 0.0216002837 -0.883613586 
21.7446327 -0.112240255 -20.3316917 
11.0350761 -0.609700859 -7.72261143 
13.1143217 -0.411720276 -20.7549763 
-10.9743643 0.251610577 20.630476 
13.7536812 -0.0459666662 7.74201536 
-24.6640282 0.00187509356 11.3770924 
-9.37209415 -0.0193809345 -14.8335466 
12.8230591 0.447658539 0.902593851 
-18.5252686 0.0709938332 11.8809843 
-13.0867414 0.245163873 -24.1884499 
-22.2194767 0.0346292593 12.5098829 
0.995552182 -0.167440221 3.47349644 
-15.5035839 -0.217881531 24.7248154 
20.2350388 0.192598224 -14.0012884 
-0.824500263 0.0116421711 -11.0074577 
-23.4039898 0.439537048 -18.8519058 
-17.6096668 0.000393552473 -9.5022831 
-5.01595783 -0.145730123 -23.8968925 
-23.0516186 -0.157132387 -5.69604588 
12.0029192 -0.0632484555 9.96702576 
2.68212366 0.0373849235 12.7884302 
-14.5325508 -0.286405295 -14.6442232 
-23.299757 -0.237019852 -13.4733543 
-22.2316952 0.371035457 4.46387768 
17.6368313 -0.125261858 11.4731998 
14.697402 0.41626671 3.04808688 
-2.00657296 0.0843477547 -14.5301733 
3.1888454 0.6368016 20.042511 
-4.83408451 0.15475671 -10.1683416 
-19.4001656 -0.221433282 20.0404949 
4.06189871 0.381756127 17.3378525 
-19.2922058 -0.302078545 -13.2093935 
-13.7238913 0.240759149 18.2608643 
-5.24362707 0.548039556 -11.5715103 
21.8473415 0.0596870072 -15.2105532 
-6.69993544 0.0197708514 -23.1291504 
-21.5659313 0.464108765 0.374368072 
7.92975283 0.237822682 -19.1827621 
-3.13735151 0.044344306 -8.77696991 
-22.1374397 -0.272741079 17.3995934 
12.6372223 -0.197895721 -22.5135078 
1.6701225 0.51103884 21.8983898 
-0.801225305 0.234776422 20.3173828 
-12.1557493 0.148072481 22.115406 
-16.4826107 -0.593397319 -16.0772762 
8.83489895 -0.000528931152 -2.00211191 
-15.9862909 -0.612167835 -18.066021 
-2.35260177 -0.0928240791 10.0599031 
14.1612539 -0.534393072 -17.8445549 
-4.56746626 -0.210634798 -24.8095913 
1.33709431 0.161024898 11.1539516 
-10.7741175 -0.120788746 -8.37314701 
5.21466637 0.113928139 -15.17593 
-14.7196188 -0.0716983452 19.3274879 
-20.5264778 -0.269670397 -11.4123783 
24.4655266 0.222281009 -2.47779703 
11.7474117 0.122585066 -13.6163607 
-9.33524609 -0.509741962 -4.66774511 
-4.27111053 0.318428546 -11.6206255 
16.6628952 0.122221231 -12.7238302 
-1.86841273 0.274682879 11.8116465 
-22.0416203 0.284980863 -19.2311649 
19.9450245 -0.366056561 1.5395596 
16.6515331 -0.155153304 6.04570293 
-4.70261574 -0.218150124 24.330349 
-4.13542223 -0.411576301 20.5109444 
17.7724228 -0.342257798 -21.1169643 
-17.1121902 0.409206957 6.71778059 
-15.2381878 -0.321338803 20.7767925 
0.157748431 -0.200857982 -17.7208824 
1.92956901 0.0538036376 15.1835899 
18.5749607 -0.210014373 10.3619404 
-10.1702528 0.290352017 -18.9583492 
22.7677288 -0.44949317 5.83541012 
3.36880946 -0.379878581 4.50713825 
-13.7280312 -0.0197908152 -20.9084988 
17.8049164 0.07311818 -1.88582838 
-7.76585293 -0.333520025 -0.58679992 
-19.6713791 -0.223494783 -12.6554699 
23.6200314 -0.230739921 10.972702 
-10.1329956 -0.437018543 14.2074986 
9.62418365 -0.0807819217 -0.761484265 
-10.6712847 -0.0416785963 -6.26847601 
10.6275244 0.505982399 2.69331264 
-2.4866333 0.137636483 -17.3135281 
-10.8796196 -0.372481197 -2.57715821 
-21.3042469 0.522293448 8.26955128 
-11.6012459 0.0231204461 5.23659039 
21.6032257 -0.41272831 5.85975075 
23.8979683 -0.295957595 3.29814076 
-21.6146564 -0.368523985 14.8639221 
16.1983128 0.0723737106 0.533684909 
-8.97959805 0.233287334 22.6241283 
-0.0728934705 0.089299351 -3.29085875 
16.7384338 -0.534000933 -23.3431816 
2.59591675 0.00556873158 8.45886993 
14.1197557 -0.300239384 12.7797241 
12.1556396 0.537408233 3.93564773 
-3.65531039 0.227696732 11.4258738 
-15.9946671 -0.549846232 -19.3054619 
22.2539387 0.098397851 -14.6196108 
4.39187717 0.0768456757 9.26459789 
-23.8173847 0.561001003 24.5260315 
3.27186537 -0.22380285 -1.64029014 
2.82748914 0.000838560169 8.89833641 
22.588377 -0.49333933 6.48948383 
-12.5326977 0.0071404106 13.0931082 
-11.8478899 0.392906338 18.0856304 
5.36184359 0.104792677 -8.41795731 
12.4060726 -0.45236975 21.9160995 
-9.59968185 -0.221445054 4.49352646 
19.3677273 -0.363122582 21.783144 
4.76535892 -0.0370943248 -15.4770355 
-13.3032646 0.319993526 18.0749111 
6.66373587 0.121300533 -3.26251006 
-20.0592155 -0.074204877 -18.2007236 
17.0265484 -0.114889719 3.90120792 
7.16402102 0.201317549 18.0950851 
1.54109836 -0.413931578 5.04276848 
-7.24930811 -0.185260996 3.42374563 
-0.186870247 -0.216804087 -21.8582458 
-3.90030289 0.00204598811 1.334975 
16.1103363 -0.259487629 -20.6321983 
23.620779 0.272327513 -20.5843773 
-14.8139734 -0.370519966 -16.4375134 
-19.9081402 -0.288544625 -8.38191509 
-12.3596706 0.221646085 24.4733238 
-14.5739136 -0.59351182 0.357560247 
-5.75066948 -0.208671704 23.4340706 
12.2666645 -0.0230353083 -13.1478395 
1.43123543 -0.448972046 6.54674053 
-6.42242289 -0.368969709 -2.99125624 
11.6298351 -0.453974068 -8.25802708 
15.0251303 -0.476480633 23.4202499 
-11.6376514 -0.146136254 7.82131338 
1.43500352 0.165971547 -24.8166161 
-13.0483408 -0.088426359 9.51346207 
16.9160004 -0.579850197 19.9735889 
21.3922482 0.026628416 -14.9103327 
18.6805592 -0.13329269 11.3874102 
2.00917602 -0.500906348 5.68564796 
24.5545349 0.53191793 -18.810873 
-17.3942375 -0.186308011 -24.1787148 
-24.2552929 0.0942297876 18.7001972 
-8.02042103 -0.101684265 22.1694126 
14.9180479 -0.491979033 24.7242947 
8.79152775 0.181781605 -21.3962975 
3.04821086 -0.0652516037 -5.94607496 
-1.35705447 -0.182181492 -17.7076721 
11.816555 0.0360937119 13.6741257 
12.9278793 -0.188094705 -21.8588982 
5.41330671 0.4231323 7.49903774 
-24.0707207 0.159766749 6.02159786 
-4.6377964 -0.26508379 -5.38065624 
-9.17808723 -0.583373666 16.3903542 
-5.24843788 -0.0949876383 -0.363129586 
-3.32254601 0.148851752 -16.0841255 
-19.0844727 0.54937607 2.81328082 
7.78357267 0.438845783 -23.2185135 
-15.0476017 0.0630782098 -7.95618486 
3.46020508 -0.0504253246 -3.90528345 
16.5923672 -0.053526774 -13.2072229 
-11.2034826 -0.00214969064 -5.49183464 
-25.1455631 -0.580672622 -10.433033 
5.93805456 -0.0522904843 -1.19918406 
-7.57811403 0.0944024548 -20.3182755 
9.31241703 0.300172955 8.71917439 
-11.022788 -0.329378605 11.7350883 
7.98462677 0.0975593477 -1.1957655 
19.9775696 -0.391911983 8.20978355 
17.3527164 0.0870233104 -2.31935596 
-12.5163517 -0.0693647861 -16.0798187 
-8.87598991 -0.055059664 -8.12616348 
20.7192364 0.214016289 -13.6522732 
24.6530514 -0.38527748 -8.28163147 
-2.43174887 0.143892527 -2.07297277 
24.3564529 -0.0137376403 5.64693689 
-12.4099245 0.176244736 11.0037203 
-21.27318 -0.165221736 -10.0899649 
17.5388775 0.136796281 -2.43691373 
-24.3508568 0.871455789 -22.3844585 
-1.92899239 0.251572579 -1.35014272 
15.054842 -0.369939595 -14.2531719 
-24.6489887 -0.0692209899 2.02372074 
4.63234901 0.0889836848 9.41053295 
-22.101263 0.413139999 0.819425285 
-21.0452213 0.52331984 -2.51223469 
-19.8849602 0.408261895 7.49357128 
5.87272167 0.0747874454 -13.7860508 
-1.48822165 0.177360922 15.4960814 
-7.98687983 -0.575352013 13.9743204 
-6.60203409 -0.18917273 10.9930477 
13.5908461 -0.155199051 19.7248898 
1.74968934 -0.381785244 -15.6135826 
8.42214775 0.0662213117 16.0010166 
18.1524563 -0.643231571 20.3147278 
14.9926205 -0.170487165 9.44974518 
-14.7933216 -0.172973737 -10.7822056 
-19.1663418 -0.24786064 21.8069992 
-13.0501471 -0.0915383846 -20.2248135 
-18.3984337 -0.129799843 20.4832325 
-11.5162506 -0.0652981699 -12.3840942 
2.89443207 -0.293224096 -13.2275829 
16.0485401 0.70450151 -8.87925339 
-13.480669 0.17124474 -9.83275223 
12.2386179 0.656352878 1.79106259 
10.2768354 0.291186273 2.49896693 
22.38764 -0.413119465 4.0627203 
1.26853418 0.112787209 -6.32716227 
23.29245 0.193467215 -20.7594318 
5.72214842 0.461059839 7.8264904 
-2.65736318 -0.310507715 18.7320671 
-6.09610939 -0.210870236 -0.978900671 
17.2048779 -0.212279975 -15.6448879 
-2.14664221 -0.480686843 -21.9799824 
15.5749788 -0.499817073 23.5946445 
-14.9279146 -0.0332374722 -9.79692554 
9.6039362 -0.146846503 -3.31984115 
-10.7310638 -0.121131107 16.4331093 
-19.9952126 0.591362417 -3.18476486 
15.7680807 -0.379706949 -19.1147137 
19.0392609 0.347500652 -11.7716827 
-3.90453911 0.0193556696 8.99036121 
5.36190224 0.260624141 24.4292164 
-19.9533329 0.0499102287 -16.8461342 
13.4059772 -0.367111176 -24.3193512 
-17.9647942 -0.210087702 -12.3442888 
23.1300907 -0.522102654 8.67752552 
-20.9539852 -0.242286935 -13.2093887 
5.91551876 0.0429134145 -13.6529245 
17.0520248 -0.484820426 -21.9921818 
-17.6342831 0.217341855 14.4833775 
-20.3783665 -0.170197055 21.2569485 
14.6490488 0.046920415 -9.73152542 
15.2726183 0.0365625173 7.51421261 
-3.44515634 0.307309479 -13.6671772 
8.64320183 0.27086091 -24.0898514 
3.43366194 0.479056895 17.5367069 
16.2646542 -0.663913786 18.6275749 
4.70606804 -0.0274892673 -10.8607483 
1.34090734 0.145477742 11.5516787 
-20.3737297 0.121233381 -17.5212231 
-2.8841145 0.225282133 -13.1363449 
15.7460079 -0.623209298 21.2454777 
12.8389387 -0.0476537161 14.9938002 
-15.03545 -0.222034603 24.1892548 
16.3479176 -0.355877072 -18.165247 
3.30108738 -0.427626401 4.22063923 
-13.4468422 0.0113309203 4.94073725 
21.4262199 -0.308108598 22.96632 
7.89078331 0.45847407 -20.6433296 
-20.2250099 0.500638247 7.92556572 
11.531785 0.0369360633 -18.5793667 
-22.8323269 0.18915917 -17.0452614 
-21.775919 0.551794291 -0.959291816 
24.1510544 -0.44003281 -8.90415287 
-10.7218294 -0.359435558 -2.55163765 
-4.15841961 -0.0699315146 -22.8190193 
2.85866737 -0.113399215 -21.2065525 
0.17912057 0.086305216 -13.4973526 
22.4077492 0.125880167 -18.0186691 
-3.37668967 0.102903977 0.0829843208 
12.0907784 -0.184888124 -24.9131317 
-0.582600832 -0.0429485776 -6.70747042 
-15.3925409 0.39134413 14.9109411 
-9.55388737 0.0893605873 -16.6972313 
-2.37090373 -0.197076812 17.782505 
11.4224558 -0.0644941255 9.17993927 
15.08216 0.606552303 -7.74177647 
-0.821445346 -0.112817749 -15.9149904 
-7.66317987 -0.34378162 -0.719901741 
24.870676 0.0730943233 -6.07443571 
-12.4120598 -0.147703201 -14.871377 
-18.8890228 0.205438361 -1.72742212 
6.36488438 0.153842434 -20.7587929 
-15.2592669 0.0341872536 -5.859097 
24.8311348 0.7344684 -19.7564392 
-22.1778717 0.385992259 3.48386359 
5.15579605 0.124179304 -18.0250683 
-5.485147 0.594782114 -11.8200836 
-10.8375216 -0.467201382 14.6262569 
-0.115862541 0.219262227 12.8299875 
2.00379324 -0.0851283073 -21.8044891 
-16.9182301 0.573785484 13.3257694 
12.199872 -0.456852883 22.1800518 
8.71940899 0.0359634273 18.0086117 
8.598423 0.135030836 4.827106 
-3.28806925 0.145715848 -11.1914473 
1.48588228 0.55648917 19.9270973 
18.2911835 -0.093232505 -3.50008297 
14.5151434 0.462954581 4.05256414 
9.52577209 -0.0998565033 16.518713 
-9.57709026 -0.486728758 16.1303062 
-3.17544484 0.153623804 -14.9561787 
-23.4808884 0.170139432 20.5681782 
10.5678644 -0.150527999 -4.36211061 
23.793148 0.60413301 23.1319256 
24.9585514 -0.00889070891 9.07883453 
22.8346615 -0.378631234 10.7156363 
-14.9188976 -0.281357437 23.7451935 
-17.5199223 -0.059989579 -23.4687061 
-7.28760719 0.126640275 24.2456818 
-4.99133348 -0.108666599 2.64488363 
-18.9159164 -0.330850601 24.0526791 
-5.07047796 0.0290806927 -16.8064404 
11.9490089 -0.0609363243 9.77336502 
3.04660869 -0.0477452241 12.782548 
-0.335553765 -0.0848488584 -1.10313976 
-17.0157261 0.141609758 -11.1271801 
-19.8843784 0.662030756 3.51208711 
21.268343 0.14231053 -11.4656277 
-4.91729736 -0.205390155 -24.7503986 
-0.824992657 -0.0597361922 2.54746509 
9.00392246 0.355033845 8.90373039 
-1.02595663 -0.154350996 3.34938526 
21.6259174 -0.294169605 22.9886532 
5.2186904 0.0416936278 -5.96202707 
-13.4805374 -0.0132516762 -20.7849922 
-16.5082798 0.0196872223 6.21553802 
2.64055514 0.0917759091 -8.42380238 
1.24826825 -0.357990712 -16.6073246 
14.087347 -0.616065383 23.6538887 
17.1814556 -0.173192263 -16.4458122 
-9.21745682 0.291421682 -9.35082626 
18.8183575 -0.553846836 5.91711378 
-10.2749157 0.471941292 -19.784893 
-0.380460292 0.263348192 17.8002796 
-20.2969475 -0.241625741 -10.9817076 
-0.529868841 0.380995274 14.7474747 
5.98932552 0.0396647267 -5.75546026 
21.3600845 -0.155278608 -7.49880457 
19.6540966 0.0549048372 17.4930649 
-8.45392704 -0.21594134 20.2286129 
8.86252213 0.107333332 3.2966578 
-18.4781609 -0.327794582 -9.65746689 
24.0089951 0.402798116 -20.4120407 
-8.54867744 0.310207844 -17.5532951 
17.7312183 -0.639289498 22.296442 
12.2769165 -0.0452558063 7.47926044 
-6.1876626 -0.0323358141 -7.43248415 
-16.5111504 -0.0015806118 -11.9622536 
6.66383696 0.31617704 11.8353357 
12.5845222 0.552029252 3.7342937 
-17.4238739 0.111669801 -0.811782241 
11.3516359 -0.183323339 18.2511902 
-7.64644766 -0.499223441 10.2908144 
9.37829781 0.125703752 3.50820422 
-2.6949563 0.370523006 11.8170614 
4.89729643 -0.110012934 -1.59862685 
8.35701942 0.390447587 23.8253536 
18.220768 -0.6278404 20.0031338 
-7.93216658 0.181583434 -18.7009201 
-4.63013792 0.0779887885 -1.49913788 
7.57235956 0.21210146 0.215965167 
6.2268014 0.276480198 -17.4604645 
14.8175678 -0.506483078 23.3192081 
-17.3378792 0.349834174 7.70697832 
9.77389526 -0.671796739 -9.73091888 
2.12636971 0.312306702 17.1119576 
-10.9181738 0.0917326659 -17.5389137 
-23.5708218 0.768490732 -22.3286037 
11.9733124 0.136914223 6.51806021 
17.0052891 0.0558721572 -13.3313551 
-17.4406605 0.0966941938 -2.80851507 
10.8097401 -0.368137062 -11.3928032 
14.9236135 -0.166291669 9.99127007 
16.149704 0.117504492 -0.165165126 
-17.6950073 -0.184612185 -15.0366716 
9.35507774 0.230856597 -18.5944366 
17.4485149 0.20331645 -13.3709393 
-6.35236168 -0.337220311 3.49325132 
-9.91683578 0.227267727 22.4020157 
-6.253654 0.643621087 -13.890172 
4.97865295 0.17097421 -9.58261776 
-13.6065845 0.0262107458 10.2291794 
0.339952469 -0.207055837 5.45800257 
3.49676514 -0.155363023 -11.7618189 
-20.1077309 -0.172335312 -11.8828497 
0.389520258 -0.308562279 -17.9895916 
2.67977118 0.0335202217 -9.33020496 
-0.961277127 -0.294478506 -22.8851013 
-1.43130887 -0.5572716 8.23245049 
-17.7124004 -0.219830856 -14.0242901 
-4.56286526 -0.0951455012 13.0829306 
16.441597 -0.733139873 22.3140011 
-12.7214661 0.402732372 -22.8051052 
12.8908644 0.183818236 -0.814670384 
-14.8736849 -0.238554776 24.1171894 
1.26321161 -0.161543399 -12.820426 
-10.5290012 0.436844796 -19.8490753 
22.2121258 -0.0725343972 -7.87184811 
14.671917 0.0278977584 -11.2206354 
-9.86512566 -0.0925238132 -14.8799782 
-2.47253299 -0.427128106 6.08066893 
8.20831013 -0.408845067 -10.5948315 
-2.62554193 0.0613154583 -3.00297332 
19.2286568 -0.258925289 2.51914525 
13.8694077 -0.17234309 -13.4703608 
-22.3195438 -0.237134591 -6.22286272 
-24.5799809 0.25897783 -4.33474159 
12.7185459 -6.21816143e-05 -17.7873096 
-0.445435882 0.151871264 -4.10835743 
18.3494987 -0.09308552 11.3435774 
9.17667007 -0.0786169618 -1.22383058 
24.5211983 0.232433438 -5.87260818 
23.3128967 0.119809285 -23.0498962 
4.33214664 0.0907943845 -19.9346771 
-0.46614188 -0.465153605 8.35558128 
24.4083424 0.69020921 -24.6166191 
-10.2469397 -0.0176141225 -17.6014767 
-4.96642828 -0.19201687 -22.3957005 
7.19009733 0.217275813 -2.63117146 
18.444849 0.433664411 -12.4636164 
-11.7626982 0.104294613 -5.34832621 
18.4131374 -0.522682786 22.3925781 
6.02294111 0.625250757 7.33337164 
4.63353777 -0.00237406883 12.1135864 
-3.26225352 -0.337560803 24.3238182 
-1.02409029 -0.0744709596 2.47347665 
8.20251465 0.338738561 -23.8040333 
-12.4844542 -0.0658452064 -11.6290102 
-16.3110542 -0.0870125741 -11.6916981 
-23.0137062 0.232740253 -17.3674164 
19.3766079 0.143893227 13.5932751 
-19.1818199 0.497036636 -2.43013406 
-2.0325489 0.150389075 1.71775365 
5.59649038 -0.00884974562 4.37536955 
-10.4298334 0.389499277 -20.5119228 
6.15256071 0.5231933 20.24967 
10.8342743 -0.111558914 24.7806396 
-12.4837255 0.0450525209 10.1836386 
-1.83352661 -0.0806553513 -4.63792944 
-14.7197542 0.166929483 13.6361971 
4.95247936 0.0308163296 9.8120842 
-21.7138691 0.420837671 2.38843942 
17.3407173 0.0303083379 1.76481175 
-12.2703066 0.0265619271 5.66211367 
-23.1440201 0.449358404 -18.9183044 
25.0225887 0.680488169 -19.7896519 
18.0275593 0.57518965 -7.35679579 
16.7002792 0.187740117 -3.37190247 
18.5182858 -0.340570569 8.6689167 
-14.0890102 -0.497826636 -2.53518629 
-8.94995022 -0.483956337 -5.37158155 
18.5639458 -0.494211018 18.9525528 
12.4846973 -0.198908851 -6.13412523 
-18.0205612 0.31924063 4.94811821 
23.0037823 -0.110741712 14.0558519 
14.9762545 -0.560022056 21.186985 
-14.4710884 -0.418840945 -3.45881915 
15.065093 0.25676015 5.37059689 
2.15565372 -0.215854362 -1.96057284 
19.9308968 -0.0501344949 17.975893 
9.9798317 -0.245641947 16.6191006 
6.22638893 0.310876727 9.42128563 
12.5636072 -0.205330491 -9.15036201 
19.808382 0.157801509 -3.15289259 
10.1379461 -0.0313151963 24.4314957 
-13.4137259 -0.425858259 -1.84598708 
15.279192 0.181435362 5.75351715 
-3.56746984 -0.224657834 16.1883049 
17.6016712 0.0044441116 13.841857 
13.503767 -0.47782889 -19.1104507 
7.62517881 0.371536762 -19.695137 
9.25828838 0.285645038 7.29164934 
22.4614277 -0.606273055 9.98719788 
-0.59908241 -0.0686043277 -7.17863512 
-17.7776051 -0.0213439278 -23.5360031 
24.3540268 0.405790567 -21.1103382 
20.0108109 0.296768963 15.3099022 
-5.06536245 -0.100983657 3.94609594 
-7.83610058 0.270459026 -13.4226799 
1.0433383 0.154810533 -7.30174208 
0.779054165 0.184699073 11.3659067 
-9.69778061 -0.106641613 -14.816514 
-18.0940151 0.122701898 1.74277711 
-18.9310627 -0.211722538 -13.8984537 
10.0693321 0.134779289 2.36287642 
-8.63441849 0.0619695783 -14.6454868 
-8.01359558 0.325419903 -24.1619625 
8.82863522 -0.0764798597 1.67181838 
-1.95990586 -0.39729917 24.4487495 
12.0012751 0.587201357 2.08147287 
13.2564878 -0.182194456 -17.6292572 
24.6133785 0.00818322971 12.4372864 
16.9166164 0.0371447317 0.131999716 
-3.71436381 -0.39123702 21.1109619 
23.1298122 0.48415789 21.5466099 
-13.9323645 -0.37312001 8.54889679 
4.05454636 -0.169760317 -1.38933873 
-19.9301472 -0.202202275 21.5635433 
-13.3346119 -0.0490973108 -19.8493996 
17.5588493 0.132247582 -0.213996738 
1.47026134 -0.168194473 -4.71562243 
-3.53992081 -0.17158924 4.22292376 
9.42299938 -0.48626104 -12.0762177 
-22.7343483 -0.329169273 16.1144524 
10.2942533 -0.062606968 23.1335468 
15.3328066 -0.164908126 -13.1698103 
-21.4697857 0.092830725 23.3671074 
7.07755232 0.168875411 -2.08542347 
-24.6250629 0.491489381 -18.0684223 
13.3974905 -0.287788093 11.5611715 
-10.7220564 0.358611852 -19.3310623 
18.6939411 -0.498589784 6.27344751 
-2.63997149 -0.255742669 17.6972122 
-5.94152498 0.0942173377 7.14117384 
-12.8903685 0.313737541 -23.1715393 
-22.4465561 -0.301809669 14.3044586 
20.3061943 -0.475640595 -25.0001411 
3.88991213 0.0412944816 6.89783764 
-17.8659477 0.0596130081 16.8976498 
-10.5764532 -0.233247012 15.7172518 
23.5672169 0.340351731 -24.3618813 
14.793087 0.250211716 0.38964799 
-8.83863068 0.221052483 -19.3782749 
-7.99916935 0.315613419 -23.8559532 
15.1324577 -0.339852422 -21.6539421 
-8.68449974 -0.67689389 -3.96221519 
3.81328678 -0.074830696 -3.86706233 
-22.4602642 0.193731949 21.6862125 
0.891073167 0.141660318 10.8076649 
-12.2216043 -0.120047286 -3.54705358 
0.361775488 -0.00608273409 -3.62071657 
15.9658184 0.136331543 0.336364239 
-6.68587828 -0.190638825 8.30357647 
-4.13359833 -0.286142617 18.8269386 
11.8417683 -0.0842529312 9.39276791 
8.64876175 -0.422884077 -6.58683586 
-4.87351131 -0.203936338 -8.04392147 
-13.6466961 -0.265664816 1.75402808 
-16.5797253 0.300104916 8.02629375 
-15.4335079 -0.0329663903 7.06486177 
-10.1789341 -0.413156569 14.3945141 
7.59176874 0.356257826 -19.5062809 
23.4073238 -0.047691524 13.2999382 
-12.6280098 -0.347517878 0.63229382 
10.5403929 0.303503722 0.390506923 
22.883997 0.0683959797 -3.29362512 
-7.99548674 -0.525420368 9.73192215 
1.21720469 0.180752486 10.5127087 
-24.6517963 0.793196261 24.6675587 
6.82347012 0.264435768 20.0679989 
3.87189507 0.00514691416 -17.8429394 
-8.53570843 -0.378196746 0.470127285 
-2.35727954 0.200120673 -8.60614395 
-9.55844593 0.264723241 -18.8359089 
2.08928657 0.0482180603 14.9338341 
8.63018894 0.0832355246 22.3659782 
-15.5182943 -0.0568135753 6.81036234 
13.8043079 0.214093804 5.24438143 
3.43121099 0.52304709 18.5990429 
-1.71382475 0.0970083252 -8.54589272 
11.3831673 -0.548807919 -8.68908787 
6.5737915 0.187139779 -24.9170208 
-1.48630381 -0.499712646 5.90624428 
18.0758076 -0.741514564 -24.6381226 
7.41440105 0.190989599 1.63484335 
22.9404755 -0.145012036 13.3055811 
8.38478088 0.397359073 24.186161 
10.8441076 0.215230107 -17.5088062 
-11.5189514 -0.0381177217 6.43050289 
13.2352524 -0.312595546 -22.7536201 
-4.94887781 -0.0982178599 1.49380577 
23.8236713 -0.229624957 5.6337595 
-13.3337698 -0.208563358 -14.2186327 
17.4539661 0.362849087 -12.160675 
-0.667824507 -0.285834849 -21.8456516 
7.17667818 0.314546049 15.6755981 
-13.1864405 0.382591814 18.3950024 
-10.3473902 0.318150312 -21.6214447 
16.2749023 -0.643692374 19.0279331 
18.4077435 -0.378559679 8.72383308 
-24.6045704 0.345249176 -3.82995915 
-0.321402401 0.167214006 11.5705175 
9.26032925 -0.497941196 -11.7240257 
-11.8525591 -0.0122348648 13.7128401 
4.22879696 -0.0254657939 -7.1701827 
-21.0342121 -0.200365439 18.166935 
-16.5913124 -0.36994046 -24.4043808 
15.4238539 0.349396586 4.31381845 
4.5572052 -0.0289130788 11.9339561 
12.5953302 0.387223035 5.10595465 
6.49503183 0.372270346 9.32300282 
22.4418106 -0.432729065 5.10183144 
19.1247787 0.389060348 -11.64149 
-10.4947214 -0.0471161008 17.5760555 
24.8046856 0.111603945 -5.99587345 
-9.0489397 -0.537286818 12.9660845 
23.8183041 0.045391582 -1.3083837 
-14.8438025 -0.503791749 1.21410275 
-23.5501728 -0.595954835 -11.190156 
-7.02033234 -0.0155240158 -21.4038391 
-1.72124588 0.376843959 13.7794065 
-21.1772671 0.481364995 3.84353089 
4.54612303 0.641626298 19.3981304 
-22.1741161 0.441818714 2.21407962 
13.6798134 -0.071583949 -8.84620667 
-5.64103746 -0.238017336 1.19076252 
-16.2897453 0.0269780904 4.97581148 
19.6063271 -0.248947963 -17.591198 
20.4463501 0.000984615879 -2.67075348 
19.2813282 0.276138008 -7.41589689 
3.64656186 0.502796054 18.0636253 
6.6946578 0.305523604 20.5247478 
13.5249462 -0.323732078 -22.0210075 
16.3821182 -0.00547876768 0.876538992 
9.72371197 0.308109432 3.94762945 
9.67962074 0.0867608637 -19.416811 
12.3164492 -0.0953974202 -21.7168579 
-6.5766592 -0.1939421 6.11896801 
9.07469749 -0.0251253918 17.3602219 
12.800766 -0.0832171664 10.7407904 
-9.92952442 -0.443504304 -4.54698801 
21.6205177 0.284595728 17.5587883 
15.2807379 0.214359239 -10.3547897 
8.03747559 0.337292433 9.60279751 
-24.7003345 -0.146262407 14.2307882 
19.5961285 -0.165157065 11.3328342 
12.1599379 -0.0645342916 11.9407253 
1.34070802 -0.351108819 -17.0915241 
-10.5698538 -0.084288463 -13.3332548 
0.237205088 0.0136497254 -3.5319798 
0.134973839 -0.0125776082 -11.0375032 
7.88873148 0.404495418 6.34126139 
-6.33508062 -0.684553504 15.7442188 
-18.6307526 -0.364365429 23.8067265 
4.54083872 0.376040429 15.8062067 
8.75184345 0.19405967 -21.25984 
12.0844812 -0.145945147 -6.66017723 
-5.99040079 -0.219542116 -23.696312 
-14.0730953 0.048366826 -10.5142498 
1.13078761 0.345890075 22.1459427 
8.11954021 0.132656351 18.6251202 
22.8466129 -0.110237896 12.8218508 
8.26195717 -0.0188441388 -4.50582409 
-2.64789295 0.149827942 -16.9234409 
17.4898205 -0.73498565 -23.6027184 
2.24450588 0.162703946 -8.8888855 
18.6145859 -0.301556468 17.7688446 
6.44282627 0.0487333834 -12.5696688 
15.2969236 0.331878543 -1.35690796 
1.42516458 0.5668751 19.6361504 
-5.0630126 0.258199185 7.15171099 
16.9981785 0.412803888 -4.96125031 
9.50087166 -0.0855901018 19.7457161 
9.12022114 0.136798337 4.61185598 
17.6106358 -0.593416691 23.0215912 
15.2645607 0.406443059 2.27974415 
22.2350559 -0.419209093 3.65591145 
-4.56545448 -0.111399032 -21.2700157 
11.642251 -0.0491657183 -2.94276333 
22.5405731 -0.451411992 3.81357574 
-21.9921036 -0.12837328 20.6945095 
21.7059364 -0.0565518513 -2.83554268 
-23.1482582 0.367341727 -1.50191355 
0.48538965 -0.18779248 7.17444849 
19.7161026 -0.481807947 -22.8814335 
-9.20175934 0.149211034 -16.8192425 
-14.2066889 0.0887666568 11.1572847 
-11.1545935 0.271061093 19.7060966 
-9.53382492 -0.0776861385 -14.7843351 
-10.8149214 0.291961163 22.7459183 
-5.89100361 -0.079377301 -0.256767541 
17.7777786 -0.234472662 -20.3401318 
-0.863423347 0.039838396 -1.84131348 
-15.3311338 -0.320441604 19.1991806 
18.0197067 -0.296969652 3.31935811 
-6.02566862 -0.237135246 12.0873604 
-12.1976852 -0.298250765 0.942645788 
18.4210396 -0.0262678955 15.5165567 
6.18613386 0.383046806 8.69705105 
-18.6435986 0.565342546 3.13179827 
1.77644587 -0.318452477 -14.2231627 
-8.70265293 0.242986485 -9.94302368 
11.1563482 0.139570817 -1.5948143 
-9.51459694 0.0378483087 -17.0220585 
12.0290966 -0.0655124038 18.0371628 
-5.74540997 -0.133549988 -4.18665934 
16.5307541 -0.439273149 -22.0829582 
7.11932945 0.0892493278 -5.049757 
-7.64202404 -0.171504006 2.256845 
8.11638832 0.172560662 22.4540215 
-2.36470532 -0.148567796 17.1202831 
-11.3061562 -0.168191716 -14.8809652 
15.4185476 -0.337566584 14.3724394 
-6.94643021 0.0295352582 24.6877003 
14.9270792 0.14546746 -4.4919548 
-20.9059258 -0.277931213 -10.7610674 
16.6155834 0.0351012014 2.27157569 
12.1166229 -0.0931821913 12.3915472 
-13.9337044 0.119456358 19.5732956 
12.3054447 0.0419600829 -12.3850956 
-18.2763767 -0.282918572 -9.12232113 
-11.8206739 -0.205199748 -14.8516483 
-0.715816975 -0.276358187 22.6645966 
11.9353094 -0.214382917 -11.2516479 
21.6593552 -0.385796219 5.30947065 
12.1111603 -0.225824371 -3.89540768 
7.09838581 0.184450358 12.45432 
-6.96031666 0.476746261 -14.9965525 
7.98012352 0.108892396 0.891154945 
-9.93066883 -0.34067592 2.28544354 
6.45056915 0.374439538 19.2609158 
-17.9383163 0.20525156 -4.15477228 
-11.675663 -0.0903735086 -10.8756733 
-24.6804619 0.182265237 6.69372654 
-12.3101425 -0.0432386734 -15.8552465 
1.92379451 0.104382023 -6.94257069 
10.1391411 0.0128119672 7.04685593 
10.6986408 -0.0213682856 -22.6292057 
-24.7344723 0.821375906 24.7927094 
-11.3113661 0.502131104 23.8299065 
22.4007778 0.221755818 18.6514015 
-19.9957352 -0.191496551 -11.5580645 
14.181448 -0.390860051 -24.6844501 
13.0921268 -0.279227436 -6.58813715 
-4.65607262 -0.0839624107 -4.58472824 
-7.47091484 -0.194228366 -7.17481852 
6.56927156 -0.121689618 2.11826634 
-23.3227978 0.180883691 5.71537113 
9.95406628 -0.188630298 18.11096 
13.8698511 -0.0308076534 16.0205307 
7.55073214 0.216724411 -18.1554108 
22.560379 0.0549751632 16.7375355 
-20.8249111 0.6801247 1.43013811 
14.4552765 -0.130570933 -12.701848 
-2.58602142 0.210157052 -9.85752964 
22.2002525 0.125115469 16.0044498 
3.99889064 0.0770832375 -18.7794857 
-3.43319201 -0.276872963 17.7318363 
-11.5774431 -0.166276649 1.360255 
14.9677677 -0.586070299 -15.7852736 
-22.5391121 -0.154473171 -6.62752819 
24.253006 -0.311668724 15.4333696 
24.5393753 -0.0455953181 8.39019966 
7.39373779 0.451779932 -24.6488495 
20.2061386 0.215172946 -14.220664 
4.31033039 0.293688416 14.5292253 
22.4846878 -0.0229466297 -6.88336802 
23.0827961 -0.224515721 11.4439945 
-14.5648975 0.116565697 18.2529583 
0.0639273077 -0.30503419 -18.8994026 
7.63676262 -0.0835371763 -11.8631325 
15.7409172 0.244757816 -5.92880297 
18.9999313 0.09957809 14.7250757 
19.2525215 -0.299606264 -16.8312798 
12.5832205 -0.234645128 -18.7896843 
2.1948185 0.335962892 17.26334 
4.74511766 -0.153067186 -1.86224318 
10.6510735 0.00459175603 -3.21289396 
-24.4768543 0.6691764 -20.3101654 
6.09248257 0.620217264 7.14469767 
5.69498158 0.709956706 21.1654091 
-20.8689423 0.625376999 -1.08677161 
20.943531 -0.480443805 5.0744009 
17.6894474 -0.0728049278 1.72962928 
19.9098949 0.115553975 13.7731647 
-8.04241467 -0.551217735 12.7214212 
18.8531952 0.0651439652 -14.3380413 
-22.2810192 -0.112000525 -3.98917413 
3.59963751 0.319148928 24.2105083 
8.5106411 0.313816339 24.8909473 
22.0113735 -0.0578345507 -8.00089073 
24.3401604 0.599106729 -23.2768021 
-14.7133684 -0.206874236 -12.7633858 
17.0949783 0.203482807 -3.26875424 
-22.550106 0.19861275 -17.1352901 
-24.3350582 0.179807559 -0.957399905 
14.9659309 -0.438365787 -15.1438513 
-24.1744614 0.437617093 7.55428457 
-11.5110035 -0.241852656 -3.34266353 
6.59197092 0.383751184 11.4781666 
-14.7372818 -0.225751281 5.14839554 
7.50445843 0.249396399 -3.51653075 
1.43361068 -0.047506649 -10.9160872 
-6.76458597 0.355694622 -17.8625069 
-7.29508114 -0.153525949 -7.61009884 
-5.14763641 0.192858905 10.4811888 
-17.8149242 0.0856860951 -2.25198078 
0.345641315 0.434467912 20.3742924 
10.2714119 0.14945212 0.543322742 
-24.4591484 0.275547028 9.11739159 
4.2456255 -0.181625932 -14.7004232 
-21.4156055 0.0782565176 22.9109745 
-9.49312115 0.0220832974 -24.469902 
-0.0229762793 0.480782568 18.357563 
-12.1168432 -0.0954881683 -10.3305559 
23.0238647 0.175224394 -20.3286705 
-5.80450106 -0.182486147 4.59026623 
21.9469452 -0.171644002 -8.67272568 
3.74645138 -0.102202229 -21.1203442 
16.9944324 -0.722319365 23.0132084 
-9.09103489 -0.637031674 11.7620907 
7.74431515 0.0995286182 3.47235465 
21.9076195 0.140060931 15.5737429 
-0.43005529 -0.126840293 22.7482128 
-21.2704372 0.0612615012 -19.2546406 
