ply
format ascii 1.0
comment created by gply, a Houdini tool.
comment converted from .[b]geo
comment for more information about Houdini, try:
comment www.sidefx.com
element vertex 1273
property float x
property float y
property float z
element face 0
property list uchar int vertex_indices
end_header
-16.7295399 -0.151222154 17.1811943 
-2.5150044 -0.134295791 3.24438143 
-23.5530682 0.197711334 -4.56627083 
8.1849184 0.439638436 7.09540462 
-21.4283047 0.37696892 23.3892727 
7.81688452 0.242411807 14.3276339 
22.7963982 0.0397518054 -2.80210686 
9.61804485 -0.143736407 -22.8716412 
-11.8972158 0.219860494 20.7453594 
-8.93209743 -0.23191753 -6.70834732 
19.8031197 -0.150943413 17.4734097 
8.85779285 -0.365112424 -21.6107273 
-4.02797794 0.531524181 24.3828945 
-17.6115818 -0.0803312436 10.5649328 
5.91802692 0.42041263 -11.4939442 
-5.97131491 -0.0933655426 15.6853838 
-15.3406315 -0.136818334 22.5239716 
8.28696728 0.319627702 -11.1725922 
-10.4790401 0.141900837 5.88406229 
-14.7507019 -0.0935974121 -6.11993217 
-6.39818859 -0.29950875 5.06836367 
10.4382534 -0.289422721 -13.0540762 
-10.2901659 0.165995806 9.53682613 
10.7186146 -0.304359138 -13.8704252 
6.93603039 0.403137773 9.00497723 
-1.88157201 -0.107936814 4.18732977 
23.0086517 0.179192334 -14.9498062 
2.05697608 0.0907735825 4.77646351 
3.99636507 0.14655149 2.09166217 
-0.161141574 0.525886118 -16.0988407 
1.42938876 -0.0613411851 -6.12844467 
1.30527318 -0.383031607 18.5837955 
0.331033051 -0.524185479 20.8258286 
-5.37803364 -0.527156472 -13.0111866 
17.407135 -0.104387395 -2.02750731 
16.331192 0.207054928 21.353672 
5.34847927 0.335482299 -2.68973804 
-5.859272 -0.510373056 -5.79122591 
-8.59597015 0.160965651 15.7452488 
23.0105724 0.0873431042 8.95592976 
18.0688744 0.340515494 4.80782366 
-22.2377319 0.280046284 -4.22370338 
-3.34699702 0.712845385 -19.5223274 
-12.7890568 -0.284655452 -10.805356 
9.00675678 0.183483139 -1.15145195 
-13.4421682 -0.43307817 22.4077072 
4.08157015 0.187849641 10.5706501 
-18.4679203 -0.250144482 15.984169 
16.6652184 -0.486136287 -20.20508 
5.12507725 -0.021468265 18.5080833 
1.06656659 0.415373325 -14.6057386 
13.8755178 -0.194315061 15.9485407 
-4.54372263 -0.77107662 -3.61253929 
22.1218281 -0.107769556 17.823597 
-20.3976803 0.150423363 -10.2849541 
21.3371468 -0.332550973 -18.2253628 
20.9609737 0.178234309 -14.5358448 
-8.14507866 -0.192804545 0.74075067 
21.6486015 0.415572435 10.9974947 
6.67564058 0.200182259 18.6414185 
18.010458 0.0576073676 17.5314026 
2.92545557 0.190634251 15.434103 
0.717280269 -0.305463314 17.4123363 
-6.80123091 -0.384672821 0.451079458 
-4.44106102 -0.324859083 -9.89169025 
-17.260334 0.138827667 20.1743546 
13.2746086 -0.677169979 -8.60080528 
-9.36974525 -0.874641061 -11.1003714 
-16.2986698 -0.2089656 -6.76857758 
16.9628315 -0.328832567 -21.3642616 
9.58200645 -0.19539243 24.0426903 
-1.79598927 -0.371156424 -9.66857624 
11.7934122 -0.51845926 2.77358603 
23.4941158 -0.0319974832 18.5492287 
-23.8753357 0.227907196 -5.37825918 
-10.0291529 0.0686692148 7.52168512 
11.7487469 0.305161268 8.24457455 
-19.5337982 0.342251748 21.3920059 
-2.26501417 0.170028806 7.60047007 
-14.0259991 0.272248834 8.75542259 
10.4385262 0.124468654 15.0716696 
10.3432083 -0.148685202 -0.465363622 
18.8360195 0.163976833 12.8184242 
3.04116678 0.269853145 -5.08629894 
17.6157265 -0.441548109 -20.8592091 
17.4656563 0.316719353 8.51018429 
9.54320717 0.0585708581 -6.57544041 
11.6939735 -0.137876496 -18.1573696 
15.1608915 -0.278293133 1.14019012 
12.0387249 -0.323901892 -4.89028597 
-24.2856865 -0.155462638 22.2209148 
-15.2308521 0.702166557 0.746192694 
17.3460903 0.287331879 10.9349537 
-24.4364815 -0.0419689342 16.4957504 
6.55376148 0.10373456 5.63748074 
22.9779835 -0.036251761 6.61226606 
15.6381216 -0.234208301 -23.5089455 
6.18806124 -0.101790823 24.0226994 
-22.3033237 0.572966218 -16.4760704 
-18.8617916 0.00115090981 2.4365406 
1.6516279 0.335579276 -9.89817619 
15.5959549 0.180911273 -17.1116581 
23.9245491 -0.505652606 22.3868866 
20.1362476 0.349259019 6.61244488 
-12.15728 0.0785463303 -0.258235902 
-23.2895298 0.57592833 -13.4770565 
0.869274616 -0.53887701 19.4402847 
12.9816103 -0.469455302 2.57452822 
6.60532236 0.375177115 10.4346628 
8.62271786 -0.37129733 -23.1701126 
-15.7227831 0.482955366 2.3210938 
-21.5883732 0.0114468364 -10.2909899 
13.8664188 -0.279398203 -14.4482841 
-13.3399792 0.0760573074 -1.29147029 
-21.007803 0.573394358 -16.2770767 
-13.7761059 -0.0283631776 -5.54021263 
-2.03224134 0.718838453 -22.8067017 
-16.5941391 0.263328224 4.77332258 
-12.6823959 -0.00544555951 1.15169716 
20.6489601 0.080831103 -4.84701395 
24.2873077 0.0200231355 -15.5341234 
-19.173233 0.281358272 20.9102764 
18.7869415 0.0428173393 -24.5731068 
25.3052425 -0.591768324 -20.5377693 
20.7649403 0.364824772 0.791547358 
16.0670757 0.112389907 6.48231697 
6.26437569 -0.289782822 -23.5313168 
16.1352291 -0.102770671 10.7505789 
-10.7071552 0.425579488 17.1558094 
-21.2304802 -0.488718003 11.7291765 
-16.1695633 0.532655776 0.442534089 
-6.10501862 -0.449883044 5.9167695 
11.6853189 -0.00079086452 16.3790913 
-0.343299031 0.123874895 7.72167587 
1.88302255 0.370059818 -16.2083511 
-21.7931671 0.659305632 -17.3870831 
-14.7051382 0.124237575 13.1163731 
-6.28593969 -0.634495974 -9.8187542 
10.0826826 -0.118333951 -9.61700726 
22.480175 0.0182488076 2.46692157 
14.4405947 0.124257587 -17.2389603 
7.33763552 0.527635634 -10.9003687 
14.4220743 -0.781727076 -9.61813736 
9.14954376 0.275241107 -6.3857069 
-22.9299316 -0.0547176264 16.770525 
-23.3102779 -0.706040978 7.53620911 
-16.0169468 -0.0338089205 10.1282072 
-11.6303253 0.14858669 22.3171482 
-2.5526979 -0.270682961 20.4554062 
-4.01367855 -0.447228432 18.5738525 
-5.72126627 -0.0676688775 19.4791927 
-22.3271523 0.248980641 -7.70936775 
-9.43637371 0.322943985 13.2646513 
0.248005629 0.193011224 -11.1567898 
3.81637597 0.182826802 3.37029672 
4.73085022 0.238545582 4.30095148 
-22.6044464 0.459347039 -15.2438631 
-2.98847866 -0.0296229851 8.7246542 
13.6242867 -0.515346825 -8.02643013 
-13.5465908 -0.599501789 -24.0529118 
-2.47220325 0.748986304 -23.1624374 
-16.8794918 0.310005873 -19.1038361 
5.57290745 0.0789099336 14.531003 
-12.2980404 0.310310334 6.79757357 
11.9439173 -0.35171935 3.78056788 
-21.5611439 -0.0145444237 -8.35972595 
-15.7728462 0.471663922 3.56296968 
-18.2874889 0.622109056 -0.60534364 
-7.26574087 -0.00593798142 -18.2015896 
-8.46887016 -0.140072718 -18.689373 
-19.6248569 0.0789274946 -3.19813037 
-12.2822847 -0.102358349 1.88358378 
23.8574409 -0.392401367 11.8312054 
-12.6734905 0.186429501 11.9287796 
12.7545328 0.217015758 8.15502739 
9.0156889 0.367771268 -6.4769268 
-23.4270344 -0.387868881 2.18598318 
-22.949831 0.0307866912 -1.83893013 
11.9770346 -0.139814183 -16.117672 
-23.0420437 0.538159311 -12.4687643 
4.40517759 0.031275969 9.21711445 
1.58513165 0.265713155 13.0424557 
-10.5454473 0.1182134 5.76546001 
-12.2020397 0.0928037688 -2.03731441 
11.9963808 -0.125500694 -20.4820538 
9.38363552 0.0590885468 11.2758541 
22.6788578 0.507252097 -13.1726665 
13.3323307 -0.218047366 -1.65221572 
9.18590736 0.164286971 0.00602926314 
14.712204 0.113617577 -15.2627993 
22.7972183 0.273491144 16.0172672 
20.4821148 -0.451289445 -23.8683739 
-18.1382999 0.0564380102 18.5888691 
-4.09226084 0.791422784 -21.3133698 
-6.21934605 0.0990851298 -18.1380081 
-4.00401258 0.817305207 -23.5178719 
23.3440151 -0.205813617 3.92635489 
9.40258884 -0.185029551 -23.2537594 
22.0395031 -0.581821442 -19.9042034 
-20.5620308 0.0943764374 -7.37309742 
24.5569153 0.174413696 15.3290129 
0.43145445 -0.158510238 13.942728 
15.6836033 0.132018179 7.19614887 
6.21379423 -0.0315476507 16.4984875 
12.1002607 -0.123321094 5.11100101 
15.7967043 -0.161079273 -13.8976345 
-0.379861534 -0.144243315 9.9006958 
0.324004173 -0.129050955 13.0090437 
7.55974579 0.365123928 -7.30255556 
-2.69975114 0.0259135328 -13.0426903 
-17.7233906 0.241821855 22.6071854 
-11.6991539 0.0549354181 0.117797591 
0.204846248 -0.46096307 18.4556313 
3.5744617 -0.232720792 7.89262724 
0.945336938 0.154635459 12.8856344 
4.80699492 0.1757323 -2.84857559 
-6.52338839 -0.515250027 8.31272316 
-3.22389913 0.502550066 -18.4232788 
-17.55863 0.322747171 7.7519002 
-1.26102257 -0.253134221 -5.73421526 
22.8403339 0.199593216 -5.88669395 
-5.91772223 -0.619337678 9.71429729 
-19.4911213 0.257546604 -9.72139072 
6.47645521 0.157603443 -0.624021411 
19.2559052 0.406910986 2.31025195 
2.76184726 0.0611090772 -24.6530819 
4.32604885 0.195237905 10.2753162 
-1.26377487 -0.0262789819 9.78972626 
-18.5185966 0.299160004 -15.7754345 
24.4821815 -0.497973233 12.3603096 
-2.78256774 -0.134535909 4.24768543 
-1.3573451 -0.0782135502 4.36331987 
-10.8337526 -0.0818700492 -8.43517494 
8.60676861 0.00796323083 -13.5667257 
-4.67322826 -0.409014881 18.3487663 
-24.780407 0.704378247 -9.09193325 
-9.18873501 -0.258631676 -21.06744 
10.2132607 -0.0767543167 23.767458 
-5.66286659 -0.269123793 15.1450214 
-22.550869 0.188134983 -9.91013813 
6.14348984 0.537327766 -4.66104984 
5.15942907 0.0627297536 14.7022886 
-6.55302811 0.00186632574 15.8585863 
4.33614922 0.130174354 -3.53362918 
1.49274075 0.0800977871 -7.63282013 
-11.8055944 -0.017825922 -9.03089046 
-11.8051481 0.198199108 21.0033035 
-19.299757 0.27591911 20.8192596 
22.1113834 0.186287671 9.89305115 
1.6890229 0.137778819 -24.0377083 
5.8835206 -0.238096192 -21.996027 
12.1895304 -0.0617440864 -21.5705166 
-4.04338837 -0.494575232 0.268604249 
2.78109241 0.25924021 1.75135803 
11.1221132 -0.440410763 -13.4458694 
1.05646348 0.408734977 -11.821475 
5.09905434 0.351417989 1.67215693 
21.9609241 0.308000714 -4.91378641 
-20.244854 -0.623368382 8.63247013 
-15.3228464 -0.293146312 -15.7135677 
-7.73532867 -0.234784529 9.648036 
-9.99726868 -0.486075938 -20.0534706 
-17.8371525 -0.0329425856 -6.84788942 
22.6700993 0.1269885 9.30710888 
-16.3658562 0.0798730105 7.68822622 
-23.5272598 -0.300709963 3.51118636 
17.530323 -0.636565864 -7.64914703 
11.3017035 -0.545403123 -12.2114553 
20.9874783 -0.114636481 -3.46919465 
8.37378979 0.510777652 -10.3874044 
-2.72189927 -0.223753527 -8.22286797 
17.023941 0.120497368 1.64946759 
-11.5758047 0.123223752 -6.01058817 
10.170064 0.180718467 10.7329788 
-17.8380642 0.911332607 -0.637693703 
20.5861607 0.318649203 -9.63827133 
-9.92433643 0.580346644 14.7318621 
1.5624001 0.0970684588 -2.79334974 
10.4444714 -0.272492409 -5.10774994 
0.721748173 0.173370436 -0.344072729 
-9.57958508 -0.0613123402 0.918359101 
1.06619048 0.0168766547 -7.70820236 
16.7234707 0.0374441482 1.22006142 
-9.6331625 -0.252748758 -22.1974945 
14.0747976 -0.0634505972 10.3598242 
1.72962511 0.517426968 -15.1277676 
11.5014467 -0.224079713 -4.85249615 
-5.66688204 -0.613711953 -10.4356842 
-22.9847393 -0.358170629 2.12935853 
-5.16715193 0.786194623 -24.6876431 
-13.5422544 0.231192455 3.39192533 
16.3460178 -0.0243358966 16.0272503 
13.6685743 -0.0105644688 -19.3797131 
-6.77749681 -0.61137414 -11.4924908 
-11.1892481 0.378227562 15.9342842 
-5.33217669 -0.0410351008 21.1515579 
21.086647 0.41741094 10.2083035 
7.17068529 0.0645894408 -14.1956987 
7.79081106 0.383093596 -3.36937404 
5.50004387 0.552629888 -10.4669657 
-13.1394567 -0.183114797 -8.44167423 
-23.3865433 0.48120749 -10.0758715 
12.2977037 0.206987202 8.82142067 
-11.9551182 -0.951417208 -17.9805565 
14.2550268 -0.410770774 0.613717258 
-12.2422876 -0.708951473 -19.8472843 
11.9441233 -0.263830841 4.43246984 
-0.710908294 -0.356247574 -3.20714688 
-6.0454216 -0.535837471 10.571044 
18.6400642 0.317876816 11.3234777 
-2.39317989 -0.400823206 19.1019096 
-10.037035 0.135586932 4.4609251 
-1.75344336 0.771894097 -21.9077721 
-4.5242033 -0.345245689 17.1435833 
-11.7239037 0.147178113 -1.67809629 
-8.48532486 -0.662349939 -14.575819 
2.83727694 0.431470871 -12.2965527 
6.11432457 0.554692626 -4.78738928 
-16.2654991 0.183408812 9.2076683 
7.77843571 0.175018921 3.09226561 
13.7593327 0.0504820123 6.0633359 
12.1788855 -0.685048103 -9.12316799 
16.7394753 -0.443170577 -16.3671284 
-17.3496456 0.0497247688 -4.76014423 
-7.8635087 0.0101005472 -24.5547924 
22.7460537 0.0859545395 17.1432114 
1.79512405 -0.175175533 6.17379093 
9.30849838 0.174520195 6.80318689 
4.98800755 0.351303816 9.82144833 
-6.87249279 0.0283524673 23.614994 
-2.08319831 0.0958972275 23.8241444 
-5.82096624 -0.346094877 -15.8103638 
-11.4307909 0.0363527723 -2.6201942 
20.6950951 0.691193938 12.1334429 
-8.04959869 -0.299233824 8.23616791 
-2.10857749 -0.331252515 18.6109982 
-10.6484652 -0.283663601 -9.20223999 
13.5485687 -0.07373555 18.5952873 
10.7003565 -0.199897408 4.27880573 
-16.6940269 -0.21530968 14.5817404 
-7.93055773 -0.138537884 4.50961971 
-5.12122059 -0.279786348 15.9423637 
21.865963 0.179638967 -4.27469301 
-1.46362436 -0.356818557 -8.26397991 
22.2109604 -0.732796729 24.4487 
-5.38871765 -0.63928175 9.90769291 
-8.38340187 -0.547525764 -8.87056637 
-1.6642139 -0.355046362 -7.12468719 
1.9827714 0.168448552 -5.10879946 
-2.19253922 -0.253769189 20.4803238 
-20.9745922 -0.432858199 4.08546209 
-19.1439629 0.207265764 -0.456639767 
-8.44737434 0.0432147384 23.6646175 
20.5744858 0.482474864 -8.66001797 
12.4969597 -0.487373859 0.423022568 
-4.37137604 -0.550661802 13.8921022 
-24.9907532 -0.092660971 18.5008144 
1.83653927 -0.18455328 23.5635567 
-16.2983932 0.558761895 0.857583523 
-9.28165627 0.063259609 6.24971247 
-12.3178291 -0.261015773 -11.8947201 
18.4605865 0.43444708 9.87939453 
-21.4712048 0.401618451 -12.6499071 
15.7169504 0.187789395 18.0841351 
1.61468887 -0.119770512 11.2033358 
-13.8294392 0.189879686 10.9236012 
19.9476566 0.500425458 11.0622053 
14.6783943 -0.417648405 0.178115219 
20.7704067 0.127938673 -4.45592928 
18.251482 -0.527557969 -8.37349606 
0.361639112 -0.393482745 23.4425316 
-19.3529854 0.101354145 -2.43985462 
23.9903736 -0.0543396175 -2.53480101 
-8.32976913 -0.173777699 0.0787407756 
-1.7252872 -0.417025179 15.9546289 
-19.1509476 0.187796682 0.219126433 
24.8010063 -0.245737031 -16.8021336 
-13.0325413 0.230313569 -3.95287991 
-16.0607433 0.060568884 -19.3322811 
10.5942554 -0.235592127 -7.22130585 
23.55513 -0.104950786 -2.34986544 
-17.8744717 -0.0489232391 9.26549244 
0.132964984 0.0306297615 1.43943441 
21.927393 -0.126127467 18.2939301 
4.39266205 -0.248745799 17.4959984 
11.845993 -0.474745929 0.764577925 
-11.552145 0.259491146 17.7021732 
9.72363758 -0.3118743 -16.9982471 
10.6731873 -0.396959931 -9.43130398 
4.0047164 0.0440349318 -0.593767881 
14.1434526 -0.00193583081 -23.1446075 
9.33199596 -0.0248898808 -14.4034901 
-24.7794228 -0.625879884 9.17775154 
18.8637543 0.119888954 0.675272465 
-1.61761987 -0.0417956561 5.68107128 
-23.1660099 -0.613150299 5.52538347 
8.59005356 0.159610584 12.810708 
-14.2934942 -0.403200626 -14.5161934 
6.84613943 0.0230914205 -14.1274204 
-2.23961544 -0.409204125 -7.69646168 
12.1894655 -0.243794665 -3.65458107 
-6.23441029 -0.0913729593 14.6952 
6.70392179 0.038370844 23.7939053 
-12.9302082 0.106227435 -1.88837898 
20.797533 0.357516944 2.92669988 
9.10795212 -0.36635372 -20.4454918 
-20.5293407 -0.214655265 14.826025 
19.9867821 0.293503582 7.48784447 
6.64832067 0.536613882 -4.60689497 
23.9296646 0.616908729 -12.6698141 
18.759901 0.556012154 6.98348284 
-12.6233358 0.228255108 12.9993906 
16.4430008 0.105798937 22.8602905 
-0.376333833 0.0937781408 -11.6364136 
-12.5175743 0.0841121972 18.6322899 
-19.2308598 -0.213589936 6.13857937 
-24.2850227 -0.285195649 19.3118038 
-0.201963618 0.0888739377 7.50047588 
-18.7175846 -0.225656644 13.2197227 
8.10218906 0.1696354 -12.0528145 
-20.0449924 0.334002405 20.8729916 
18.1346359 -0.340791345 -6.93396568 
4.13470078 -0.212632999 -19.2843857 
-7.6693716 -0.951698005 -11.4487753 
9.14460754 -0.0174576584 -14.0052757 
-1.23836935 -0.038315665 -11.1180878 
24.7113094 -0.389961451 -17.127882 
-12.63274 0.0301851034 1.0040971 
11.5686455 -0.317445457 4.34041166 
3.20503926 -0.187148497 21.7517586 
18.6845646 -0.403510958 -15.8769855 
-13.8371763 -0.77723062 -19.2326565 
-19.1869659 0.173975319 -10.9779196 
24.8773632 0.145284966 -15.4006805 
3.42028427 0.254549056 3.18273211 
22.3926163 0.0123017542 3.10535121 
13.4272795 -0.384005994 -0.47758168 
8.60473251 0.490137011 -5.91418839 
-20.2542381 0.172271326 -7.6741519 
-14.7961645 0.587683499 -0.0292617418 
22.3822765 0.103245161 9.64214611 
6.329175 0.111511976 17.8070774 
19.484251 0.19190219 8.21605301 
24.7739258 -0.62895292 -21.3264256 
-14.6460028 -0.279642195 -8.41607952 
-4.07267475 -0.205678955 -8.59915447 
-17.9645042 -0.0507821143 9.79233265 
18.4203663 -0.531462848 -9.57487583 
11.4284563 -0.101377353 -23.9710331 
3.81110311 -0.0228073169 10.1344833 
-19.9182281 0.000766672543 -0.532271504 
-11.9394007 0.346106797 14.462966 
-7.79870319 -0.494038582 -16.1650848 
10.5959597 -0.0288984608 -20.688364 
-19.7514133 -0.312726617 4.63712454 
2.75922036 -0.0284777489 6.66909361 
-10.6853733 0.251684904 22.1509876 
5.68930817 -0.0614180826 6.26173449 
1.98958492 0.337660342 14.4870052 
-8.67113495 0.0975217968 -5.64478636 
-23.9909 -0.63083303 6.24445009 
-12.6480465 -0.259218633 -10.8167753 
-14.8643074 -0.305295497 -15.6415272 
-20.6652794 0.369015634 -12.0955315 
-14.4313202 -0.231739774 -10.1119308 
15.3612614 -0.102574356 -13.5965633 
2.53223801 0.0788557753 -5.99120426 
-23.1787033 0.512617707 -14.5589056 
-8.26504517 -0.142484233 2.7590673 
-18.5549889 0.161150232 -13.4248781 
20.8895245 -0.0274815951 17.3128414 
3.53408122 0.0907157958 -24.3464756 
-21.6091118 0.18259266 -5.90469456 
-5.87463856 0.254833937 22.2260418 
9.16629505 0.287851572 -10.4817495 
-18.0920811 0.340907663 -16.9127579 
-8.09175873 -0.226092145 2.38899159 
-24.6158829 -0.266513199 20.3447971 
-8.13889503 -0.689083874 -9.46543121 
0.391465425 0.168866411 0.875244141 
-23.5686359 -0.213733509 20.9136543 
-22.4659328 -0.630738556 6.13965702 
-25.1593723 -0.615836382 6.42230654 
-13.4077625 0.413507789 8.0317955 
23.7868748 -0.344039112 7.44926882 
-10.6660051 0.408129126 13.5189486 
7.066607 0.752335548 -9.25087261 
-9.6440773 -0.738647819 -11.5122128 
13.7608461 0.0369140282 19.4929333 
-9.49598598 -0.0682405531 -5.87002325 
-18.2053719 -0.24444896 14.9756041 
-8.19177341 -0.197094172 1.76415884 
3.81937599 0.390731305 -12.930007 
-8.75164127 0.119062155 23.9534473 
-4.49034643 -0.435077071 11.3706684 
-15.9487391 0.0532515347 9.37699986 
-1.09608901 -0.411870062 20.612318 
7.4261179 0.265615761 18.4103069 
-17.1487026 0.136981457 3.84044695 
-18.0329704 0.118675634 19.8435307 
-21.5680084 0.164194748 -3.63447452 
22.6851158 -0.137752056 19.2738895 
-1.84431624 0.362045586 -15.9785051 
22.9095783 -0.24056153 -16.8600636 
-11.3191452 -0.0615022369 1.7856046 
-4.88424444 -0.173959151 17.2281532 
-9.13996315 0.216348693 -3.88685393 
22.8454571 0.740303516 -10.6324415 
22.0497189 0.158341229 11.42348 
6.43436098 0.684481204 -7.16308975 
-19.6417503 0.50851208 -16.7750721 
3.69313121 0.105729789 -23.5022678 
-15.4007177 -0.163871408 -22.5596466 
-13.5848351 0.324940234 6.19452 
15.7963095 -0.299871206 -22.4484558 
21.2556286 0.31354931 -11.6987991 
7.24756384 0.499884009 -6.01079178 
3.6051712 0.178168818 3.63760757 
-1.1687336 -0.421578974 -1.75365651 
-10.5273314 0.111312166 3.35876584 
10.3381233 -0.189566597 3.47141194 
-22.0887241 -0.227974191 14.0199137 
-11.9119205 0.0661238134 -0.128461495 
10.1378984 0.252304137 7.88901281 
19.5820999 -0.0324738249 -22.7881622 
15.6318016 0.0796969756 15.9595175 
23.3963718 -0.42292577 -17.3985977 
-18.4539738 0.0979197398 19.5046883 
23.8956795 0.29410699 -14.259635 
20.5682774 0.638063133 11.7437296 
-17.7715511 0.555532634 -2.245996 
16.0781822 -0.410252243 -5.28200006 
15.7116165 -0.0246442743 10.0316229 
-14.8540764 0.0723804906 10.0358171 
12.5286083 -0.268413544 -3.63764095 
-16.4852772 0.17855376 20.8477764 
-20.1714134 0.690109134 -19.1549416 
-5.72040367 -0.586471736 -12.5861912 
-10.3746939 -0.61122334 -14.8461628 
1.93120205 0.292710751 -19.878397 
-4.68867159 0.822077155 -22.3631783 
9.18052197 -0.00366527797 4.17460203 
-22.8770142 -0.631674528 7.03379726 
-18.8536987 -0.130825415 4.58802271 
-8.15392113 0.252794087 16.9792995 
12.5818338 0.121601954 7.06380081 
17.4647999 0.0532452725 14.1221371 
-6.35175562 -0.582895875 -14.8072376 
1.27103841 0.101019017 12.5592327 
4.57301569 0.268853098 4.30267 
14.1331015 -0.68517977 -7.44975996 
-10.0950508 -0.00708027696 24.0055599 
-9.78894138 -0.140595585 -7.198699 
-0.797866583 0.290449321 -13.545229 
-16.6102028 0.285358012 -20.0503426 
11.2125111 -0.420761943 -13.6278524 
22.1652069 0.156311437 1.70043755 
22.5014172 0.269865036 15.3334455 
24.4821987 -0.196513757 13.6141739 
-3.18204522 0.188072979 -14.1643305 
-15.7239389 0.527252674 4.93950224 
8.61472034 0.18263267 11.4256334 
-13.81884 0.343065053 5.47081041 
-6.30468464 -0.376695693 0.298473716 
3.2685113 0.116860464 15.7779284 
-11.8967867 0.299450099 12.3620892 
2.85793996 -0.209342629 17.5304852 
23.0455914 -0.111969605 2.90499926 
-20.9117031 0.197946161 19.9093513 
-15.727562 -0.0196121074 -5.65130329 
-13.4257584 -0.467402518 -13.5669222 
23.2489109 -0.825929224 -22.6568184 
-13.1949348 -0.0100176577 0.758104742 
14.9826775 0.00907646585 -14.7735958 
19.488863 0.0251338799 -8.4516716 
-24.7543468 -0.199178129 18.342001 
18.0482769 0.315706789 7.49757481 
-3.42037559 -0.393148422 15.3714981 
4.33360243 0.351120323 -12.8055658 
20.7306805 -0.275220126 -20.6283131 
21.3805752 0.19333148 -12.797308 
-4.82263422 -0.579286635 -0.999202549 
18.5285435 -0.0547068566 -21.0641212 
8.33401299 0.166992322 13.8722334 
8.54894733 0.0455752164 15.4896555 
0.813036919 0.0431116708 13.4261169 
7.97138071 0.387673318 7.93213415 
10.2649021 -0.0257861 -22.6995449 
22.8914604 -0.182168514 4.43424225 
-4.5638814 -0.591774702 0.460760564 
16.6723557 -0.435111105 -6.13436937 
5.781847 0.199803427 8.20221615 
-2.67629361 -0.504743516 -6.95519114 
12.2683783 0.230817452 8.56665134 
14.5512028 -0.536367416 -4.97305202 
2.54973984 0.295029789 -3.58763337 
-3.82021523 0.292252243 23.2317123 
-6.42014456 0.356566042 -21.7435551 
-2.24406195 -0.569442749 13.5340061 
22.9250698 -0.0635643154 5.31335878 
13.0401335 -0.35555169 -2.87433934 
-3.47096777 -0.0541969985 -8.17935276 
-3.35856414 -0.223366946 2.67999983 
20.2449856 0.383254826 5.40985346 
-4.87796926 0.834680736 -22.8013687 
-12.8280716 -0.445988566 -12.9866028 
5.94859266 0.157034367 0.978048682 
23.0494499 0.305764735 14.8001156 
20.2299862 0.262994885 7.74565792 
-21.3587017 0.216142073 -5.00311375 
-11.923564 -0.312403917 -11.6846333 
-20.003231 0.139501408 -9.51621532 
-24.5749321 0.276071101 -6.46446609 
12.1448545 -0.131106287 15.6918344 
-19.9591579 0.192319646 -7.39299011 
-15.9767981 -0.278684527 -11.4668703 
1.29013789 -0.0767941549 4.406178 
-19.0025101 0.140756175 -12.4385271 
-6.73799706 -0.400719732 -2.21656346 
-24.8540936 -0.163085774 21.1261311 
-21.151886 -0.283266544 13.2524385 
-6.77904415 0.272881895 20.7157402 
-15.2497301 0.178353444 17.7880135 
-17.7500286 0.351598084 -18.2975883 
18.3642597 0.225099236 -23.1114941 
13.4913874 -0.247198761 17.3323727 
16.5324287 -0.399344504 -16.9425869 
14.8615322 0.0120668169 6.14886284 
-6.46662283 -0.68518573 -12.6303883 
22.9493141 0.768036187 -9.8137579 
16.7139797 0.0781080201 13.7666693 
-5.96017599 0.395663261 -23.8973255 
-2.42996287 0.486739755 -19.0493355 
-3.35155106 -0.0420822054 7.61672354 
-1.42506123 -0.396198153 -1.57497263 
4.3524909 0.408490807 -5.99622774 
19.4607887 0.313346654 9.61071205 
-17.9917812 0.363871008 -16.2510242 
20.4159069 -0.0896998197 17.6823292 
-5.95818329 -0.0125300661 -17.3827171 
12.2612705 -0.156727046 19.0418873 
-19.727747 0.435774386 -15.0006027 
-18.5522518 -0.0159463752 4.46532393 
-9.15313244 0.0420244373 2.31906319 
23.638401 0.0162683725 -3.50688434 
0.156705484 -0.0650498942 -7.91523886 
-22.3667469 0.499026656 -16.1578579 
21.4220085 0.00639581727 17.0514317 
2.04225135 0.250740647 -2.88808775 
17.3790665 0.0687253773 -24.7597084 
8.36672974 0.59113574 -9.53885746 
-15.5108795 0.189660698 6.75707769 
-14.0776901 0.235931799 10.7423019 
7.74411058 0.518262625 -10.6873808 
14.9027233 -0.13107504 -13.7003384 
-10.7803917 0.496607065 17.735899 
22.4780464 0.175001845 -1.03827596 
20.8616142 -0.146055743 -16.9003315 
-20.8992653 0.0772383064 -3.22262955 
16.9594059 0.195314035 10.6181116 
24.4943047 -0.0327273794 -2.68645 
11.748661 -0.421052963 -7.03651953 
21.5483341 0.258033872 -12.9342356 
-24.7450314 0.317691416 -6.47248173 
1.28208709 0.0866277143 -8.14871216 
-11.0029497 0.488675356 14.1842699 
-7.03923512 0.0180392154 15.6166201 
25.1122665 0.282462031 -15.1681776 
-4.25660992 -0.292212814 -6.7500267 
-19.6855659 0.103398092 -1.71938443 
-6.92510319 0.00551277958 14.5122919 
-2.85297632 -0.477321982 17.4737492 
-5.3462019 -0.21730864 5.21751165 
-18.4899693 0.339524955 -23.4974442 
15.5869913 -0.346555054 -4.61768484 
3.54310203 -0.0895693377 6.04364014 
3.52242875 0.234058484 -6.26746511 
6.44073439 -0.0149556156 22.4351768 
-1.34085965 -0.46455273 -3.30894303 
-24.6991825 -0.389962763 13.4111891 
-23.6996689 -0.399327546 2.96432829 
1.53193223 0.233649805 -20.7669983 
-10.120718 0.261009842 11.0960369 
-4.09754848 -0.32018882 -6.47283077 
-14.489665 0.485147834 -2.10372019 
-6.47270536 -0.418853074 -1.77579808 
5.31693411 0.516145349 -9.01789761 
0.480015993 -0.141671836 13.5698929 
-18.6451969 0.179027483 1.99092972 
-18.6420269 0.491036087 -19.3502045 
-17.8813057 -0.124744244 18.2177792 
7.84257984 0.379446477 -2.92749476 
8.066926 0.316244334 5.48986435 
7.5760932 0.353593946 -6.7079711 
-10.6758366 0.165821522 -7.10967636 
-2.45939875 -0.615553558 13.3665428 
-3.47982979 0.831874788 -20.5439301 
-13.0420609 -0.373634219 -10.3933077 
23.95924 0.873545885 -9.0716114 
4.08061361 0.0114415335 -2.40786815 
1.73184562 0.2273276 -21.8765488 
12.8326445 -0.161190242 17.5704308 
-13.0221319 0.0253703631 17.6775246 
-6.429111 -0.0201675463 13.9030476 
23.1839199 -0.0935853124 12.5004482 
-7.273283 -0.380000025 7.92885923 
22.7441483 0.14272961 8.28868771 
-18.7124424 0.184055001 -6.64697313 
2.40971804 0.507473528 -11.3746605 
-14.1280794 -0.23455748 -10.5117865 
-6.77193451 -0.237643898 3.68035412 
-3.66268277 -0.322372466 9.80400467 
-15.9290476 0.0644390509 18.1178417 
4.82929468 -0.0402211286 15.8983021 
-15.9593334 -0.00031411089 21.994257 
-10.6905832 0.410699874 20.9568024 
4.39518881 0.469209582 12.0215893 
5.7092247 -0.0352763124 17.3004761 
20.8360176 -0.425994188 -21.7478142 
-15.7070742 -0.312751383 -7.35872889 
19.4109879 -0.142630205 18.0870857 
10.648139 0.135904938 18.2049313 
6.54850006 0.195784226 -0.945553422 
-16.4084187 0.0783554465 22.9556694 
-12.6421213 -0.22595951 -7.94051266 
4.57930183 -0.0510681197 21.9638844 
2.67405629 0.472572923 -14.0300226 
19.7473049 -0.0231096447 -21.5935841 
-13.9573336 0.441367418 -1.47279 
10.1909666 -0.0973698571 -8.71688271 
1.06589222 -0.284864306 6.30002308 
2.13808131 0.240654096 -23.129528 
23.2891369 0.0433810651 -15.3282204 
-10.250083 0.607882619 16.75984 
-4.3848114 -0.289674938 -10.6094351 
7.68243456 0.432857394 8.71672249 
17.0928345 -0.372000098 -5.30165529 
20.4755268 -0.0821974128 19.0968685 
-24.5281677 -0.349883646 13.6796398 
-8.62991524 -0.214984551 -6.74734926 
-4.82284784 0.808006585 -22.6795826 
22.1452999 0.115068913 11.0940704 
1.05018413 0.310726345 -21.3652363 
13.0937986 -0.32540983 15.203681 
-4.22872782 -0.516691923 0.28954047 
24.062849 -0.503556788 8.90022469 
18.0343151 0.387465417 4.48842955 
10.4238997 0.00471094437 -21.9978771 
-15.3204479 -0.0978069454 20.0686035 
-17.460165 0.084629342 8.85031414 
13.7456923 -0.556653261 -12.218853 
-14.8587112 0.118241265 8.4057169 
8.19454861 0.644047856 -10.0014877 
-18.1869717 0.545203805 1.12785804 
17.9135799 0.255883157 10.9754887 
20.8717117 -0.33585158 -18.9712925 
16.2143784 -0.325281709 -20.3400421 
11.6961861 -0.598336101 -8.17788601 
15.2091932 0.276934415 -17.1760025 
-8.99380779 -0.696763754 -9.45469666 
23.0203876 0.100569032 -4.27069187 
-3.79904437 0.742333174 -19.5659084 
8.61635017 0.266813427 -11.6027107 
11.3481569 -0.0467459671 15.7715054 
-21.7499886 -0.0277001057 -8.55682182 
9.6909132 0.137489647 -7.27211237 
13.8946972 -0.210936606 16.3855553 
-3.56610203 -0.0909105316 -8.63456726 
5.88617802 -0.239715606 -22.389883 
20.0778542 0.247957319 0.923651934 
12.7394695 -0.628055811 -7.63775635 
0.845348954 -0.194597319 8.53351688 
11.8421583 -0.325146437 -4.91816998 
-14.856102 0.0594750158 9.09184837 
-20.8873997 0.376920968 21.8011913 
6.62652493 0.0511660688 20.4779186 
17.6497345 -0.0187295415 -1.15433264 
-9.68928337 0.089327544 3.13750529 
7.07649565 0.256724656 11.6106987 
9.23485279 -0.164142191 23.1437492 
-5.30987883 -0.401211619 6.30900335 
4.35722065 -0.179127559 -19.4656467 
-6.48077297 -0.447054625 -2.3082335 
-6.29587269 0.18534185 -18.6684856 
-21.2048683 0.36267373 21.3074856 
-22.4324265 0.523435712 -14.9694633 
-15.3242474 -0.17281276 -11.5096674 
2.52775908 -0.0938088745 6.73742199 
-9.07096195 -0.287231117 -19.8065052 
-7.68537998 0.11457248 -21.7895279 
20.9381523 0.153099045 -13.3604803 
-8.04085255 -0.280276954 -7.47991753 
22.7923203 -0.0826846585 5.77014256 
-11.1946011 0.376968682 15.3119392 
3.70861459 0.00716215139 -1.55376124 
16.9746513 -0.49320963 -19.9854164 
23.4715481 -0.111010753 2.14211988 
16.650526 0.204996675 8.00856876 
-18.944313 -0.138012841 5.67865324 
22.2767296 0.0984004363 10.7647905 
-17.929472 -0.129507869 -12.7275057 
-12.4854174 0.238454208 13.1155233 
-10.6958218 0.20119144 -6.97196865 
18.1207466 0.424109042 3.12606382 
-8.32625675 -0.0775790811 -2.32523298 
-22.8324718 -0.433183253 12.5753651 
-8.58745956 0.354611814 20.2024002 
-6.39337158 0.168910488 19.4551754 
5.15129709 0.31065926 0.477447927 
1.45886922 0.00745074404 -3.72821951 
8.94064808 0.216840506 9.57384872 
18.3239098 0.219638631 -23.2604008 
-8.62768269 -0.0429382473 -2.56586885 
-19.5722656 0.143491969 -0.381954819 
8.28236294 0.311617613 5.89327097 
14.6300488 0.172719672 -17.9714642 
-1.5458554 -0.16401498 19.6546364 
-9.02431965 -0.0745747089 0.704498351 
5.42751408 0.174463823 -1.04898643 
-13.673584 0.220637888 13.6009426 
23.4838066 0.103741586 -4.45056248 
-22.3527737 -0.0350041799 18.3230629 
12.6457272 -0.661301196 -8.27923775 
-13.500186 -0.440937996 -13.4482183 
-6.68706703 -0.132278875 -16.9024467 
18.3326035 0.0358326733 -21.8191261 
-16.8250809 0.363130003 -18.4629364 
6.63785362 0.507867694 -4.00339031 
-5.56298208 -0.501244068 -0.0513709635 
-10.8042736 0.146026269 9.67534447 
-18.4716778 0.39144212 -16.5889854 
24.1329956 -0.492770791 8.09647751 
19.1221237 0.0606256202 -20.3748512 
-20.1406116 0.196429908 -7.7664547 
-19.2520294 0.463831216 -24.5835648 
-19.6233215 -0.465602845 8.8640461 
13.8253088 -0.561994851 -8.15747738 
2.60958409 0.240707144 -5.44982958 
4.47262335 0.562889278 -7.08892155 
-6.42714882 -0.0533265434 13.7624168 
-8.27937984 -0.558074772 -16.1593208 
0.40712133 -0.393930316 17.8201351 
16.6892548 -0.879391909 -7.87864208 
24.0913486 0.027936643 -15.7866964 
12.6243315 -0.505957961 -6.18532991 
2.04077816 -0.154488727 10.932662 
2.70702362 -0.18893151 21.2571735 
-18.3188496 -0.0461985357 -11.8478231 
12.491456 -0.468234122 -4.82563782 
8.4257555 0.15738444 -12.5693684 
10.9790611 -0.0967725888 -19.1258469 
-24.1768589 0.0535354167 -3.02210712 
-0.636963308 0.449966639 -14.7987928 
-1.91504312 0.0892672762 10.0720634 
20.2549076 -0.0484103747 -20.4136982 
22.2540455 0.147032842 8.99416733 
-21.0363407 -0.47390452 9.82893944 
3.35149407 0.21033375 -8.224473 
11.4563551 -0.352951258 -14.7214298 
5.68889141 -0.211552158 -18.6654892 
-24.8654137 -0.195905283 0.767971516 
4.66977262 0.267084032 0.875104547 
-16.4550724 -0.145309359 -5.94418907 
20.5291405 -0.090745531 -14.6943865 
-24.5632057 0.0488980748 15.2487707 
1.83255863 0.128586486 0.26255706 
5.70750761 -0.0405220687 16.7956848 
11.6320477 -0.0319136977 -24.7982578 
24.3669376 -0.65399462 -18.6132584 
4.96861124 -0.0551301576 7.72460413 
24.1340942 0.53717351 -7.5192194 
16.9332962 -0.867461085 -8.1412344 
18.4302788 -0.0631613582 19.1690578 
-4.21752596 -0.32981354 -12.0142822 
-6.35824394 0.0853939727 20.4228783 
-12.8810873 -0.971596599 -16.8024902 
8.74383736 0.453186661 -7.8945632 
5.29494095 0.35418728 2.46442914 
-13.1341534 -0.0359880738 18.6246281 
16.6886635 0.166096076 10.0536385 
15.5413733 0.118626729 6.78261995 
-5.808496 -0.615541875 -9.6376915 
-12.2645254 0.10029912 0.00941831805 
-10.4423018 -0.113230504 0.997602463 
-16.2791195 -0.297463238 -12.7127285 
-22.9831753 -0.115094572 18.1304283 
16.2137909 -0.0645213425 10.2710514 
13.1162386 0.260804355 24.822052 
-13.8226557 0.0101657938 -6.42098331 
13.1225815 -0.0931967497 -18.4997749 
0.463868737 0.233418673 -10.5350113 
15.2942772 -0.0396230146 10.4856377 
-20.304781 -0.29103142 1.85699964 
8.21111774 0.146720842 16.613224 
22.0388508 -0.0569035038 5.2524724 
14.0381899 -0.613087416 -7.98511219 
6.25272942 0.151520386 13.5759115 
16.1788292 -0.450274497 -4.94931173 
-21.5646191 0.118226551 19.6158142 
-10.6753073 0.0435000136 3.3889575 
-23.3339596 -0.221278742 -20.7616844 
0.674452186 -0.201629341 16.2014771 
13.2816725 0.333112776 24.1610298 
18.9243832 0.0358691588 -22.4626369 
-0.0475800633 -0.247207403 -4.35878754 
0.825588167 -0.506793618 20.9309635 
6.07396412 0.251997888 -1.34826338 
-14.6882935 -0.473841071 -23.5991611 
6.98043299 0.357198179 8.4228096 
-0.480443358 -0.502998412 19.5940723 
-8.26619244 -0.0940302759 -23.4569035 
7.91437531 0.2081099 17.6720238 
4.2334547 -0.00252434332 15.5924654 
17.1756973 -0.190156072 -1.42911541 
-1.65313506 -0.375656158 0.156313479 
-11.1810055 -0.102815107 3.6487813 
4.08845091 0.573291421 -11.9957066 
-8.11991215 -0.0803420097 -5.50580454 
-16.3077354 -0.512138665 -9.46397209 
6.7234993 0.538003087 -4.85430098 
-8.36543179 -0.267039329 5.48319674 
-23.1553268 -0.177061856 24.1511898 
-8.97154808 -0.27725023 -18.4851952 
-0.906572282 -0.243647933 13.2724085 
-13.4349413 -0.712724507 -16.0591297 
7.56693125 0.52506417 -4.64810944 
2.47489738 -0.0126086548 16.4161644 
-1.18603694 -0.433088392 20.7463703 
11.1073017 0.145591974 6.41448116 
-10.6149788 -0.140311569 -8.17384911 
6.83146811 -0.0112396562 21.3277493 
1.00602794 0.44485116 -18.8443298 
9.65149212 -0.170948744 -21.1845684 
-0.497430086 0.548307657 -19.4707928 
20.0367622 0.408297807 5.06464434 
6.04144478 -0.128066182 23.5374794 
15.6250019 -0.464348167 -11.8845711 
0.104225919 -0.0497807488 -6.82216501 
21.0972805 -0.196168363 19.1758938 
-10.9448547 0.2359837 10.7467756 
5.74441147 -0.0308987461 16.6038246 
-20.3512077 -0.110421918 18.0303211 
21.5425892 0.383557558 14.1950941 
-19.6882534 0.239266127 -8.88101482 
-5.87305927 0.373590887 23.5236092 
-15.8686237 -0.270268023 -11.0701466 
-3.36222339 0.828534663 -20.501503 
13.4708109 -0.695783377 -10.6398582 
-20.4703217 0.0793548077 19.0001583 
19.7458286 -0.202266991 23.9075642 
9.34681034 0.018486565 12.6885242 
10.2734308 -0.246880129 -6.62781477 
-7.17614508 0.13459833 -23.0306759 
12.9593792 -0.260306686 17.1740589 
-4.77454376 -0.326631904 3.05814242 
8.01051426 0.320510566 -4.11840868 
-20.3834343 -0.165221512 11.9346428 
-1.52906835 -0.0244705025 5.53057671 
-17.9029541 0.297007591 24.9826736 
4.5706749 0.584086537 -9.27411652 
-23.7170143 -0.113347068 -17.3931866 
11.8677216 -0.0619331598 15.4930563 
12.6793728 -0.343789786 -2.93988132 
-18.2675076 0.253526807 21.352457 
-8.44260979 -0.11241027 -2.10218453 
-7.71784973 0.0190739352 15.5962343 
-17.9788609 0.690674722 -1.21874774 
-23.7832336 -0.486898065 4.87640572 
8.91709995 -0.348861963 -22.9245472 
21.5600109 0.0194004569 17.568819 
4.64572382 0.382024586 -12.3088112 
-18.7782497 0.514059246 -17.9896927 
-21.658102 -0.333130389 1.73547256 
17.315033 0.26207155 11.1314802 
-19.1935425 -0.244449019 9.99362469 
-19.1123352 0.707870722 -18.6541882 
10.1834145 -0.265061557 -5.53804207 
13.222415 -0.726673901 -10.5592632 
-19.8138084 -0.0838838145 13.4230032 
-4.91802168 -0.508374751 7.68192005 
-17.4561863 0.231785178 -3.69670653 
-17.1082649 0.803697288 -1.33953559 
-0.389847159 -0.390622169 18.379734 
-18.5211067 -0.251282156 16.1263199 
4.77129889 0.285106003 3.59345078 
16.7746773 -0.400010437 -15.0376797 
-12.711236 0.283960283 14.0902033 
-3.61856413 -0.113987193 7.08557415 
-10.4729795 0.317760855 11.7775679 
8.28740406 0.240967467 5.35334158 
14.7079124 -0.816575825 -8.5410099 
-17.4657726 0.248495311 3.15755177 
7.84094048 0.366518825 -4.32393551 
-3.07842898 -0.176647827 4.01523066 
-22.9103947 -0.490113437 10.7881632 
8.21166992 0.153407693 0.244644567 
-11.9887247 0.188284293 11.1018276 
-7.37978411 0.0235069208 14.9059105 
17.5351219 -0.393413812 -14.8447618 
-13.0273056 0.0603694692 0.0688097924 
-15.5471754 -0.142088369 -16.7675858 
-21.8534851 0.680119693 -17.0964298 
7.91672659 0.614877343 -9.43384743 
-19.3402634 0.399249673 -14.6389561 
13.2375822 0.272781581 8.10715961 
8.45502663 0.203695953 19.684124 
20.2063904 0.308295071 3.87463784 
-14.3354244 0.276348978 0.271794945 
17.0305824 -0.537418008 -11.5638313 
12.1412201 -0.0784818307 16.6253052 
-13.7026224 0.225378618 16.1165905 
-14.3691969 0.28631869 0.511736095 
-7.28814316 -0.0651687384 23.818182 
-9.94009686 -0.149583966 0.252201647 
18.383997 0.284520954 0.858386517 
7.18089724 -0.191159651 -17.2612915 
5.9680047 0.40187794 9.74512196 
22.2925205 0.0808587372 10.9160433 
-7.09962416 -0.373920172 7.16235876 
9.71313381 -0.336401522 -16.5400639 
-1.70132685 0.0587181523 23.8286514 
9.19776917 0.068244189 18.0854053 
10.1180563 -0.246727392 -18.0263462 
4.42885542 0.506349385 -6.59975052 
-13.9637518 0.304301977 5.35507488 
24.4915447 0.179247528 17.391016 
4.73966885 0.0456836484 -2.09798479 
2.82888412 0.00392411184 6.42931938 
-8.07163811 -0.170856923 11.884223 
21.0384159 0.648634374 13.1131916 
14.6223164 0.138749793 -15.7931414 
-18.0195351 0.790632844 0.0671850443 
-9.28679466 -0.0289610345 10.6301985 
-20.6358757 -0.561791182 9.05973816 
10.850791 -0.426571161 1.1463865 
-1.8290571 -0.419844747 12.7801208 
-10.6116161 -0.547411084 -12.013545 
-24.2191677 0.646350265 -8.75347519 
1.07858336 -0.361985594 7.20745134 
-13.8869457 0.235988125 3.56043911 
9.56875324 0.292607576 8.97297573 
21.5699673 -0.139143214 18.7000313 
2.90595508 0.0297429804 -21.6883297 
-18.0353279 0.0822849423 3.6498847 
6.00262022 0.546429694 -4.72932005 
-2.57570696 -0.577218831 -5.53050756 
22.0352459 -0.555609226 -19.4613609 
-15.6142044 -0.0536835603 17.4011154 
-1.43495476 -0.474651635 -3.92295027 
-8.4216156 -0.170660555 -6.61666822 
20.992033 -0.033723902 -3.77173281 
-5.00005102 0.324828327 -18.3867893 
-4.05729961 -0.407489181 9.59768391 
5.13549042 -0.00229641469 15.1677666 
-15.4352531 0.25703311 -3.7216258 
-13.5996075 -0.383264303 22.9351959 
5.37613201 0.265672207 -2.28662848 
-9.86032009 0.0678390563 23.5750751 
-3.04370022 -0.505791545 -2.53618622 
20.8599148 -0.0223053247 -15.4535694 
-2.80499601 -0.0284606945 -11.9445095 
-9.68776512 -0.381952286 -8.27722263 
9.01568127 0.00334504107 13.7125978 
-17.3430653 0.0606926829 5.66184044 
6.47515631 0.247920588 8.02538204 
-11.4822769 -0.0753491297 1.47587311 
17.2017345 0.386431545 10.6324329 
-8.91138363 -0.66689992 -13.0961657 
2.92991018 -0.0073415637 16.3561306 
-10.0307932 0.0977677926 -3.17231178 
-2.11359954 0.0379346125 -12.2785988 
0.364820063 -0.139596477 15.5210819 
16.0260792 -0.113356858 -23.8237934 
21.6140614 0.438962758 10.2045326 
-5.13826036 0.144409046 21.9751759 
18.6991978 0.383725762 4.88432741 
21.7626495 0.31773293 -14.3218336 
2.29378867 0.283285052 -2.77472448 
2.18656969 0.115665086 4.40671492 
-16.8666229 0.133822918 10.0305071 
24.1886921 0.235307842 17.1411324 
-9.35167885 0.501578212 18.7225342 
20.8748665 0.159881249 7.43579578 
-3.63118696 -0.47734195 13.4241457 
7.17014313 0.411463886 9.04408836 
-22.5458088 -0.221548036 0.843983114 
4.53974295 0.274628401 -5.00408173 
4.68724394 0.318905115 -5.03755331 
16.8679333 0.228782579 7.96679497 
-16.890316 0.532810092 -2.36582994 
-4.02862501 -0.208561316 4.49125099 
-4.09291983 -0.430276215 17.0738811 
-12.8460922 0.0330235437 0.295212448 
-0.344103247 0.287007153 -12.5276175 
9.63469219 -0.0536369756 18.5805016 
4.10096788 0.106224887 -3.52551675 
-2.328125 0.277402252 -15.3323689 
20.2174129 -0.0606117062 -16.0219383 
-16.733984 0.164487779 8.74319172 
23.8514881 -0.530910134 -17.9178905 
23.7073803 0.509467781 -13.1016016 
-4.50736904 -0.53832078 0.624750555 
-16.8919029 -0.16280809 -14.1244497 
-11.7895279 0.253928393 20.7360249 
8.27046776 -0.167400688 -18.9214821 
6.20188475 0.108499914 4.77988052 
-19.8792839 -0.0579154715 -3.36300635 
11.0867968 -0.58532542 -10.9770613 
-2.91837597 -0.372039318 -0.147473514 
-16.3626995 0.274059296 -18.104414 
-8.18308067 -0.236506864 -7.27636099 
0.254804224 -0.310397774 -4.85319519 
-0.0723195076 0.0791411698 -22.8487816 
9.57886219 0.0014708438 0.577293575 
-2.1658988 -0.263779849 21.3126888 
1.91237307 0.433686703 -18.9967289 
11.4497585 -0.15858148 -18.8554344 
-15.3583021 0.689988613 0.209290475 
-2.40535259 -0.076469399 3.91200399 
-23.2086468 0.542250693 -11.8345737 
21.0739441 0.175230622 -13.2344522 
-9.53602791 0.0805449933 2.54094505 
-16.7642937 0.157100379 19.9265308 
-15.0919151 0.0784494355 8.39366627 
2.92287588 0.183279201 -16.1348839 
4.89783525 0.259662777 1.07576275 
20.3558178 -0.411369264 -23.3926105 
20.0700321 -0.119149916 -13.5686684 
-10.1938763 -0.23753266 -7.8150568 
20.2318974 -0.0484905988 -16.1491241 
-24.8794861 0.666917384 -8.27332973 
-22.9326115 -0.411995262 3.82704329 
4.42053032 0.0268467609 -21.6798 
21.9302254 -0.760882258 -23.0690079 
11.3702135 -0.0442245752 11.6674709 
2.92951369 0.192755282 4.23391485 
-16.2707329 0.0340148062 24.2888927 
-7.55588341 -0.505672038 -14.8221416 
23.8559513 -0.467587769 -17.5302982 
0.733696997 0.483451694 -16.702816 
14.1816072 0.0447546095 -18.8382988 
-4.44187546 -0.327143252 2.30192947 
8.18952084 0.379723221 -1.26346517 
-17.8083935 0.16625993 3.52050042 
-23.532835 -0.599873483 5.45934534 
-13.6694632 -0.589691043 -23.898037 
9.95672321 -0.291366518 -17.2899303 
17.4348469 -0.501232386 -13.3802223 
24.54953 -0.0762741044 -2.50097656 
-16.3564854 -0.202849969 -6.9111166 
-18.2461109 0.307857096 -18.431057 
0.794833481 0.397113144 -18.4442291 
5.23026943 0.575595856 -6.18929052 
24.3338566 -0.364653736 -0.212143987 
8.1894722 0.362930477 -8.04953861 
-14.958312 -0.292348981 -12.066186 
10.2520189 -0.046481926 4.83704376 
6.95312214 0.14965342 15.632144 
-24.3352089 0.169801861 -5.639575 
8.68426132 0.353953809 8.84209919 
-6.61262035 -0.537326574 10.8157597 
22.7569218 0.515079141 -8.31916142 
-12.1479311 0.00823545177 -6.23718834 
-12.0066385 -0.347528309 -12.5719109 
10.9161682 0.0577138588 17.3393288 
-7.50386953 -0.299234867 8.72228813 
13.6160812 -0.282419682 -15.2004204 
-23.0492458 0.351872116 -9.1345377 
6.0300045 0.476525426 9.25856876 
20.9385586 -0.286376268 -20.3810673 
9.96059227 -0.0109193791 -0.658508241 
-23.8558273 -0.291007847 18.46842 
3.16130447 -0.0438396186 -19.1301479 
-0.817873776 -0.355670422 -3.84594178 
-24.0290241 0.585798681 -9.23487663 
-5.5116086 -0.458751529 13.7280903 
-12.1687622 0.21478878 10.2878876 
24.9064674 -0.0950729772 -16.4004555 
-16.7809315 0.441864312 2.49489713 
-8.26110935 -0.245104879 -6.89611673 
12.79214 0.185224399 24.3436832 
-19.911129 -0.500516832 8.97199154 
-14.4987259 -0.575892985 -22.7291508 
2.28507328 -0.272544354 20.6749306 
23.8077316 0.827758789 -9.14220238 
4.69865513 0.611145437 -8.56633663 
4.91443777 0.550882459 -9.14239883 
-22.0007534 0.401185334 -12.0780516 
-4.03494453 -0.316395432 11.66607 
5.3506422 -0.231171072 -22.9099541 
3.22285676 -0.184431463 18.8470459 
21.3817749 0.512637913 12.3057632 
15.4560347 0.00585098518 15.0627775 
-16.1404495 -0.0621836595 17.2996006 
-22.9166241 -0.360426754 0.847390532 
2.00918603 0.145547703 -21.2489147 
-17.4918251 -0.4350245 12.3375216 
-6.22905111 0.116812453 -24.7826366 
17.9912109 -0.301756501 -4.74957943 
-1.5060221 -0.274592996 -6.2411561 
-12.8755817 0.28424859 6.59040308 
22.2605591 0.249447182 -4.95756674 
6.93769312 0.0752544627 3.66132879 
7.38815022 0.268414885 -1.0345633 
11.5174236 -0.0963818282 -16.3285789 
11.0368567 0.0703384429 10.3905897 
0.308681607 -0.24274759 24.744236 
-13.9779329 -0.201506451 -10.4779167 
-17.7526093 0.0428629369 20.2480907 
25.0935974 -0.56927985 -22.5536594 
20.1131973 0.422997832 10.7954292 
7.33341885 0.459725857 -6.06088638 
-6.84134626 -0.403969646 7.73955584 
21.5754604 0.374700487 1.68702531 
7.3968215 0.728045762 -9.14245605 
13.2451973 -0.121024124 -18.7060108 
23.9045048 -0.786552191 -20.6736755 
-4.29218864 0.698868275 24.900362 
-12.3920145 -0.0387511961 4.02696609 
-14.5993137 0.496477962 -1.32356846 
15.7218952 0.0911574662 5.45003414 
22.9481621 0.544593573 -12.7529621 
20.5290108 -0.417004406 -24.68717 
1.81107044 0.0831344649 -6.87087297 
-17.3471317 -0.263579696 -11.1974335 
-10.2176924 0.036593508 -4.99474525 
-19.9808655 0.0460444838 -1.56603611 
-24.5180893 0.0770006776 15.355195 
-19.6893272 -0.113346584 11.4053278 
-3.11634159 -0.113197714 -8.22628021 
-5.39825916 -0.15835923 -16.2523956 
15.1539106 -0.104186326 10.2110243 
-16.9359531 0.496231884 0.991512537 
6.07947874 -0.000326541951 19.6244316 
2.59228468 0.0367507637 15.9526358 
17.8358212 0.0877260268 17.9597759 
15.9111586 0.0597964674 7.72126293 
-5.31774569 -0.465512127 -6.34090424 
-8.30914021 -0.0139608718 -21.7786236 
9.58056355 0.203007296 -7.35961151 
-6.31765079 -0.680145025 -11.135849 
-6.10642529 -0.403505534 0.579937756 
22.9881134 -0.109042183 10.41366 
10.6229715 0.107612826 15.2665358 
-7.80435133 0.158451512 19.7961578 
2.56244969 -0.313032478 9.99574757 
-18.9199219 0.361363173 23.8132057 
0.0494545698 0.143328696 -11.3728895 
4.75889778 0.25540638 0.635852814 
-22.0275574 0.293984234 -19.128849 
-0.680485427 -0.455538541 20.1057453 
-6.33716297 -0.194433287 -16.3767776 
9.77943802 0.12090601 11.2886209 
-0.901057124 -0.181386635 11.1460867 
23.0328026 -0.0312649943 2.19381642 
13.4182978 0.230052218 7.0006237 
12.1162043 -0.0867264867 19.5438824 
-20.270916 -0.252159864 11.1474581 
23.2506428 -0.191200659 4.72033072 
-16.0079803 0.515357375 4.31656981 
19.0660439 0.250004143 10.9522581 
-7.83372021 -0.333966792 7.73433542 
9.647686 -0.0245290175 18.863306 
13.8115101 -0.583250582 -5.12456894 
6.52596331 0.103778064 18.0418129 
5.25488329 0.0286966115 20.2524796 
-1.02243197 -0.440514177 -4.12424231 
-1.94650078 -0.320872277 -1.03275681 
-8.50052452 -0.0143925129 -21.4109535 
0.320637047 0.0756129324 -0.387187362 
17.570734 -0.76401031 -8.50666809 
-12.6620731 0.284667164 14.3738194 
-1.19446719 -0.376247227 0.106047072 
