ply
format ascii 1.0
comment created by gply, a Houdini tool.
comment converted from .[b]geo
comment for more information about Houdini, try:
comment www.sidefx.com
element vertex 1273
property float x
property float y
property float z
element face 0
property list uchar int vertex_indices
end_header
18.8056278 0.0564148426 -0.298818231 
-5.11956692 0.736154497 25.1510353 
6.30226374 0.382257164 -12.0634928 
-21.8795662 0.145805255 -10.4108276 
9.18958855 0.0940622687 -12.5329008 
13.8094883 0.165900737 20.0410557 
21.9040737 0.510368109 12.7412348 
1.35937274 0.233466625 -9.56915951 
-2.68357396 0.0175822265 7.21144962 
-14.6410275 -0.332416743 -7.9876461 
17.4032021 0.355070114 4.77059412 
1.75070977 -0.106519386 10.2632475 
-23.2330303 0.483846813 -6.23197126 
18.6139297 0.0859339461 -24.6312199 
21.8536224 0.330515862 -13.3390923 
-11.0040092 0.125630185 -5.3047595 
-5.54586554 -0.517895222 -14.5222654 
7.18172455 0.763748944 -9.78189754 
-20.1823158 0.596258879 -17.6558075 
4.78326368 0.559655249 -9.10302258 
8.15306473 0.0813373849 15.9456711 
19.221159 -0.355515212 -12.818779 
2.15079904 -0.290803701 6.87129879 
9.21711826 -0.184009165 -19.7328777 
10.1527328 0.12570174 15.2764301 
1.53966272 -0.0814152882 10.0112619 
-19.522438 0.402256757 -14.2699223 
7.96229982 -0.0866238251 -17.0540428 
-7.94701672 -0.207472727 10.5459633 
-7.81264877 0.159556702 17.5682259 
-6.22672796 0.186398298 19.4325657 
-3.70346713 -0.70793432 -4.34561205 
-12.8317995 -0.0307311472 -5.1751256 
13.6642094 -0.579765797 -12.0397959 
18.7127666 0.0765021667 17.3979664 
-18.1186523 0.411755502 23.5166512 
-17.950243 0.692526817 0.670441449 
22.570713 0.106217086 12.4994354 
-11.6391544 0.078529045 -2.8484447 
-14.3432035 -0.266379744 -10.7158604 
11.5557079 -0.0323020518 18.8432541 
-19.8683815 0.184062064 -8.23883724 
3.19673109 0.419509023 -13.6580648 
6.3953824 0.409659714 9.0963707 
3.60909462 -0.163418278 -18.9929638 
-11.0925436 0.472417235 14.0680904 
18.1322536 0.156179667 -22.4840832 
-16.5983887 -0.361312568 11.6839943 
20.7464256 -0.132018551 -16.7788639 
5.29168463 0.078512162 -13.3787069 
15.4494638 -0.799588263 -10.2756529 
3.79571462 0.110664546 4.88427544 
11.6937885 -0.697352946 -10.7944298 
-11.9952202 -0.115998514 -7.28629589 
9.77761364 0.273941696 8.48702049 
16.566597 -0.380140066 -17.8816147 
22.3949203 0.0830887854 2.84515142 
-12.2042913 0.109946303 -3.83243036 
6.54343796 0.500296295 -3.24810219 
10.8489618 0.316065282 8.46899033 
-8.70816231 0.321251094 19.1775761 
23.260994 -0.0615178496 12.7925558 
19.9589767 -0.178435683 -15.7214451 
-6.22253799 -0.488811702 -5.0308733 
23.1657429 -0.114098251 8.20820999 
13.1277151 -0.412358403 1.4572469 
5.71648455 0.0655928925 7.22606945 
-22.2251759 0.263703138 -6.14051437 
8.94231701 -0.0483051017 3.41241336 
7.21544743 0.130193934 -13.5047131 
18.6490993 0.47695756 3.52725887 
1.83006299 -0.31557852 9.1077795 
23.2012558 0.516028345 -12.9095879 
-20.000515 -0.314071089 16.5885277 
12.8773823 0.00376245193 6.16930914 
-13.4750891 -0.233947515 -7.71040916 
-15.0825453 0.155954942 18.0553284 
-13.5999784 -0.19713527 -7.49440718 
24.2429333 0.846655905 -9.92016792 
-22.2836514 -0.237003252 0.959220827 
-8.95784092 -0.819655061 -9.75806332 
9.34885883 -0.1992798 23.5242081 
-10.6324768 0.0400463492 -3.82706332 
3.82463455 0.139029503 4.61580849 
-10.0849171 0.0778274387 -6.67468929 
-24.5344849 0.868042767 -12.1261749 
-10.6607571 -0.591993392 -12.7148266 
21.2469559 0.275682747 3.79250717 
18.8410416 0.108575121 0.289455175 
22.0847225 0.0147922914 4.99971056 
16.4222088 0.215749964 6.06387186 
-7.42365932 0.17334938 17.6194038 
-18.1623192 -0.0893876925 6.21523666 
-24.3065643 -0.22061944 22.3394279 
2.68638134 0.255457044 -15.5260382 
-22.1690483 0.263155103 -10.6599627 
-15.0218391 -0.264115512 -6.93500233 
-16.6460781 -0.283009291 13.7901201 
-5.79156685 -0.434631824 -0.296497166 
22.9512653 0.0260875374 1.96517849 
-7.46200371 -0.16713734 13.0387926 
6.47724199 0.322723448 11.1250725 
-19.3661346 0.112501144 -3.80506659 
-1.03696227 -0.0373205431 4.79881001 
-13.5544996 0.37088418 -3.54359031 
-23.8767719 0.0608577766 -3.37536383 
20.441349 0.48186928 12.6952276 
-9.97775745 0.646559238 15.8503351 
8.56131458 0.381678104 -5.26288366 
-23.149601 0.453741819 -6.14209557 
18.4605656 -0.462718904 -13.3573427 
16.4061565 -0.02107713 12.1652222 
-14.0525341 -0.674075186 -19.0921574 
7.6893239 0.0394940153 17.2100811 
9.03591728 0.164248779 5.62912512 
2.13261485 0.317952454 14.4659939 
13.0523062 -0.648007154 -12.6679974 
5.63699865 0.212253943 3.97642016 
17.8793812 -0.338356972 -4.46147156 
-2.42297387 0.28373915 -14.9663935 
-5.42238235 0.685933888 -23.4611855 
19.1339855 -0.291434854 -16.481142 
-9.50174046 -0.178925753 -6.7556777 
-12.8340235 -0.418620795 -24.8049355 
19.9193172 0.310477823 13.3785648 
-15.1131916 -0.0075517809 12.3824167 
-13.356452 0.432991505 -3.0358665 
14.0461321 0.0838306248 9.01646137 
7.48146534 0.502247036 -5.49823761 
-7.85108376 -0.271916658 -7.49880219 
9.02759171 0.0317392908 12.0533161 
11.4334011 -0.505102634 -12.6386881 
-20.2481403 0.137796596 -4.76667881 
-4.58752728 -0.639325678 -4.60392618 
-22.9976139 0.55121249 -7.39730835 
5.77933073 0.240129307 12.1591949 
-14.5625448 -0.26109165 -10.9047155 
-4.84248352 -0.580926955 9.97545052 
2.09708166 0.334767967 -2.54877472 
25.2450314 0.240386695 -15.3772631 
-7.37109518 -0.928637147 -11.1469364 
-21.0576382 0.470842093 -13.8316784 
-23.8824024 -0.706556678 9.07022953 
16.5424042 0.0435302705 16.4180794 
-1.76001811 0.0479339287 10.010335 
-14.2746296 0.2034951 -4.3657546 
-13.7077055 0.0219914075 -6.36833858 
-15.1473589 0.00778621016 9.32230186 
-19.8858852 0.326336235 -13.5319958 
-9.67427063 0.508555472 18.3142223 
18.5256271 0.0280113183 15.2458534 
15.717165 -0.886616588 -9.72511387 
-6.14021921 -0.15961872 14.1541777 
0.311652541 0.404692024 -17.6225224 
-14.7599649 0.0690367669 17.7061443 
-21.4581661 0.114290386 -7.2069335 
2.88533306 0.309885412 13.7739744 
1.55017197 -0.0200022496 10.5128574 
12.2072725 0.0648024604 -24.6237564 
-8.86935711 0.110550135 14.7009239 
-15.7526655 -0.126710564 10.6111574 
-20.50107 -0.204000011 12.3512011 
-7.53340197 0.136632457 18.9180794 
12.3555021 0.0929040089 10.6872663 
3.78362489 0.538125455 -12.0779448 
21.5860844 0.55095017 -8.12495995 
-12.1074419 0.216265082 -5.21618652 
-8.06389141 0.125515342 18.9928608 
-10.2162848 0.601373672 15.0097847 
11.7832985 -0.54227227 -12.5773354 
-2.48016095 -0.208049729 2.83230257 
-5.68407393 -0.586186945 -12.8866196 
-18.8654919 -0.100176185 10.5445423 
16.1614075 0.0313117839 24.6727962 
-3.17225552 0.165389657 -14.2718506 
22.9843178 0.534510255 -13.1752338 
-7.0674715 -0.395810515 -7.16548777 
-24.3407784 0.0879896134 15.6679888 
-3.24624801 -0.269170225 2.40579247 
5.36741304 -0.197127134 -19.6412144 
6.72430182 0.125696093 17.3744564 
-12.964344 -0.233539879 -6.8634181 
-6.28514338 -0.703015983 -12.3179874 
8.2964344 0.289424121 9.63737106 
13.1920481 -0.0889721438 5.08248806 
10.7541628 -0.188224167 -17.5701294 
8.93044567 0.455368996 -8.3890934 
-21.5283089 0.510806441 -15.007925 
6.38959265 0.403461605 -11.7289448 
16.7919312 -0.961669207 -8.7572298 
19.9688072 0.14529033 -8.07916927 
23.0190868 0.763502419 -11.337636 
-23.2586021 -0.584822416 5.07885265 
11.9373665 -0.132934049 13.7026815 
6.47415161 0.0606707856 18.7642708 
14.4408169 -0.436197102 -3.87488604 
-12.8621359 -0.125666514 20.8037071 
-16.6590385 -0.228316784 -7.5932641 
19.5915737 0.219874904 12.9424229 
-22.141901 0.159245253 -8.50631237 
-12.802516 -0.0264798924 0.73549962 
-15.1515207 0.465249658 4.20408535 
6.90933943 0.14941074 15.2072697 
16.4254093 0.363956571 18.3990135 
-19.742403 -0.474117428 9.77979279 
-16.3439083 0.332537293 -3.73043489 
-11.7504654 0.118216835 19.2973061 
-11.4878168 0.110971406 -1.82498026 
-22.0107937 0.41915521 -17.9870014 
3.83689666 0.147504479 4.35601377 
-7.19229269 -0.290564954 9.24934673 
-13.130764 -0.782131374 -19.6784229 
7.96712542 0.485016227 -10.7232428 
-3.82547116 -0.638746381 -3.54971647 
3.96028352 0.0269140229 -16.9007683 
-19.5602951 0.592756271 -17.8920116 
2.91036749 0.472638011 -13.658103 
25.1496353 0.238042966 -15.27635 
-13.4002829 -0.287980169 -10.6044741 
15.884778 -0.138327971 0.605629563 
18.3234901 -0.459507555 -13.2281914 
21.6343594 0.194359362 -0.453987479 
-7.928936 -0.0603175685 14.5283489 
4.38858509 -0.00456533395 5.44876289 
-21.8084469 -0.500159621 3.88473511 
13.3407345 -0.0513463803 18.5568943 
-16.2843914 0.283748299 -3.87069321 
-18.8609219 0.292663842 -6.31642103 
-10.1573906 -0.53745842 -17.7483387 
-14.8692665 0.0920253024 17.8432045 
-24.0045376 0.792735279 -12.7786179 
16.7688179 -0.399700463 -12.3413076 
6.18639231 0.141019031 13.385766 
19.0315914 0.0225769319 13.6046934 
15.0404024 -0.0204075295 -19.3282337 
-1.32941294 -0.444095105 -4.44660473 
8.02742004 -0.193938956 23.7074738 
5.91035271 0.251218617 -12.826005 
14.8512859 0.310338348 -16.5421085 
6.77933788 0.306052864 11.1520891 
-4.9535079 -0.518374503 14.5074205 
2.27561498 0.23072654 -19.5810642 
-12.6523123 0.0931471214 10.4635534 
-9.58410645 -0.47893104 -17.0125675 
-21.4857464 0.058453843 -3.09678102 
-10.5079832 0.497905076 16.0849419 
11.1203356 0.190202489 6.56801176 
-12.1872435 -0.0300076809 -6.43490839 
11.0407429 -0.543661594 -11.6492367 
-16.8703575 -0.452844054 -10.7434492 
-16.8391705 0.391232342 -3.2221632 
-18.564888 0.438610882 -18.5964966 
10.743001 -0.0156118721 -21.0257778 
19.0953369 0.385365725 4.16674137 
-10.9517479 0.126749307 -4.09622669 
-20.4318314 -0.231503293 3.23414397 
-2.33833957 -0.481828779 -6.82227659 
-18.9724693 0.159260646 0.171373129 
-11.020381 0.184459403 10.423192 
14.1784439 0.0992327109 -23.9316311 
18.9523964 0.00228073704 -18.0411472 
-21.2847786 -0.503853798 9.92457199 
-17.6017628 0.158057377 21.7880135 
16.3365307 -0.576532125 -11.9657669 
11.8405476 -0.158494696 5.23438168 
5.15140533 0.0182112139 5.603971 
-24.0294018 0.55363071 -8.13546276 
18.0196972 0.294502825 7.20048141 
-22.3709831 0.367679745 -6.46081352 
-18.4579735 0.0662914068 -11.0924034 
-18.1875763 -0.0687436536 5.78961372 
-15.3919992 -0.225945756 13.9505548 
22.9319172 0.718824148 -9.32656288 
23.2780361 0.661886692 -11.8545341 
-20.8927536 -0.443625182 11.0985136 
23.9832439 0.0137764458 -15.629776 
-12.1913109 0.140559062 15.6783342 
4.95526409 -0.0293497741 5.97604132 
-7.07792854 -0.292763233 10.5316525 
-17.8450241 -0.00540638715 -8.29827881 
5.50853729 -0.00267435983 6.29035854 
-17.2790432 -0.336583793 -10.5999184 
16.0805874 -0.367412597 -0.585303485 
18.2470703 0.427060455 3.08296943 
0.595679879 0.459147096 -13.4498777 
3.89746571 0.213861942 -14.2102766 
8.59651279 0.199803948 9.58192444 
21.53685 0.218591824 4.68649244 
1.83095777 0.566235721 -11.3309793 
3.61411405 -0.168147683 7.33892965 
18.7671185 0.323803842 2.39008117 
21.239872 0.509300947 10.6861429 
-1.35312986 -0.340091676 11.8950024 
-16.8412132 0.17231974 5.65858507 
3.72805357 0.0647044033 -20.3492565 
18.2477379 -0.272410452 -19.5583458 
-16.8632507 0.49736926 0.363591462 
19.3538685 0.486410201 6.39622593 
23.5836143 -0.247168288 7.80775642 
15.4093113 0.00559521792 4.11934185 
12.1174965 0.264233559 8.20534039 
22.1797771 -0.0371049233 5.151443 
-0.591058552 0.347413927 -12.860096 
9.10312748 -0.169182122 -17.081831 
12.2341309 -0.0722291768 16.5268307 
-16.4325428 0.105455503 9.66594505 
13.5855227 -0.605169296 -11.7703915 
13.3465977 -0.703521788 -11.3662872 
10.6177282 -0.141743362 -18.6180611 
-15.6761494 -0.292141646 15.5837908 
-13.8261547 0.322854578 6.55181885 
-11.400301 -0.190917313 -9.29963493 
-24.3556595 0.738898575 -11.4010687 
-14.980216 -0.102163397 19.558773 
10.8589363 -0.119406395 5.2043314 
-11.2602777 0.299351722 15.8699188 
7.86079025 0.352455586 6.87545347 
-2.84955597 -0.5526191 -6.86983347 
-20.199337 0.589272797 -17.1212635 
-23.3287678 -0.22435011 13.3690557 
-4.09088612 -0.342983812 -8.06157112 
20.1078625 -0.197928652 -13.9114065 
19.4821281 0.143924519 14.3482113 
-17.0722866 -0.51173687 12.3828402 
-1.19085419 -0.358276516 -4.85976124 
-21.3371086 0.0281798486 -2.87936854 
5.22470284 0.374250293 2.94769144 
-7.87292433 -0.688358128 -13.2622833 
-3.3492794 -0.446418762 12.4789886 
-10.9000559 0.139988184 9.48358536 
-6.09953165 -0.721975505 -13.7846355 
-18.3008499 -0.217301115 13.322401 
6.73095369 0.106470197 5.42690229 
4.17159414 0.531811237 -12.3280602 
23.0059147 0.0286848806 1.72111475 
15.7940435 -0.14206247 -13.7488146 
8.72634506 0.48269558 -9.93037128 
-18.0934296 -0.257436246 16.1954651 
-14.1126499 0.251804113 -3.52849603 
-10.6607943 0.35493958 12.9766388 
0.695297956 -0.147676989 15.648262 
3.81959629 0.120392255 15.1191864 
-7.28596926 -0.0335825309 24.2958145 
-4.81809473 -0.531129956 -11.9089956 
21.291687 0.118094556 -15.2834806 
-2.68434668 -0.50728029 -4.43597603 
9.77534962 0.109981813 5.86036158 
10.7677088 -0.348494053 -10.6603594 
6.11226082 0.450995296 8.99363995 
-8.92132092 -0.418071717 -16.9051266 
8.98350334 0.0489537381 -12.9521914 
-14.0215101 0.147724003 13.8353567 
23.1285 0.780883729 -10.5259953 
-18.8487263 0.197037384 1.15462124 
-24.3109341 0.846831858 -12.2584553 
-0.0612310171 -0.0303106979 -10.4026899 
-15.835043 0.0551652126 21.4063263 
15.9324732 -0.4048599 -12.317749 
-19.0278339 -0.213470221 16.8252258 
-2.32958651 0.252551615 -15.6748314 
3.33379745 0.596300364 -9.99617672 
-13.0643415 -0.348445714 23.7054253 
-18.0926991 -0.160212725 11.6100111 
-9.69182777 0.513385296 19.5355263 
0.814373374 -0.169318959 16.76161 
-23.6046906 -0.0166502204 16.623785 
-11.6157408 0.270812839 -5.22579861 
-3.42494202 -0.463418245 16.3026924 
12.0584764 -0.343915969 4.05161715 
-8.47601509 -0.317537814 -7.19806194 
-13.9641647 -0.656344175 -17.8506298 
21.9615803 0.421203583 -12.5711288 
7.69857502 -0.165251419 24.5420341 
-10.4409866 -0.594248235 -15.0354481 
19.8747292 0.145241275 14.942214 
7.39698744 0.117424309 3.97768545 
-16.7417545 -0.403139472 -11.2940493 
-8.14021778 -0.63875103 -13.8934326 
22.8477306 0.288081497 -14.7416983 
22.593811 0.185530722 12.8738699 
-15.1335783 -0.243816689 -12.3142862 
0.880332947 0.400362462 -13.4316597 
13.4915876 -0.222779483 4.41765499 
8.05194092 0.581635058 -9.14701653 
-1.56368554 -0.179388985 2.14427447 
-15.0321903 0.117690936 -4.33164263 
-2.78314447 -0.379027218 -7.49012375 
7.3618741 0.194569722 5.87913656 
21.4622612 0.254044622 -12.3164501 
2.01644063 -0.385512352 9.18388939 
-15.1035175 0.0414384566 -5.59000683 
18.675993 -0.347976625 -16.8047638 
7.95419312 0.287756413 5.44090939 
20.6635265 0.333669484 4.28627491 
21.4190445 0.26421544 3.8057127 
-4.16978073 -0.173269108 -9.17016125 
-15.937232 0.170850247 18.9079094 
14.5091124 -0.781423867 -9.23480797 
-13.6129026 0.242168993 12.9597712 
7.71029854 -0.138733551 -15.6794701 
10.7277021 -0.276038229 -5.3825655 
-8.76945782 0.149157032 -5.60237312 
-10.7841473 -0.523568153 -11.2936182 
-20.4232903 0.161929622 -9.38747597 
21.6961555 0.380387694 12.1126204 
3.31345844 0.346533597 -8.93666935 
-14.7865658 0.0243951343 10.5436649 
14.770771 -0.782293141 -10.1426411 
24.3305473 0.894792795 -9.50746918 
5.28506947 -0.0565329157 -14.7171164 
-16.8738785 -0.382808447 -11.4014215 
6.68229055 -0.00899488293 -14.1093016 
-21.4286118 0.404797554 21.8334427 
4.05142021 0.307387739 10.9786072 
10.0900679 0.0966643617 5.94639444 
-19.7782688 -0.0164219197 -3.06406093 
12.6288748 0.0300294608 5.89513111 
-18.4700184 0.271229357 -10.1022396 
-14.5853319 -0.352306247 -15.5477791 
-1.66320097 -0.424994379 12.8800259 
6.09263611 0.283118784 -12.5390959 
19.4400845 -0.196078956 -12.0772734 
24.4597416 0.518166959 -7.13790178 
20.5970554 0.335766256 5.9061861 
17.4930935 -0.506299317 -13.2680712 
-9.21197128 -0.610927939 -9.0447588 
-20.6014977 0.35454452 20.9645157 
23.5439682 0.653778434 -11.2599354 
-3.77939057 0.767307937 -21.992794 
17.1742115 -0.524546564 -18.5895576 
13.8523159 0.146374151 9.44065952 
-19.3418598 0.400994033 23.607832 
10.8616667 -0.0345712975 -24.8622208 
12.3300476 -0.151060551 12.4748211 
-7.60671997 -0.188022509 10.1181135 
-11.2433758 0.185493857 10.6469822 
7.83590889 0.307034314 10.8246746 
17.9754524 -0.332613289 -4.07984829 
3.48169756 -0.27195695 9.31391907 
-18.3915272 0.152139261 -4.90211391 
-19.501318 0.15778631 -5.69294357 
-7.12824535 -0.287845433 8.77840996 
2.23012495 0.459095448 -10.0206671 
22.053009 0.216688499 2.81280565 
-17.2317028 -0.020396715 9.94992542 
6.38862133 0.414278001 -11.4382496 
5.16633606 0.34790644 0.890858829 
24.8677006 0.967565835 -10.4899349 
5.190804 0.0401326418 5.91515398 
17.7733707 0.372122645 9.01372433 
15.3459482 0.209289253 -17.6972332 
21.5998535 0.246263832 4.5600791 
15.1149673 -0.182495922 -13.3829651 
-17.2740173 0.347519159 -18.9025974 
-13.6771975 -0.264158458 -10.9092016 
21.7805958 0.242060527 3.97662973 
-7.28601503 -0.517278373 -14.7039375 
23.3035812 0.645302832 -8.62496758 
-11.3327551 0.408976108 19.3259468 
-10.0056906 0.0709624365 -4.79846525 
21.7551975 0.100071125 7.22800398 
4.90173483 -0.234461159 -17.8560238 
17.384737 0.338477045 7.67508078 
19.962738 0.498209149 11.541708 
10.5538597 -0.295413613 -13.0059357 
3.78238511 0.0946398526 -0.0231734626 
-22.3725491 0.513427854 -14.620533 
-1.21697569 0.03652329 8.6947155 
-9.18441963 0.220027566 23.3123283 
-18.9393902 -0.412152767 15.1967459 
-7.08864975 -0.630499303 -13.817543 
12.0792751 -0.731184006 -10.5579729 
6.51497698 -0.281046093 -22.7665005 
19.0989342 -0.121855699 -9.02754688 
19.7421265 -0.136035219 18.7736549 
-7.43629742 -0.628537714 -8.53223324 
2.47284102 0.600586593 -10.7452984 
20.8367195 0.423729509 1.98725188 
11.489006 -0.479961038 1.52441144 
15.7171059 0.134039775 -17.2096539 
13.3432827 -0.102920584 12.7918129 
-10.6102209 -0.553648829 -15.1045818 
-14.6368437 -0.328379542 -14.8878345 
-21.0401001 0.236710772 -11.5112371 
-0.858803034 -0.110077657 -10.7172804 
10.6074228 -0.257372916 -0.0976177901 
-14.4223671 0.122223765 16.5948067 
-3.28678608 -0.0928781107 3.77128172 
22.6116734 0.139969379 -1.46882832 
-0.117036715 0.441175401 -13.7188826 
16.1135311 0.381786108 19.0870476 
-14.8422203 0.0127481557 13.4176006 
8.14556217 0.25672701 5.813797 
21.9670868 0.258670926 10.7758245 
13.3970318 -0.196479812 13.7270069 
-13.2183771 0.428052217 -3.07757401 
-12.3677683 0.169120356 17.137476 
-13.2099648 -0.404295892 -12.9295101 
-10.2349377 -0.582476079 -16.6689739 
4.2525568 -0.252394527 18.3404617 
15.1173439 0.402262211 21.0251007 
-20.2058029 -0.250995636 11.0535746 
-15.5877295 -0.310570091 -14.409461 
-10.0239735 0.52580446 18.4441624 
2.85955572 -0.438322395 9.15964508 
-23.0579376 0.433290303 -10.8467607 
-6.38342094 0.0843111351 -18.1169128 
-18.7906532 -0.138609365 3.55018067 
-0.408083439 -0.107129067 10.8806677 
24.6765232 0.245693192 -5.41404963 
6.61752558 0.168162584 -0.611519694 
0.913689971 -0.193551332 7.02704334 
17.751255 0.332208633 8.52581787 
14.7228107 -0.807773709 -9.78409004 
21.601429 -0.0181469247 5.78603411 
-12.5609789 -0.154390484 -6.67553186 
23.900135 0.738235414 -8.62500095 
5.72599268 -0.00887739379 6.58982182 
-15.1257095 -0.319483936 -18.2434235 
19.1462669 -0.282666475 -11.8003378 
-14.7236643 -0.342756182 20.7594433 
23.429409 0.0904582515 17.7780094 
6.90448618 0.00401204778 20.5417995 
24.4722347 -0.26090467 2.96880007 
-19.0933266 -0.270051122 7.304533 
-13.362752 0.194797575 -4.36827326 
-24.640398 -0.32418108 1.71415675 
-10.1187983 0.662026823 15.0494757 
-21.2925625 0.212178752 -5.53014421 
7.74405479 0.289997876 8.13406944 
3.4947145 0.202328444 1.39075589 
-17.4287567 -0.171452388 -13.9781322 
-22.0876217 0.195590675 -3.59736633 
7.03966761 0.115305096 -13.8770094 
15.1090622 0.177187264 -15.5615311 
-18.0155029 0.00808063149 -5.26545095 
4.19814682 0.381811291 -6.1532383 
-9.7676239 0.0508326925 24.1618958 
5.79613781 0.124914721 0.0163930506 
-7.26963615 -0.416260928 6.30585003 
19.0332088 -0.183522359 -10.8989334 
-6.25318146 -0.38864404 0.0249103196 
19.4695301 0.357513487 9.1749754 
-17.9988346 -0.0281825624 -13.0551176 
16.1394081 0.0820956007 8.86662674 
1.03774166 -0.140734196 -2.52995968 
-23.0340481 0.377204448 -5.40107012 
-10.0033913 0.262970567 11.0688696 
-14.5440683 0.382230461 7.20059299 
4.41968727 -0.0418500081 -16.5336227 
4.19932985 0.473115265 11.4942074 
-11.9624367 0.296961457 12.5569515 
-2.64813423 0.0219504759 -9.53150368 
-4.66570282 -0.413030714 12.5065813 
6.00354671 0.315809548 2.86996198 
22.314991 0.106841244 3.78381467 
2.43068266 0.266248018 -1.50365722 
21.7997322 0.5639202 -9.26480007 
12.8363924 -0.0617762208 5.24921036 
16.9097576 0.404813796 18.3043022 
-15.6498861 0.503831208 2.03664637 
-4.2523942 -0.320130408 -6.61853743 
-14.7114897 -0.00122242793 16.1127949 
-4.53074121 0.458937198 -18.6627007 
24.1648769 -0.315780461 0.987567306 
-7.83955431 -0.761415303 -9.36832714 
-16.7318916 -0.472132444 13.1164207 
-1.91712606 -0.343004167 -0.109761566 
-16.9026794 -0.360475123 -11.5165224 
6.17487955 0.247898325 2.34990597 
-16.5830822 0.346347004 -3.89974403 
-13.2879925 0.169348061 10.9367371 
7.09639692 0.12229263 -13.744566 
1.27665401 0.277925581 -10.2950106 
6.1320262 -0.258886576 -24.1037655 
-20.371748 -0.153281778 1.04438353 
-23.935421 0.0847009793 15.2197294 
2.63795137 0.245910972 -15.7966738 
-24.018116 -0.130621076 14.3423719 
-8.69007301 -0.717119932 -12.9784327 
-24.0005703 -0.605385721 5.89417171 
22.5287457 -0.0952323526 -16.3168907 
5.73576403 0.17301169 -12.9262457 
12.2860365 -0.488389403 -6.00354147 
3.02508783 0.484438211 -12.9767065 
15.2873106 -0.913610578 -9.73400497 
-19.1899395 -0.1680599 13.0461006 
-19.6834831 0.0919049382 18.2118053 
-16.414093 0.0225345474 10.58568 
-20.7186871 0.115078211 19.3133564 
-14.0991735 -0.299050629 -11.9110928 
22.4280796 0.659681439 -9.8342638 
18.6208229 -0.447128356 -12.6237335 
-12.8994589 0.131092876 5.46608448 
-10.4012241 0.00132663897 -5.23723602 
-8.24702454 -0.0979254246 13.9647579 
16.7282581 0.107554741 16.7774315 
-23.4019165 0.60774833 -11.8104782 
-9.22638798 0.126906395 -4.83023024 
-22.0183392 -0.533200443 9.87250805 
-18.9483566 0.356787056 -13.9862347 
15.0071478 -0.565177739 -11.2563505 
6.57442951 0.447161704 -11.0639162 
-23.7564526 -0.622328699 10.1274776 
10.6762743 -0.0270422008 13.1489725 
-12.3426828 0.032926362 19.8331318 
-3.39288425 0.0226628482 -13.9520035 
-19.4409981 0.31013298 -13.8651876 
-6.40611696 0.206421882 23.1744785 
10.1785641 -0.103281468 4.52495241 
-22.2737522 0.158465296 21.637743 
-11.9516602 0.365710557 7.57957268 
23.2161846 0.781813443 -10.6432753 
0.432110965 0.121990196 -9.84672928 
14.9091625 -0.555781722 -11.7433071 
4.82520533 0.357866406 2.78074718 
1.85922849 -0.191443071 6.32178259 
-14.6479559 -0.309237778 -15.9060545 
-18.24757 -0.176479682 17.32304 
13.3702011 -0.121345453 -18.5611553 
12.3271532 -0.529733956 3.23564529 
-2.59577918 0.693345249 -23.6775837 
-0.966611445 0.469308674 -18.3454685 
-18.684309 0.159805194 -4.73258257 
-13.5090799 -0.799064219 -18.3105183 
3.84371018 0.235204026 3.01122093 
6.25811005 0.480413318 -4.56946373 
0.0388035476 -0.146080032 11.2055588 
15.8163843 0.0945661142 5.90497446 
-4.39765549 0.516710937 -20.5466862 
4.66367674 0.410329401 11.1658897 
5.02488708 0.479003429 -10.0714884 
-22.1519928 0.173652604 -8.17673588 
6.20755339 0.363503873 8.57974339 
-8.88574791 0.150773451 13.414361 
-16.1796494 0.437561512 4.70343304 
24.0814495 0.733408391 -8.42141533 
21.5983582 0.562968194 -8.69268799 
-16.9052448 0.116597325 8.40904617 
-22.8693733 0.53530246 -12.4706564 
-9.17743015 -0.155604079 9.37468433 
13.8232594 -0.128880903 -17.9458866 
3.08300638 0.263063908 2.3471477 
2.96993494 0.187347233 4.38690138 
-9.58292675 0.421428353 13.9843121 
-22.5547466 0.38790983 -5.84994888 
-14.1995602 0.110204041 16.4307995 
23.4479427 -0.237407431 9.74248028 
-18.4965782 -0.184423774 8.63546467 
19.020647 -0.169479564 -9.94978046 
23.0866051 -0.0800844282 18.1843338 
5.77553511 0.0775510073 14.4125786 
-11.6196299 -0.789280117 -16.337019 
8.48782063 0.204833478 11.7614632 
9.95882893 -0.210119799 2.99030447 
13.3725901 0.143758282 6.71400928 
6.82094431 0.53329742 -5.30855179 
20.8046284 0.264805138 4.49778318 
-6.26451206 0.123107038 16.8199711 
-16.8657093 -0.320295691 13.6116238 
12.140954 -0.10495045 20.4532089 
16.3484764 0.20633544 3.14500785 
2.63381934 0.199497297 15.3193026 
-2.84758449 -0.0767176002 9.01479244 
6.87296486 -0.185143992 -19.1190052 
14.2506371 0.139371574 6.6719389 
-16.8695374 0.352563798 -3.6068306 
0.928668559 -0.142928541 -4.99124336 
-8.17911816 -0.495624125 -8.13303375 
-16.6191807 -0.216397688 14.9554224 
-16.3625965 0.229874372 20.7664337 
10.3893776 0.217826977 7.08872414 
12.299902 -0.145537511 17.9032631 
19.6576939 0.379481584 3.49093533 
8.62684822 0.151271865 12.2522707 
15.8099279 0.0579880886 8.34309673 
-0.59550494 0.470881045 -15.2643967 
-12.4457827 -0.209918335 -10.8930426 
-20.1174889 0.199184075 -7.42386246 
-11.9597349 0.0565642267 21.5738392 
13.2685347 -0.483152837 -3.91701221 
-6.02942514 -0.364584118 -15.8183527 
-17.2917633 0.152716935 20.4473457 
-16.7049046 0.198015615 -4.29573154 
10.2524681 -0.212901264 -11.4135866 
3.45310569 0.520772219 -10.9881048 
-8.0134306 0.0586731136 -24.4688911 
21.9714355 -0.0364956297 7.00038242 
-12.6584663 0.123124316 15.8647518 
20.9936714 0.346483201 9.51875019 
-6.2709527 -0.471478671 -5.36652422 
-13.7967701 -0.177660152 -9.98343277 
-12.9358597 0.347833693 -2.84798622 
-12.1253309 0.19819285 10.6512537 
-11.5501804 0.256190866 19.7123871 
-0.828083992 0.077607967 8.07515335 
-0.721447706 0.0477049015 7.34710312 
-11.5719881 -0.785079896 -16.0081558 
-23.5432816 0.547948956 -7.54262066 
22.9964275 0.627638102 -12.0529137 
-14.4334002 0.103364266 -4.67251682 
10.7173796 -0.332678378 -12.9167061 
16.1411057 -0.274491787 -12.7963724 
22.6066532 0.0457119457 -2.70492435 
17.0784187 0.321553081 4.79804707 
-9.39934444 -0.740884125 -12.2493277 
-17.4801655 -0.145104185 16.8859882 
13.2022572 0.0672638863 6.76677465 
15.3039885 0.176303908 -16.0399532 
1.32950771 0.458523095 -14.324934 
-22.5411072 0.434145927 -6.62232924 
-5.28290701 -0.624325097 -11.9594755 
-15.7523499 0.382732302 5.57913113 
7.90256214 0.344554543 -1.21995592 
10.9523001 -0.311418861 -14.8850517 
10.0759001 -0.0626793653 -23.2028675 
-22.6357708 -0.48000744 11.0404253 
17.3142853 -0.358382523 -14.5803757 
-19.6210957 0.236647621 -8.59698868 
2.49483538 0.285897404 12.7950211 
22.6616859 0.593144298 -8.67418861 
22.5486755 0.0443549715 10.285285 
4.39321184 0.204790846 -13.5506363 
19.2190819 0.439305246 4.4768405 
-18.9707718 0.204662666 -8.28921986 
6.99929094 -0.131543741 -15.1681967 
2.36472082 0.266765356 12.7236109 
-17.6572952 0.821174562 0.000651091337 
9.15180874 0.106709942 19.3944836 
22.880228 -0.307634056 -17.1734371 
22.8787994 0.536532164 -13.6500177 
-16.9501362 -0.0940608382 15.5700989 
6.27482986 -0.0130124949 5.37517309 
-16.4995461 0.443984449 2.48131156 
17.6447773 -0.0490291268 16.4519138 
12.0633841 -0.516087353 -13.7685261 
-25.1520157 0.223947883 16.0836239 
-5.02110147 -0.33840397 2.52010107 
15.8386211 -0.83294189 -10.4093494 
-14.066143 0.169019252 10.291481 
-8.56571674 -0.102033481 1.04622042 
9.453969 -0.058837492 3.9106009 
-23.4093399 -0.5975734 9.85326672 
20.9266777 -0.402165562 -24.7307167 
-11.158596 0.415503144 13.8046341 
-0.402728498 0.0632952154 8.49457359 
24.4619484 -0.450184613 4.20302773 
-15.8150644 -0.234130323 -6.7818737 
-12.5429935 -0.212564468 -8.04905891 
-17.9515705 -0.157036647 17.637228 
21.5798931 0.127373204 7.24936533 
21.4980316 0.00758608989 16.3592186 
-5.20860434 -0.653624356 9.89825153 
-13.1918182 -0.320352465 -11.8768406 
0.0351967365 -0.030014975 2.06877971 
14.3878355 0.115561388 8.05479527 
-15.3195438 -0.314469278 -9.93930626 
6.98331594 0.150195792 6.51730251 
-5.53806067 0.139645621 21.8701954 
5.55395651 -0.168886393 23.9808788 
9.20440769 0.084392637 10.443078 
22.9922771 -0.144481122 4.04899025 
16.7570648 -0.439452052 -17.4811459 
-15.1375818 -0.135356635 13.66574 
-15.2993202 -0.347072005 -14.6919136 
-11.0501394 0.390173107 17.6003666 
-9.167696 -0.226413339 -6.81597471 
5.69890499 0.290035009 11.4217825 
-10.971837 -0.243390426 -10.0061321 
-22.40592 -0.0292273369 18.5503731 
14.8919716 -0.465358645 -4.73541832 
-19.1774197 0.428564429 23.2669907 
9.57696056 0.10337203 16.6315975 
14.1949301 0.15308027 7.26297235 
-8.61637878 -0.275967807 7.91942453 
17.480547 -0.107044138 -1.25901878 
4.06292915 0.519665658 -12.3162165 
-12.2403631 -0.214736313 -10.0424643 
10.6743059 0.176191896 9.3228693 
-0.407154381 -0.0724551529 10.5251007 
-4.24244308 -0.276646525 -10.8436289 
0.744802892 -0.0222895108 14.1721315 
-7.37472773 -0.273836702 4.44794226 
0.494061142 0.00584475463 2.41644835 
13.4828939 0.267894208 8.19663906 
10.2628698 -0.0829868987 -19.1939774 
-3.73989487 -0.398653269 16.2251148 
-15.3747616 0.102609105 7.39480734 
-13.8751631 0.00558076613 -5.68273592 
-22.4341393 -0.0443191566 23.8879681 
-8.66735649 0.057382755 -5.81529093 
13.0242262 -0.0570960268 18.9391232 
-16.0624428 -0.249392062 -14.395072 
7.06856441 0.188078955 6.09150839 
6.50404453 -0.0698135793 21.1646233 
-5.51641989 -0.486187965 7.191082 
24.8960209 -0.206581503 0.197033599 
7.24087572 0.14147611 15.6890068 
-13.6165915 -0.395746678 -13.0600348 
-21.6443939 -0.138033018 14.5041847 
5.95099211 0.488157213 -10.2876511 
-18.3092346 0.0093054669 10.1826696 
1.97728002 0.557332993 -14.9306955 
20.6971893 0.279014498 7.89845276 
-20.8689327 0.049575828 -7.91585827 
8.7923708 0.445950866 -8.02668667 
14.3554325 -0.0755831525 11.1341543 
-0.0519982874 -0.00848060846 1.83999681 
-17.627306 -0.192660615 -12.170969 
-17.5768871 0.303802878 24.2128849 
-19.9903507 -0.159016758 17.3862095 
-17.356144 -0.0720061287 15.947217 
-9.24247932 0.104616538 -3.33210206 
-24.8052807 -0.412109375 12.4692221 
-15.9442215 -0.0869879276 10.2953901 
12.8434687 -0.325044215 -17.1019592 
-11.8583946 0.220248193 18.5842667 
-17.1463051 -0.286515474 -11.521801 
22.6455479 0.331276417 14.7112455 
1.83592916 0.232912213 -8.97882557 
24.3659096 -0.0130232479 -3.59047365 
-13.360363 0.181201383 3.97233891 
9.81964684 0.208858624 9.85828209 
-18.8666992 -0.110044032 2.87666392 
-10.9203777 0.376394004 20.2966576 
3.03443909 0.473312527 -12.6902027 
16.3033371 -0.247278258 -16.7103958 
13.2170916 -0.243156388 -2.05210805 
-20.3569164 0.165764034 -7.55757046 
-9.7635088 0.055674918 -3.08443737 
22.8920841 -0.0206348784 -15.6897163 
-7.87663841 -0.259591252 -6.39077806 
-17.5847721 -0.375738293 13.208065 
-0.443758309 -0.131069392 3.88846564 
7.97810364 0.166309386 -12.6871004 
-16.024292 -0.391664743 13.3535156 
-18.775898 0.0186170228 2.32272267 
-10.1077814 -0.756335735 -11.9406319 
-0.588235378 -0.0857365131 24.9708633 
-18.9250011 0.322275728 -7.4216671 
-0.922537327 0.0524452105 24.4547672 
-18.2979031 -0.279866606 16.2021618 
10.2397356 -0.0506011285 5.04907036 
-22.7677803 0.52898705 -13.4806509 
-12.242322 0.324095547 9.01767159 
-24.0502625 0.723898411 -10.5977068 
11.0214128 0.0706780031 5.79520655 
-13.6189232 -0.00628498755 -6.31391287 
18.1992855 0.416585863 7.90150261 
17.3305054 -0.454002231 -12.6017427 
-6.90223312 -0.523990452 11.8764544 
3.03775954 0.295692235 -6.02443504 
-17.767765 -0.220892295 14.4979658 
-8.29181385 -0.658090889 -14.6924496 
0.227879152 0.00834591407 0.395301133 
-6.42499447 -0.426549375 -7.94183445 
23.0840225 0.745969594 -9.47568703 
22.5122833 0.30491969 14.013135 
6.39450216 0.470646232 -10.4700804 
17.4154491 0.418241501 10.5358839 
18.7606831 0.401946515 5.02226543 
-7.23419905 -0.286776215 8.84556675 
-8.58459759 -0.0825502723 -2.13624525 
17.6141987 -0.481814444 -12.1877661 
11.8721943 0.276733071 8.73237514 
-17.7007065 -0.0961422324 10.7133322 
22.3784161 0.485792667 -12.5089188 
22.4126854 -0.0933270827 6.35022211 
-11.4292173 0.333047837 19.441885 
-15.4967098 0.667791784 1.44519114 
3.72231507 0.104447201 -20.7143288 
13.3357553 -0.307816297 -2.43932557 
-8.38644409 -0.985329628 -11.5934744 
6.31202364 -0.264623046 -19.9168186 
0.686212659 -0.0226493459 10.6495132 
21.3536129 0.20776011 4.69234943 
19.3517895 0.0948854089 -18.91185 
-19.286911 -0.100163713 12.8781195 
-15.6134148 0.178849936 18.3333263 
22.0443821 0.437446356 -7.38378382 
-16.8534279 0.0111578899 -15.1625128 
7.22480869 -0.187816545 -16.1951466 
-1.99809813 0.304326087 -15.4645176 
21.1732197 0.448330581 -6.94248915 
13.8639622 0.125080943 6.63004494 
14.1061134 -0.0632065162 -17.2070618 
-11.7585869 -0.00935748499 -7.49315453 
-23.9094067 -0.210127875 17.5208836 
-12.3677492 0.205271795 11.9680157 
22.3564777 0.498323917 -13.1354694 
-13.9029398 0.218746305 -4.37970257 
14.5130787 -0.662835002 -10.7607565 
-15.2334146 0.00166097563 10.7501259 
24.2153435 -0.410362214 7.54595089 
-3.26000381 -0.0984744579 5.436831 
4.14140892 0.16327849 13.6935215 
3.10557199 0.0194419809 5.83719158 
-10.5395279 0.203039959 -6.34191036 
17.4343529 -0.134227633 -2.76984334 
0.871242166 -0.0627175421 1.55182588 
-25.0720844 0.742061019 -8.81332684 
-3.21235538 0.244713709 23.374815 
19.8344612 0.149111941 -3.84456706 
13.7072477 -0.422379881 -0.377028257 
21.2855873 0.200609192 -13.3511896 
21.0290356 0.25713858 4.14882803 
21.2156982 0.166137621 5.13738871 
5.37267923 -0.0076524606 6.87289143 
-5.89228344 -0.036781162 15.9416361 
0.574253738 -0.0346095115 11.1992331 
-16.0425797 0.0662181899 23.8560276 
-2.20277238 0.384086758 24.6138878 
-17.9723682 -0.205872163 12.2632818 
10.0915232 0.233803391 7.3096633 
20.3490105 -0.0911342576 -16.6933346 
1.37653255 0.366348982 -11.0268993 
14.3140907 -0.0286935382 15.8429136 
22.7499657 0.162522644 13.3250666 
4.39681959 0.561554432 -9.08103085 
-20.6989193 0.0459473766 -9.96648598 
-17.9067497 0.201858416 -3.34150147 
-23.3118858 -0.677801132 8.52810001 
13.6815453 -0.134378687 -17.0356541 
18.6402855 -0.262560815 -5.944489 
13.1661654 -0.27721709 4.52941942 
-20.7128639 -0.240484193 2.9362545 
24.7217655 0.142954856 -15.070118 
21.4833488 0.1258903 5.10707188 
25.3012238 -0.157848611 -16.9758873 
1.71491933 0.0931181908 3.98761082 
19.6370583 0.18892391 -9.24966717 
17.1642551 0.285338819 3.05222297 
-22.0533829 0.340173632 -5.02375555 
16.4060535 -0.349547505 -12.6913013 
21.4533081 -0.410443962 -18.7027359 
18.0255318 0.0447568893 -1.76799917 
-24.1195984 0.767388403 -12.7148495 
-11.6564999 0.0225661416 -7.57791138 
8.27044964 0.133074939 -12.5652351 
-7.24904776 -0.264418066 4.36092472 
1.37716234 -0.00416424498 4.02711868 
-21.5296021 -0.464842886 11.7879276 
-11.6185074 0.21119082 11.7907457 
-4.50147533 -0.186850592 4.50321722 
1.9387219 -0.0290874578 11.7049379 
-12.5596342 0.219241098 -3.90197825 
0.338176548 -0.269443691 15.9582481 
-14.6873913 -0.117025189 -6.3226099 
-20.6913528 0.0775847584 -3.97396803 
-4.92909956 0.0228788573 -16.7654839 
-16.8510361 -0.100659862 -6.09754372 
17.1259918 0.142232552 1.35920179 
16.0615406 -0.185802162 -13.1072998 
-13.8682098 0.273534566 -3.74208879 
13.3704691 -0.733320534 -9.67021084 
15.6190414 -0.145270675 -18.9220619 
14.5259247 -0.0487132818 11.4160776 
13.6815176 -0.0355277136 13.4759531 
-0.567154527 -0.243362725 -8.37510109 
-9.42138863 0.0139888097 -5.03652477 
-9.53473759 -0.359061986 -8.20692253 
-21.5698147 -0.704624653 6.53121853 
-18.1225777 0.0580133013 -4.33015108 
-0.735180497 0.288209051 -12.7899189 
14.8667583 -0.184817925 4.1247263 
15.9665413 -0.209107012 -18.6135616 
-23.4112854 0.407166749 -6.11030674 
10.3293972 0.100003459 11.2038403 
-17.3764439 -0.0185151808 -5.111619 
-21.235939 0.400271535 -13.1444826 
5.92753601 0.48854652 -10.1316414 
-17.1209526 -0.243090436 -12.4260817 
-12.222888 -0.219745249 -10.8471432 
-19.0662842 -0.296860874 7.64821863 
-15.1412764 0.693677843 0.438587606 
-15.9581146 0.11259716 -16.9537983 
21.2890282 -0.438598484 -19.5014114 
23.1731224 -0.182779789 3.99908471 
-11.7292194 -0.808804631 -16.7903862 
-21.2318745 0.402540475 -12.198144 
-8.1818943 0.269520342 16.4652939 
9.46309853 0.096743241 -10.4443922 
15.0860252 -0.297988325 -13.0636101 
2.89213109 -0.371655583 8.41770649 
6.44809294 0.627772987 -9.12408543 
17.2838268 -0.351290315 -14.2175961 
-7.78468657 -0.229444265 2.59745526 
-3.44414496 0.317977786 -15.5564661 
-11.8980141 0.0754993111 -5.7005291 
4.47700787 -0.145158008 16.5220051 
-21.9583435 -0.227292016 14.552227 
23.1942196 0.774158955 -10.8057785 
-9.7910471 0.0528873987 -4.76014614 
-9.84338188 0.076809302 -4.50993967 
-16.8691082 -0.04053092 -14.7655449 
-14.1190586 0.159751296 11.8398829 
-18.2895412 0.293213338 -18.2215958 
-14.9756594 0.317128718 -2.75467896 
-11.0034609 0.22757791 12.0797701 
-5.31661701 -0.68775326 9.2151947 
-4.95507479 -0.432694465 -13.3865213 
14.5704918 0.120155782 7.33067226 
16.9455833 -0.334687531 -14.2583294 
-9.2572155 -0.0366684757 10.4420719 
-2.63400102 0.107201032 6.54905844 
21.4747868 0.371423274 2.7505703 
-23.0896873 -0.143600166 23.6275253 
-23.4536037 0.0515286587 15.2284603 
19.33881 0.0236224364 -21.2744675 
15.5840054 -0.0953064263 11.5283546 
20.2483749 0.31946969 -9.64674759 
4.25735855 0.0304003656 -2.52695322 
15.0213223 -0.00848802738 5.68840075 
13.6895046 -0.0603357106 12.0677462 
-22.8983135 0.376039535 -10.8445835 
-24.7100105 0.119669273 -3.99039245 
-20.3529949 0.124090441 -5.39678955 
13.9843025 0.602269292 21.4728584 
-17.4083061 0.194589108 8.31954575 
-7.36911345 0.178573057 19.224062 
-8.57528496 -0.134094596 -19.4531841 
8.33686543 0.246243536 -0.710175514 
7.02414227 0.154475316 1.75267076 
-1.95625114 0.0195024274 -11.2128649 
0.416280001 0.0364583321 -9.22764778 
13.4277802 -0.429929495 -13.3496246 
3.47179866 0.167786047 13.9364605 
-13.6978102 -0.0425941311 -5.64882851 
-14.8573828 -0.29772234 -9.68784904 
-21.0216999 0.566158056 -17.1278362 
12.675971 -0.662915766 -12.2364311 
19.6875916 0.595625103 5.6512332 
-15.1502428 -0.0766180903 12.8608885 
-20.9497681 -0.223259702 16.5119724 
-22.0979671 0.341055632 -4.72663975 
-19.6449127 0.298550457 20.2965527 
11.0334177 -0.020588953 18.8947582 
10.65734 -0.394173265 -12.2827435 
-11.2783384 0.303496063 15.6304426 
-8.10075283 -0.173210531 13.1489172 
18.5202332 -0.432172298 -8.79959393 
16.6575413 -0.363140345 -12.8835506 
-10.3991699 -0.164273411 -1.52365875 
-16.750658 0.157289475 21.395298 
9.62775135 -0.193935275 -21.3374615 
11.4967756 -0.0559979193 19.1445541 
-6.13628292 0.130627602 25.0905895 
9.04078007 -0.0726292282 -14.6926908 
-24.4080009 0.0174320769 -16.1469727 
-7.17104197 -0.389065593 -0.214436859 
-24.74897 0.941357195 -11.9091272 
-19.2962093 0.100605495 -1.79599738 
6.29945612 0.140858561 3.7110312 
17.9278355 0.364411384 8.79503345 
12.767704 -0.646485329 -12.5243778 
21.1219044 0.0653804243 6.26547861 
22.3592377 0.0763008967 3.40512586 
-17.1634045 -0.0772798881 16.1386566 
-11.0029573 0.255607307 8.07532597 
-1.71894491 0.606077194 -20.1178799 
19.2812881 -0.450161338 -14.1540031 
-3.87894225 -0.492526174 15.1366148 
5.40905094 0.0511815436 -13.4684477 
16.2448254 0.188354015 17.4871349 
24.6913376 -0.807662964 -24.1653519 
-9.71058273 -0.550392926 -16.7634983 
-3.58993387 -0.0933322087 -12.2065582 
-20.6895313 0.150898024 -7.01743793 
-22.4443512 -0.0375059731 18.3995953 
0.271673739 0.431657106 -17.9321747 
16.3448677 -0.0544183627 11.4796896 
-16.6255131 0.131167859 9.34354973 
-11.6210661 0.0186001211 -8.00729752 
-22.5224323 -0.571213543 6.67140913 
21.3299942 0.444703072 11.4541912 
-7.09572935 0.177162632 17.0768223 
-18.6287861 0.125844136 -4.27890682 
12.9041996 -0.132446393 -1.77075994 
-11.2847662 -0.832453728 -17.9031601 
21.4362545 0.00524112443 6.43891859 
-7.73548365 -0.0471761301 -3.88093209 
10.4736242 -0.0813822448 4.73446369 
-17.5741119 -0.171258003 -13.6110077 
11.8953228 -0.581605256 -8.74716663 
12.4851723 -0.276367873 -17.4169769 
25.0069275 -0.625068069 -19.9402561 
18.8025417 0.543532908 7.14135027 
-15.7506218 0.308728427 -3.26224899 
13.2123861 -0.356936753 -14.5062914 
-15.2027617 -0.224448338 -10.4766235 
-20.6552334 0.544900775 -15.4580688 
-0.416730523 0.136592075 -11.7872267 
8.30078697 0.386417866 -2.43104982 
14.4038954 -0.234217703 -13.3201523 
-16.7738514 0.571683466 -0.804011106 
22.9474335 -0.133023813 4.74027157 
-18.4845066 -0.251522362 16.2711697 
-19.2186623 0.160615772 -0.329029262 
9.20890522 0.204529941 -12.0242472 
-20.0056019 -0.497465909 5.92972565 
-10.8100843 0.401915729 16.0155277 
-10.8512583 -0.554103434 -12.4367027 
-18.8278103 0.240999132 -5.01762295 
4.32166052 0.0403935947 14.8279209 
16.5814533 -0.379543453 -12.4901047 
14.9838867 -0.580586016 -11.1130266 
17.2292633 -0.472043246 -13.355999 
11.5561075 0.330005646 8.94952011 
21.8517818 0.416327089 -12.571846 
-14.5112581 0.153696522 10.7590761 
-12.2034645 0.334492236 9.31777382 
-7.54418993 -0.915300667 -10.2456493 
16.0286808 -0.689223707 -11.5632963 
16.0471725 0.0865003914 6.33673573 
3.03542566 0.0188365374 6.25054693 
12.291851 -0.170128658 -1.11682129 
-5.839118 -0.483894765 0.758322656 
-11.9285603 -0.710073292 -14.5054274 
17.3343716 0.319174081 5.08336401 
-22.5307693 -0.480285525 10.871747 
-25.0205917 -0.479893982 12.3685961 
-12.733839 0.208718494 -3.80223703 
20.0278969 -0.346289009 -14.3815308 
20.9323692 0.397831559 -9.71805286 
7.26636696 0.133107409 19.5011997 
-15.0268497 -0.289227575 -17.5711689 
21.1470642 -0.0535659343 17.86656 
13.1974049 -0.695801198 -9.38878345 
7.90714979 0.0720445439 1.78175282 
16.4565659 0.115445793 9.06461048 
14.4769831 -0.412314087 -12.3675108 
-11.6167812 0.204275042 16.1802826 
8.01962757 0.356069088 -2.4803257 
10.8466082 0.0489237793 5.76717472 
-7.58533859 -0.134433001 13.8497362 
-14.5972443 -0.241097122 -7.08800316 
6.52032185 -0.268043965 -18.1139679 
-12.8569775 0.1848851 13.6688757 
5.93875599 0.28181988 -2.1259222 
-1.29172039 -0.285121262 15.6643915 
13.8001947 -0.241836905 16.9279556 
-9.44847393 -0.0882690325 0.53916651 
12.5990782 -0.220336422 -18.3919506 
-10.7212162 0.14696528 6.53296566 
21.7798347 0.392567724 -12.4308214 
9.65181351 0.252641797 -8.58611679 
10.9595327 0.27552399 8.78299522 
-4.63085365 -0.505060971 12.9106646 
-11.7857103 -0.592279255 -21.8501911 
6.46805286 0.0677916855 -13.9087458 
14.0380621 -0.0629432872 13.9634628 
-22.0965023 0.279350966 -10.7681713 
24.1413403 -0.733509719 -19.3294048 
14.9235163 -0.067960903 10.2099514 
0.9391945 -0.0277777091 -24.6376457 
18.1487961 -0.26549229 20.3956928 
-12.0066147 0.11648719 -4.12443924 
23.6574688 0.786523044 -9.12015438 
-22.6292725 0.308238089 -5.46995687 
23.7717953 0.41538763 -13.7578478 
-5.10090637 0.655043542 24.962801 
-18.880064 0.319408268 -5.85166693 
0.876402676 -0.188187599 5.24426079 
15.5516806 -0.0670270845 3.48318028 
23.6025009 0.848875165 -9.43466759 
-17.6294785 0.0229349937 9.06008053 
-12.7430267 0.122550592 16.0403252 
-19.7583733 -0.312377959 10.5873547 
17.1623306 -0.417108089 -12.4462185 
20.8622952 0.22648111 5.05474043 
-14.4370413 -0.282682419 -13.2516747 
-5.89201736 0.138230368 21.7576237 
8.71420956 0.471041203 -9.28790188 
-16.1525307 -0.0390304476 17.5939732 
23.1611061 0.364864379 -14.3050318 
21.0230618 0.742418647 12.423171 
-1.52518892 0.500643134 -17.4259052 
10.2452822 -0.0680382401 -21.6920357 
15.2653179 0.326014102 23.1177139 
-11.5959902 0.203542531 9.37542248 
9.27486229 0.399756312 -11.3304052 
-0.97689414 -0.246087641 15.6907749 
-16.1727352 0.116076037 18.936388 
18.5094357 0.391555995 3.08294296 
-9.72793388 -0.780936718 -12.5735426 
7.78551435 0.262459725 11.8055096 
-9.37933159 -0.736770511 -12.4225979 
8.65960407 0.520381391 -9.70259762 
-20.1948128 -0.0605171211 13.3166361 
23.3420162 -0.195541188 10.7436066 
2.91780233 0.0597478449 15.9756517 
-21.7041588 0.0422301404 -8.07331467 
-2.00009227 0.0194967166 8.3995533 
-22.1187687 -0.038075529 -22.9049892 
-22.9104729 0.512335777 -8.37345028 
-6.93821192 -0.783942044 -9.76501179 
-18.4286461 -0.132587746 12.6007395 
-7.26041508 -0.340720832 8.16685677 
24.6441498 -0.518037438 7.4905715 
-10.3987408 -0.0188958049 -5.66704845 
-3.19169784 -0.446873963 -0.967003942 
-17.2619419 -0.0514899865 -14.4349747 
18.3749676 0.479474634 8.48726559 
22.8920918 0.351592332 14.0938177 
-1.58804846 -0.397702098 -2.4111743 
22.144825 0.137675703 4.31634045 
21.4454422 0.530194163 -10.044899 
23.7456875 0.821144104 -9.90455246 
-20.0558376 0.190694571 -10.8311167 
15.1604233 -0.0386725552 10.7686653 
-12.9186811 0.317326933 -3.07806563 
-15.9035168 -0.296132743 -12.7108326 
2.59336305 0.12334837 5.63507271 
-13.7072306 -0.753868341 -18.2537766 
14.2485523 0.129456654 6.42037296 
-3.10895634 0.0398626216 -11.1029549 
-21.2446041 0.066958189 -7.66202974 
-13.0860519 -0.37363866 -12.8433199 
16.4605007 0.124098115 8.07948303 
-5.4754777 -0.530512393 7.5910511 
5.75010681 -0.242658347 -17.7800751 
-21.511982 -0.0981525481 18.4117603 
-24.7097569 -0.314557076 1.54178619 
-14.4844599 0.452914536 5.43639946 
-1.71608889 -0.347566158 12.1629534 
8.95532608 0.24185048 7.06370068 
-17.8913441 -0.0602081604 10.9514408 
6.26241255 0.370832354 -11.8309593 
-1.01535404 -0.429200768 21.1299 
-16.9992447 0.523755252 -17.597084 
0.0959303528 -0.0831005648 8.52679348 
16.0615444 -0.0815194175 13.4402742 
10.7909269 0.209668621 6.71977043 
-18.1085377 0.150378123 3.01996994 
-15.8459415 -0.283620059 15.7015657 
-17.1034985 -0.055434268 -5.62887716 
17.2209549 0.363200456 18.358736 
-9.79313087 0.527434587 18.3455391 
-7.58671665 -0.0476973429 14.4944124 
-23.6989002 0.216224849 -5.03012323 
-16.4488659 -0.431388527 12.0920916 
16.7065525 0.197104871 9.01096916 
-12.8331766 0.0519045331 17.4630203 
9.06818676 -0.0341684595 -14.3778162 
10.860074 0.0361067615 18.4204559 
-9.30823612 0.420051962 20.5993958 
-2.66847277 0.0313666463 -11.5885677 
3.44450951 0.108944543 -22.435133 
7.47417355 0.456639767 -11.1245003 
-13.910491 0.149292022 15.4431372 
5.31084824 0.114800997 -12.8991518 
-19.5468082 0.686080337 -19.0393753 
15.1323175 0.0676130876 6.70957232 
-12.4457607 -0.188821375 -7.00326681 
8.54170799 -0.0421210527 -17.6683254 
-24.9440193 0.0294817425 -2.59006476 
17.2091675 -0.499986261 -18.0619125 
17.6056404 -0.530772448 -16.4732647 
17.1421318 -0.471024811 -16.1507626 
3.19553185 -0.233141303 21.2310562 
-7.03677845 -0.419993252 11.0843039 
19.8416042 0.21004422 8.48984814 
-7.54329491 -0.338957548 8.46471882 
-4.96435452 -0.0571612418 -16.4649658 
22.9654388 -0.513394594 -18.3611832 
17.3850365 0.151359141 17.2737904 
3.94343853 -0.0401412472 9.76869678 
5.37473202 0.603033245 -10.95821 
-19.2395439 0.141374201 -3.07512975 
17.4862156 0.299350083 5.07087898 
-19.9570522 0.0258984976 -3.99499345 
-3.23838043 0.263811529 -14.911418 
-13.2104654 0.0692095831 -0.369896889 
