ply
format ascii 1.0
comment created by gply, a Houdini tool.
comment converted from .[b]geo
comment for more information about Houdini, try:
comment www.sidefx.com
element vertex 1272
property float x
property float y
property float z
element face 0
property list uchar int vertex_indices
end_header
-4.65191936 -0.189038143 21.2980747 
-14.0906973 0.397185475 -14.1610842 
-1.11002767 -0.457886636 -17.9570827 
20.8608322 -0.344759256 -23.1466732 
12.9345675 -0.0473068692 9.29354954 
10.9621468 -0.0609225929 18.7109699 
-8.93272972 -0.588156939 17.0357113 
19.8702698 -0.0966963023 -19.8618145 
23.9389572 -0.0904506072 17.6886253 
-16.8122559 -0.341602653 -18.9552746 
6.21723318 0.416638643 -19.3515072 
4.14294863 -0.110579267 -14.3134136 
7.94050884 0.076275371 12.0123854 
6.96908283 0.186749697 -16.5762424 
6.53114796 0.400993079 -19.0095692 
-2.81497455 0.209084347 18.2140656 
11.9507523 0.311566055 18.2310028 
-17.4414845 -0.213826954 20.2932968 
3.38898826 -0.165821224 -15.2418642 
19.6542034 -0.394858062 -22.8723087 
-11.1599112 -0.507889032 15.8012877 
-17.0355244 -0.290933758 -17.0465488 
-14.7704325 0.220372185 -15.7050638 
0.463678777 -0.481319159 -16.6824684 
5.9386549 0.192733675 -15.2970209 
1.33055937 0.19256112 8.76008129 
-13.1000538 0.419075698 -14.0590506 
-13.8360519 0.485494435 -15.4445229 
-7.90729761 0.343629807 -15.6452122 
-9.51215553 0.296912283 -17.4435368 
21.7558632 0.199373156 -24.3381882 
-4.10534954 -0.166666687 -16.3761921 
21.6550732 -0.0160647649 -20.5886192 
18.0268288 -0.0681955516 -0.661496341 
-1.6015296 -0.489578217 -17.5024242 
-1.09398675 -0.500563502 -17.1098309 
13.4067059 -0.0876347199 -15.2213335 
-9.91733932 -0.446265459 15.3366508 
-13.399085 -0.317365795 17.1152382 
-8.87072468 0.242291033 -16.1989689 
-18.4687252 -0.361732066 -15.7973557 
4.40314293 0.154498249 -15.3637733 
15.3972616 0.566060603 -5.59203768 
-6.5674305 0.643770754 -11.9533644 
17.7494259 0.144060209 -2.9196496 
-2.0334549 -0.144053698 5.57913017 
12.2997293 -0.203336209 -16.6106701 
12.532795 -0.0759239048 -15.3653688 
1.78180861 -0.346563965 -17.1222687 
17.3390369 -0.437546521 18.3294506 
-1.79293978 -0.343275875 -15.1207752 
-22.7777634 -0.194306538 -15.9146519 
3.92272258 0.445192009 16.772934 
-19.086134 0.072719954 -12.5624981 
-13.4482031 0.341035366 24.7612495 
9.24412155 -0.028233856 20.4741783 
11.078702 0.00747733563 -3.69165087 
2.24132514 0.291433483 16.262373 
-16.1740799 0.019701466 22.4477673 
13.7661982 -0.323319882 -16.625452 
7.52847624 0.0414095074 17.0233936 
-1.99770594 0.338726431 -4.21187258 
24.6949463 -0.0641731918 13.7876759 
4.65970898 0.302558511 -17.687212 
19.5832863 -0.534394562 14.0284786 
12.787612 0.494161934 2.87821388 
-1.85822177 -0.352830857 -14.8204679 
-24.636591 0.309953839 -19.3921204 
-2.93445086 0.387648702 17.0600433 
17.8583221 -0.323386669 11.5987835 
14.3097801 -0.57683444 -24.6531792 
-10.4557409 -0.458518475 -7.00264835 
-4.26422691 0.0261972323 -13.8611641 
-21.5139351 -0.330337912 -13.1291809 
-10.6546612 0.680875123 -17.049427 
-22.7230663 -0.0747885033 -18.1524467 
11.6703138 -0.189089671 8.69591808 
-11.0760937 -0.434072793 18.5798607 
-19.5522003 -0.342651427 25.040823 
3.61968899 0.0920557827 -18.3779144 
-5.90406704 -0.0766111612 18.0772991 
-10.2462339 -0.484436899 19.7584896 
-0.648725152 -0.216152057 -23.6418877 
21.6423645 -0.0273194723 -20.7405853 
9.9892416 0.152059317 -21.5564003 
3.8815105 -0.14544709 -1.36588264 
-13.5155773 0.407242388 -18.9206409 
21.2289066 0.162329763 -25.0562859 
8.53081131 0.37706998 -17.6081238 
-9.52055454 -0.460753947 15.7686262 
-0.754532218 -0.379266173 -14.7083464 
6.57274151 -0.0317669325 -14.2469616 
19.9598866 -0.370566219 -23.6167259 
-4.5290761 -0.496746182 -19.3195286 
-1.20646381 0.760781825 19.1953831 
3.33531618 -0.367753476 -6.03112555 
5.79010487 0.323222786 -16.3728886 
-8.22761726 0.121002413 -17.1378689 
-10.4526396 -0.380787849 14.5982113 
-7.61426163 -0.24936825 23.170826 
0.10351716 -0.48210904 -15.7988911 
-14.9875422 0.185981601 -16.1732025 
7.06049013 0.01813199 16.4984035 
21.8246689 0.0620540008 -0.157947719 
-22.6412048 -0.00793451816 24.0482254 
-0.598760426 0.653595209 18.0592251 
11.1058702 0.0486171693 19.2238293 
24.1823177 0.966263056 -23.434988 
-5.14360332 -0.17449148 -15.6049118 
-14.7182417 0.565912366 -10.8737078 
3.70663428 -0.303911626 -5.89143372 
-12.8798752 0.554198682 -17.2684345 
15.0303259 -0.176255837 15.9961147 
-0.0278036892 -0.361115634 -16.5258427 
-1.26445723 -0.117265716 -1.12251937 
-8.35556126 0.347337604 -15.5099859 
4.34624529 0.239845961 -16.7503262 
-19.9762955 0.444633543 12.9756651 
6.54260254 0.201220572 15.1254826 
7.99389648 -0.146384299 -2.45916796 
-2.58600998 0.419815212 16.4951115 
-23.0785236 0.128274456 21.2547379 
-0.813447118 -0.213556156 -23.7752209 
-9.36075592 -0.418063939 16.2435913 
-21.5395813 -0.361454129 -15.6646967 
-11.9600382 -0.59716171 14.4254379 
-9.23686123 0.63438648 -14.0048466 
-23.9823399 -0.205385834 -16.1301537 
-0.619146109 0.598943889 21.1072845 
-1.82919133 0.557401359 19.7293701 
0.831729174 -0.459013551 -15.8632526 
23.4461308 0.579760373 -21.1103058 
-11.3960981 0.322640181 -14.0423861 
-14.1264877 -0.0407812223 16.9675007 
1.89452434 -0.10782373 -21.5478554 
16.1476841 -0.712332726 24.9775696 
1.66162586 0.00238373294 -4.30332184 
-2.3084445 -0.640144289 -18.827507 
23.8069172 0.287872493 -1.69849372 
-16.9210434 -0.0892769992 19.51021 
4.29476357 0.507911921 20.6565475 
-23.9575119 0.106750138 -17.6738338 
-15.1552706 0.225393623 21.9175758 
11.8995199 -0.267359406 -19.2406197 
-23.8329601 0.0175288636 16.8063469 
12.4066191 0.136132255 18.4762249 
12.9726238 0.0936876759 -13.9768152 
-0.116412245 0.41880399 16.9758148 
-9.04108047 -0.522588849 16.8522072 
18.6716652 -0.257811129 18.4902096 
19.7943172 -0.0970151573 -19.9669189 
-15.6122684 0.170172155 -15.4253807 
23.5537109 0.146765098 9.52127266 
12.9972982 -0.0471023954 15.0892735 
-12.211236 -0.269760549 18.7772942 
-20.0095482 -0.254839718 -14.0512228 
23.8109684 0.0600437522 19.4865208 
-3.4155457 -0.0372937992 4.42633867 
5.93714333 0.342179716 -18.0570145 
4.02702141 -0.37883538 -4.50592041 
6.75666332 0.313845456 -22.6307983 
-20.451664 -0.448034525 -18.1160088 
3.25170517 -0.194065884 -14.387929 
6.91292286 0.116841301 21.5644188 
7.7432189 0.52103126 -18.3722839 
20.2827339 -0.351723969 -24.1894436 
-11.8376741 -0.496448219 16.9908428 
-16.9261875 -0.333728701 -18.2810135 
-13.1938992 0.289566755 23.3875465 
-22.5793724 0.0790155604 23.1341019 
9.04574108 0.252434164 -18.6076756 
-13.5588484 -0.290377647 16.4337349 
10.3458967 0.0976341069 -23.7699203 
-0.0767789409 0.206454307 15.6345119 
5.52162218 0.403816819 -16.4575863 
-2.60749507 -0.560536802 -18.5362549 
11.6174526 0.15887633 15.5370359 
6.07038546 0.185721546 16.5988159 
2.42986894 0.299807221 7.36090374 
-6.61703157 -0.386557966 18.35252 
13.6991415 0.0231113974 -14.4852762 
-19.5021744 -0.398841619 20.9769173 
0.550547361 0.0900144875 16.1820545 
-3.31744909 -0.40854165 -19.2739143 
-5.16586924 -0.162427261 21.0828495 
-23.9191608 -0.113877185 20.4340076 
14.2861662 0.57613951 -6.32926607 
1.48330736 0.756568372 22.106348 
-2.93353271 0.322792798 17.5262527 
11.0025558 0.227965117 15.0418148 
-3.59132028 -0.0412048399 18.4572105 
7.23395205 0.162480056 -15.2549372 
-12.8592844 0.440042675 -14.8131771 
10.6915951 0.201576233 14.3342295 
6.27880812 0.0782743096 14.0908804 
-4.07890177 -0.570604265 -19.9431324 
22.494833 0.0554307699 2.96748018 
-5.06290579 -0.0928592309 7.99328423 
-6.83159733 0.22764954 -8.39358902 
-2.88151431 0.35436368 17.4587727 
21.967844 -0.438746601 11.5092459 
-11.4966545 -0.390791744 20.5574989 
-2.62694836 0.132844865 1.12230194 
-5.25495338 -0.0499368869 18.9703941 
0.765115798 0.675532699 22.5376816 
-1.40598178 -0.414493471 -21.5543461 
-10.8449116 0.652698994 -16.6644955 
19.1890049 -0.394577265 -21.0461617 
-15.0386829 0.270308584 -13.8640862 
-1.92231441 -0.338200092 -14.6032286 
13.2785778 -0.176508203 17.038599 
9.78007507 0.117488444 -17.4148159 
13.9295883 0.274957359 -12.4496918 
-11.0608835 0.673534513 -15.5904131 
12.3853083 0.118700482 17.1184006 
-21.2540226 -0.162571967 24.374815 
7.38046741 0.200082317 -16.0550194 
-4.03618813 0.262669146 15.747366 
24.7624741 0.532656491 1.22540998 
-4.33347559 0.255294263 14.1440334 
14.5397415 -0.672520936 18.4989605 
-12.5775518 -0.412671924 15.0861454 
6.63711786 0.101081461 7.60195446 
-19.5433064 0.430363595 10.7047186 
-9.55093193 -0.451407313 14.8116665 
-22.5726585 0.159034505 13.8418236 
-12.4364214 -0.206490934 18.9060059 
-18.80233 -0.53383404 -18.9657726 
4.36489773 -0.0654674172 -14.3361511 
-4.06831408 -0.288876534 -17.407671 
-13.6532612 -0.267933875 16.7715874 
-20.9368019 -0.198566392 21.6247234 
24.7790737 -0.0795964152 16.2415733 
-11.8377714 0.588363171 -15.6053171 
-1.99081016 0.598830521 19.0628719 
-4.20017052 -0.184034362 -16.9157772 
10.1866179 0.199356571 -13.7409439 
-9.95022202 0.0648895055 -20.9312286 
-8.32901192 -0.63325572 14.8683996 
14.5506783 -0.17686522 5.30208874 
-25.1530323 0.470303595 24.8539925 
16.7007904 -0.0754805878 13.8614388 
-5.7737608 -0.0449185334 14.5651226 
7.81646442 0.106727332 -14.7541723 
-0.873535573 -0.505447507 -20.5793896 
10.1445456 -0.0349618942 17.4032402 
-1.19183207 -0.331459999 -22.42626 
-18.9566746 -0.387911081 20.7796478 
-22.2332039 0.118420139 22.7937737 
-3.0560782 -0.237804249 6.18461466 
-9.56169796 0.321688265 -17.6903591 
-12.7696486 -0.386642843 15.1886139 
22.1410522 -0.332309902 7.65744209 
-1.26443028 -0.51476264 -17.1265125 
5.75450277 -0.115985483 -1.18925953 
20.5052319 -0.0373920836 -19.5637913 
9.72687054 0.292618275 -23.9560108 
-24.0210266 -0.120324261 20.3122215 
-9.09574509 -0.0367349684 -18.9191246 
-11.0779247 0.537546456 -18.4081612 
-14.8836088 0.197959214 21.7640629 
-7.28026295 -0.384676963 14.0397301 
18.100462 0.205093578 -8.25440502 
-18.6861477 -0.402793109 23.9025497 
-10.1330118 0.552059114 -14.6139946 
4.44819689 0.219710737 -18.5110226 
24.1482201 0.559050441 -20.0323162 
-23.0750294 0.489406049 -1.07857096 
-23.2155437 -0.130765378 -16.2721329 
-19.0986118 0.118065313 -13.4712238 
2.35140657 0.427686989 17.3290634 
-10.095129 -0.454908252 19.0716019 
-14.7692347 0.314314604 -14.0699224 
-8.36985016 -0.532683849 21.0799065 
1.76260197 -0.0855986103 -21.1432343 
-7.08648157 -0.548960805 18.2487259 
-15.509985 0.221246764 18.9077835 
-7.45804882 -0.582277596 16.4028816 
-1.5631392 0.348641396 13.6118593 
19.280592 -0.183509946 -19.992054 
18.870718 -0.325238556 19.4744816 
-21.898159 0.61661166 1.98702049 
5.0352149 0.511354148 17.4991531 
-0.359375894 0.503689408 17.4786854 
10.7067175 0.0343165249 -19.6638927 
-22.6585121 0.130597264 19.8802261 
5.654778 0.351784199 15.9444027 
15.2790947 -0.352921188 -22.9086342 
25.0618191 0.529464841 6.16873693 
11.9935884 0.145066813 -14.1000643 
-9.51993275 0.250658542 -18.0675888 
18.0139446 -0.244852483 -24.4982567 
2.38088942 -0.0937071741 -18.9427528 
-7.99083185 -0.645253897 15.2698994 
16.0669651 -0.246535182 -20.2574635 
2.01110172 -0.337601572 -17.3154354 
-11.0286407 0.577461004 -19.1491051 
-10.8999414 -0.179729357 -0.0741808563 
-7.08965445 -0.277325362 -19.0437584 
-3.94228053 0.260700792 15.2186098 
-1.48222041 -0.527684271 -19.0645065 
4.92905331 0.32302621 -22.1530914 
-0.321426809 -0.518475473 -18.2196751 
0.666917086 0.219070196 11.0726776 
-0.627420187 0.434862375 15.813673 
-0.356745124 -0.134082228 -2.3411262 
7.88805628 0.504888892 -23.9074001 
20.8467617 -0.270136297 5.03899288 
6.68681908 0.0165234711 20.849411 
7.57621002 0.358322561 -21.7848682 
-24.3245411 0.509762704 7.01910353 
11.1505566 -0.253554344 -24.4421864 
-5.21978331 0.0667836368 13.8905554 
18.0351086 -0.433080256 -22.1239662 
10.1475573 0.216281727 -16.6862679 
-5.60875845 0.258970678 -1.94169903 
12.5534105 0.023931995 16.1228638 
6.00030804 0.429346412 -20.936367 
-9.19113731 -0.0271525104 24.2057228 
9.36755657 0.272917598 -20.191431 
10.8416128 0.392024934 -15.6246176 
2.2728529 0.266965181 15.7565212 
13.8423595 -0.558261871 19.063633 
9.40207577 0.310613304 -22.4451389 
-13.9847221 -0.118636265 17.8481274 
10.2676907 -0.0860123038 19.4021149 
-20.3693962 0.0704533011 -1.13988101 
-2.60359049 -0.227772683 -14.925539 
19.4920578 -0.309187323 6.29652643 
12.9196806 0.461771727 0.138686001 
-9.89432526 0.435482323 -17.4875641 
5.55750322 0.336782277 15.6571789 
-17.2722912 -0.258914888 -15.9180918 
-6.88073206 0.0690811574 7.33688116 
-7.41419601 -0.532527149 14.418272 
-4.92971897 -0.576950252 -23.2281265 
9.73178577 0.144066364 14.1551647 
-13.4085026 -0.347601533 16.4525509 
-9.80390358 -0.363416791 5.10442638 
-13.3539181 -0.335646302 3.8719492 
-5.30354548 0.120647788 17.2762833 
20.0572052 -0.0669124201 18.7523422 
3.20050073 0.0417451933 -20.1899567 
-17.996088 -0.397177964 21.8819351 
-8.39665604 -0.263643235 23.5278015 
-24.555542 0.563116312 3.62254024 
-2.71482587 0.369264603 15.3102598 
-13.4518766 -0.267910987 17.3865776 
-21.0579529 -0.210435376 24.3176441 
4.07486773 0.129617423 -19.3963051 
-1.17332959 0.398846239 15.7823687 
24.0799732 -0.114541695 16.1373158 
2.14962959 0.786051691 21.7775936 
5.49573565 -0.529628515 -10.0835333 
-2.3375864 -0.287815422 22.8191204 
-21.703167 -0.411761552 -14.476141 
-20.9006977 0.299752593 -3.57945418 
6.83742714 0.444890678 -17.8122444 
9.50409603 0.331330001 3.31251764 
22.4170437 -0.338937163 14.2790699 
-21.3510075 0.0853708386 19.1775455 
-22.2915878 0.187588438 16.6644268 
17.2527084 -0.29535231 14.9640894 
-14.8358326 0.254268914 -21.716814 
-22.2113323 -0.443685591 -14.596426 
-1.61231971 0.591177642 16.8997059 
-5.81737185 -0.102859914 18.9657593 
-0.518831432 -0.400519282 -15.2859259 
15.7582903 -0.0712051094 15.0469189 
-7.95674419 -0.220165431 24.1926556 
15.1750479 -0.621660471 -24.467205 
9.31447411 -0.101182774 15.91395 
4.48072577 0.543217361 17.1299725 
0.0376626551 -0.140258133 -22.0990257 
-1.12747324 -0.493719608 -18.5651283 
2.0982163 0.0299253538 14.1201811 
14.2069359 -0.0308760572 -21.3592033 
-6.92727518 -0.48174414 18.2007618 
-22.2861881 -0.156767726 -17.358469 
-10.279212 0.501487792 -14.0308123 
-8.35897446 -0.231992334 10.3501177 
16.4186459 -0.212331995 -19.5686855 
-21.4943657 -0.194205254 23.8168869 
7.42901754 0.502450645 -18.276638 
-6.49320078 0.0438308753 -14.3156633 
-14.6777525 -0.041449938 16.0454845 
12.3532963 -0.0298524685 14.2794733 
-5.84251833 0.0283690039 13.8085709 
15.9552221 -0.190117598 -19.4473343 
-17.2281704 -0.209988803 20.6961632 
7.62840366 0.306740254 -21.1233578 
5.64540339 0.429688215 18.4238701 
7.55705976 0.31628108 22.7476578 
-12.6977272 0.697000504 -18.9258976 
8.95034409 0.110768944 2.80047202 
17.6437511 -0.344674021 18.4397297 
7.23965311 0.0691790804 18.2858868 
8.22578716 0.418613702 -16.7593212 
4.30250359 0.324791253 -22.4804554 
-3.59620261 -0.315066129 22.1700459 
-9.31973457 -0.0464252643 23.5722656 
18.013504 -0.114314675 0.415849686 
-21.0257778 -0.38981843 -18.4717445 
-22.1603165 0.570367455 0.979180157 
-4.81593847 0.0945939943 15.2148113 
10.7937813 0.232690081 15.6934118 
11.4157915 0.207860544 14.7728968 
12.6284666 0.356298864 -5.45255566 
23.0818481 0.513340116 -20.9337215 
13.6411858 -0.0963345096 14.9562912 
-20.4151478 -0.344196349 -16.5541801 
-24.6543903 0.360131532 24.0699787 
14.0441599 0.490438968 -0.953100443 
21.6834259 0.259173006 -25.0456104 
12.7413769 -0.174379215 -20.6436062 
17.3247929 -0.200668782 14.5310221 
-2.16678476 -0.619868279 -17.2731743 
-4.36635208 -0.102501191 18.9385509 
9.00678062 -0.242021978 16.7082214 
18.587635 -0.25726825 18.5881939 
8.79426003 0.196873963 -14.8563128 
-18.0668259 -0.282849789 -20.90065 
-20.357275 -0.374909937 24.8804092 
-20.1392384 0.265799761 2.37257314 
-12.8431187 -0.302548945 3.39360952 
24.3782578 0.634201586 -24.3635788 
-1.3896848 0.416874826 14.2861109 
-5.02196312 -0.415181786 -18.1215305 
17.8512726 -0.274192989 -23.4414482 
13.9264116 -0.518583536 22.3686066 
16.8958931 0.143793836 -3.81300807 
18.2217922 -0.39205882 5.78489017 
21.425705 -0.241791874 -22.9333115 
21.8440418 -0.250061721 -5.41594553 
-1.41838336 -0.412198663 -14.9183025 
-2.3325026 0.0887794644 0.556531072 
24.583271 -0.0437024422 14.9078274 
4.30730438 0.154238418 -18.531477 
-3.54012823 -0.401166052 -19.12216 
-15.2482805 0.301169306 23.7135582 
-18.9093018 -0.183922991 -15.1364565 
7.71103811 0.0446888842 15.5990467 
-14.8490305 0.323043048 22.9260025 
1.15632701 0.748408735 22.3155155 
1.89083064 0.07936728 -22.6931324 
20.5064869 -0.576156139 2.80228162 
-19.9005527 -0.292114854 -15.5005922 
9.51724339 -0.151356936 17.5107613 
-14.3625603 0.218907222 -6.99371862 
-18.3620129 -0.375325322 -15.9397116 
1.47572803 -0.330187023 -14.9456491 
-5.27472115 -0.0449423343 -14.1687765 
7.76253843 -0.0516450144 17.6001339 
-16.1629715 0.0532862358 -16.6888065 
-4.92944765 0.145060644 13.8707914 
-5.21723366 -0.0169856176 -13.9330854 
16.9818039 -0.391577989 16.7047329 
21.7687302 0.38598603 23.2622852 
-3.06952286 -0.439261138 -19.0645924 
-3.35562968 -0.350470334 -16.217598 
-15.5010118 0.0730716288 -14.5561733 
-23.1231937 -0.386314273 -11.2267303 
10.3550453 0.144767359 -20.4566364 
-17.5437431 0.0671552643 -14.0353041 
-4.26254511 0.119574904 -0.778188586 
16.9477558 -0.466960847 17.846199 
-22.8830395 0.532383919 0.867920578 
12.3508244 0.107730255 17.84935 
-6.45396852 -0.300316423 15.3535137 
-4.44794083 -0.237217471 21.4265938 
-4.49722242 -0.472622931 -19.1988811 
16.0932579 -0.222791731 -19.7816086 
13.0252171 0.499179542 -2.36999106 
-0.942078173 -0.320147574 -21.6696033 
-10.3811169 -0.244311616 22.4829884 
3.15238166 0.382235229 16.3421173 
-19.9792309 -0.482561022 22.9045315 
-5.28090286 0.0843499079 17.8378105 
-4.74255276 -0.435683787 -17.9276028 
10.2913437 -0.131742388 19.0767365 
5.75614262 -0.0327502117 -0.663172841 
19.2217026 -0.0217508599 -1.73390806 
1.52517664 -0.155312777 1.88875735 
-8.86586952 0.186193049 -16.6550255 
-21.7980442 -0.419341743 -14.7475376 
23.6007767 -0.144988507 12.282279 
-2.98051643 -0.360005647 22.711935 
-10.3107948 0.538564563 -16.2031746 
-11.3224344 -0.18341136 23.993372 
4.14248276 -0.0360752307 -15.0361872 
-15.2998123 0.147310212 -15.0445948 
7.16024399 0.0707357302 17.6890202 
20.2179298 -0.000863405003 19.075655 
23.4329605 0.226243392 -2.17794466 
6.38481712 0.467148811 24.6670074 
-1.16122603 -0.435488582 -15.1603193 
8.1486311 0.287740886 -20.7982044 
-4.14574146 0.197376356 15.4687014 
13.2832842 -0.354436308 18.4194965 
-18.3898563 0.265933663 17.3165493 
-9.13726521 -0.73303628 18.6751785 
-4.67767286 -0.714953542 -21.2036457 
5.6825881 0.370926291 -16.2824669 
-3.24938846 -0.374863088 -17.3702183 
-1.06668913 0.115682021 23.4536839 
-6.14267778 -0.0989691988 -14.8822737 
-21.7979603 -0.399688363 -18.3100967 
-23.1486111 -0.0833999217 -16.6007214 
-0.291823834 -0.356989682 -19.8598099 
-12.1184311 -0.519933581 15.0609341 
10.535717 -0.0385084189 -24.1443195 
1.1405313 0.0931157768 -24.7521667 
-3.65068221 -0.536890566 23.4884605 
-17.8390751 -0.387196988 -17.1153545 
-8.68898296 -0.33559528 23.1972446 
-2.14886618 -0.644758701 -18.9838238 
-0.111889422 -0.205147624 -22.5391483 
-6.31761551 -0.0624650121 21.1948948 
-6.29965353 -0.628540456 -21.4629765 
-21.6639271 0.0119091794 21.2445984 
-16.4965363 -0.261287451 -20.7695255 
20.2177181 -0.515508235 14.6719389 
-24.2770481 -0.247332856 -15.7340975 
-7.02969027 -0.48500514 17.4057369 
-9.96461391 0.464286804 -16.1801205 
-18.5405827 -0.431539953 22.3788013 
22.2769775 0.324977756 -24.7690315 
-16.6192303 0.180196062 -8.44335461 
-23.8916893 0.561546385 -1.31867552 
10.1619778 -0.0488551185 22.6245518 
9.55995846 -0.102244623 18.2307663 
-3.83855772 0.161146939 16.7787495 
-19.1427917 -0.12969698 19.6542282 
-20.5172482 -0.344421417 -15.89606 
16.4446201 -0.462195396 17.1595421 
-13.0651054 0.555018127 -17.5024605 
-7.83978796 -0.729372621 17.609745 
-13.6713066 0.421321243 -14.2605743 
-14.6412973 0.0537948571 19.8176022 
-4.83782911 -0.581934273 -19.4154186 
12.8832064 -0.0968497172 17.1820698 
0.198954985 -0.424186677 -16.7813873 
-4.05263519 -0.345247835 -18.2063046 
-17.2297993 -0.318432361 -16.9853706 
-10.0648956 -0.4384498 15.3318357 
-23.334856 0.129501015 -18.4754658 
5.97242355 0.279060811 -16.6186695 
18.2933598 0.177520841 -1.98649359 
-6.10245514 -0.254729599 17.5380268 
-12.8303452 0.489944905 24.5202656 
6.4927063 -0.0375297964 10.0816822 
1.98564732 0.589478433 20.0366364 
-4.00886011 -0.0510274209 -14.1588345 
-13.0817118 0.575329959 -16.3068504 
18.3977718 -0.205093458 18.2231903 
3.73122478 0.412115097 21.9883041 
-3.01212764 -0.412170798 -17.1263428 
2.14226985 0.520142257 18.6709023 
19.968996 -0.331158042 -24.6152649 
13.5795374 0.86881721 -8.00733757 
22.7994347 0.503266513 -23.7938023 
-24.7361412 0.383770496 22.7731743 
11.2808142 0.234575734 15.4523506 
6.84098768 0.113508478 -14.5204353 
5.15206718 0.0775949508 -14.8923512 
-0.491819918 0.304743022 14.9603615 
16.3079624 -0.489971966 17.4171181 
-21.3552341 0.77724582 7.24884558 
5.75887871 -0.174071103 12.0230398 
2.63362122 0.0808757395 -21.7547607 
21.9610729 -0.16770266 18.2634239 
-19.84091 -0.368978918 -19.3360481 
12.9457979 -0.310097545 20.1809616 
1.72314465 0.439408123 18.0072594 
9.65315437 -0.37219131 -6.97106886 
1.49573064 0.251014382 8.20745087 
-24.5715561 0.291441649 22.4266911 
-11.8353691 0.790170729 -21.1349468 
-11.1772871 -0.49690783 16.6749687 
2.51960754 -0.136658013 -16.9780178 
20.0054989 -0.279933661 -21.9586754 
12.1941919 0.0833211765 15.5755091 
-7.27042198 -0.0665612519 -16.8872128 
-7.2877655 0.267399132 -14.457304 
2.19774294 -0.238208145 -16.9752522 
0.489342064 0.0630097538 15.8400745 
-0.240523607 -0.0718254372 -25.0206814 
-5.74024057 0.0524438918 13.9566517 
7.22474051 0.407182276 -20.5793457 
4.14639711 -0.231873572 -2.52548838 
-14.9766407 0.284656078 -19.6994534 
-13.3718424 0.389968187 24.9084663 
2.57296109 -0.42254743 -14.4451103 
-16.283371 0.0501666553 -15.088316 
5.48621273 0.351038098 19.5916214 
-3.00837493 -0.221992105 -13.8896551 
-1.65761828 -0.27059558 -13.1218853 
-1.36727858 0.377526104 16.1615524 
5.3863492 0.173799649 14.6854401 
-8.75341415 -0.535540879 16.3151226 
2.3167305 -0.00173743872 -21.5835457 
2.59075737 -0.109640613 -17.1254654 
-9.88637066 -0.131991223 23.4867382 
-2.22005129 0.58750999 13.9600172 
7.13777828 0.589245617 -24.7985458 
4.47584009 0.557085395 18.4171753 
-16.5704327 -0.382602423 4.85229301 
-8.34033394 -0.595460355 15.6213255 
0.51375097 0.427007377 18.4082966 
-11.5353985 0.476370335 -17.15938 
-20.5466175 0.246525198 -2.74297595 
-18.0233383 0.324559718 10.8958511 
-3.46286058 -0.606464326 24.5980663 
20.0912876 -0.0364393704 19.4451313 
13.0218534 -0.414009273 -23.9475574 
2.40677142 0.315731853 16.3334179 
-7.30395222 -0.489483446 18.9239883 
2.4738822 -0.382667422 -15.1210594 
2.92751026 0.0150831658 -16.8189545 
13.1142073 0.156161338 -13.8375053 
-17.4799004 0.246157631 -7.06310225 
8.04461765 0.54960674 -18.096817 
19.6781807 -0.369088531 0.204790175 
-11.966073 0.529109418 -16.5561771 
1.13195825 -0.35097605 -18.081686 
17.7576313 0.0412612967 -12.8783674 
-21.9954166 0.7691378 3.91374993 
-11.8035774 0.163426489 25.1339951 
-9.51347542 -0.447622746 14.2315998 
-8.20515823 -0.010695586 -18.2305622 
-10.9272156 0.740997553 -15.9154625 
11.9544754 -0.143456593 -21.7733574 
-10.7355328 -0.577670634 16.6864395 
20.5577679 0.0772283077 19.3750019 
5.92191076 0.355258942 -18.4276695 
11.2770081 0.252618343 15.8887463 
1.27126646 -0.321799189 -15.2220306 
-5.01343393 -0.0115181543 -14.2198954 
-2.99563909 0.00523281656 18.9377651 
9.96677494 0.248450577 -16.5114632 
3.72025299 0.146786958 -25.04105 
-1.5204972 0.101340324 1.19473457 
5.79081106 0.363674849 -18.5616474 
-5.57273102 0.0106022023 17.8820515 
3.13331056 0.0732640326 14.738327 
-12.7899733 0.556960344 -16.5871906 
-8.94390392 -0.590529561 17.1999435 
8.15842915 0.000565529859 14.790123 
-8.11266518 -0.183576882 24.5325451 
-1.31754279 0.799332023 18.1975231 
-4.4030509 0.204337209 -1.78220201 
0.0978075638 0.647045135 20.3302784 
-14.7712517 0.425279707 -18.6673183 
-11.0631866 0.541886508 -18.0182877 
-8.96862602 -0.0450494103 -19.0399513 
-0.222908288 -0.422572196 -17.1561699 
-12.6630449 -0.38928768 17.5174313 
-3.21439362 -0.380400598 22.6497974 
-3.53172851 -0.118105806 -14.0799656 
0.188816905 -0.15711467 -1.40736878 
-3.23780751 0.303344518 15.8197412 
16.9348984 -0.571744382 19.2756214 
-5.88387537 0.020456532 13.9798689 
-16.1133175 0.142342165 23.1871567 
4.1134181 0.63090229 18.4118462 
9.16370583 0.199286923 3.08805943 
-4.83099031 0.00718750618 18.4914875 
-19.6142788 -0.253309548 -15.341444 
-3.09748268 0.345770419 16.6614361 
-19.3199806 0.221181005 -8.14224434 
-12.2432222 0.0635435879 21.54072 
-21.6948032 0.056990508 20.8910103 
-2.27348351 -0.657068491 -23.4126778 
-22.4986897 0.808680177 5.44797516 
-22.7262058 -0.134223729 -17.2871838 
18.8207932 -0.473537624 -21.1394138 
18.5365829 -0.311052591 14.6456556 
-0.709527016 0.337724835 15.1139956 
-3.51124048 0.193034902 -0.65693295 
-3.79706335 -0.231767684 -15.4749241 
-1.45997548 0.578176498 16.9159565 
-17.3183537 0.0590999126 -14.2264023 
1.89781392 0.123230897 -22.844759 
24.1133175 -0.115354687 -5.65521669 
7.54733419 0.101172693 14.479701 
-8.05424404 -0.365149796 -5.3660984 
11.3729401 0.203286067 15.5759878 
-13.8595743 0.481098384 -17.7435799 
2.95176649 0.634589493 20.2706699 
5.22448492 0.213138714 9.78947544 
1.51493764 -0.351986945 -16.192421 
-23.6757431 -0.19593142 -15.7986345 
11.2409601 0.259153724 17.3329449 
2.03917313 0.293182731 -24.6190586 
-19.7937126 -0.572721601 22.6545334 
-1.23380184 -0.134093881 24.060627 
23.8386211 0.749202371 -24.1339397 
16.8855553 -0.272737443 15.8030739 
-3.8291738 0.19973807 -0.644803107 
23.1976566 0.625763953 -23.5838852 
-5.58327675 0.0224249177 14.854269 
17.7448196 -0.418481052 21.679245 
16.5723591 -0.267706245 -21.6764374 
1.71603668 0.204456255 16.6150513 
0.947531581 -0.386502147 -14.7124662 
-23.6566238 0.244051784 24.4229259 
14.6462831 0.00857837312 -19.9016705 
-10.4535322 -0.562331975 17.0566921 
8.10536766 -0.199393585 -0.611281753 
-5.49559736 -0.100809515 20.6110077 
-23.0939751 -0.0579152331 -17.6202526 
10.5509653 -0.036697302 17.8838825 
-4.80779409 -0.10800954 20.0123386 
-12.4482059 0.373871386 -24.8227482 
5.71109295 0.479819596 -21.7489758 
2.71963978 0.22669293 5.55017042 
14.4367199 -0.632517576 24.1167927 
-7.25504732 0.250511229 -14.840435 
-10.8474312 -0.353038311 21.246233 
2.35048413 0.747394919 21.9185429 
15.1621161 0.349405825 -3.68835998 
-0.0446854234 0.591068625 22.1380844 
-5.55581474 0.0958443731 14.2652636 
-6.12262583 -0.152341664 19.655653 
-16.7368546 -0.151336223 21.190155 
22.0199966 0.120610878 -19.9021797 
12.0906763 0.221368343 18.5334549 
9.37724113 -0.140924022 16.1629887 
19.8955231 -0.415117741 -22.8111801 
19.9092064 -0.394385636 16.1682873 
3.36882567 -0.197849318 -1.36594725 
11.1136456 0.0268346407 -22.0090694 
17.4672108 -0.419358969 18.7377777 
6.21489716 0.0127442414 -14.7155266 
20.5100346 -0.190573618 17.8532238 
17.3272877 -0.445881575 18.891449 
-21.5829124 -0.24148269 -16.6087246 
-11.6588478 0.507909358 -14.7114143 
-20.6329479 -0.408019692 -17.573307 
9.08504295 -0.198285982 -13.1908092 
24.5598087 0.546616971 -24.3436947 
4.99428272 0.634716451 18.4236641 
22.4983387 0.175247729 0.708937168 
6.45000935 0.0914362445 18.0669193 
7.14419174 0.421884358 -21.9966412 
20.2716713 -0.00130864978 18.9985466 
16.3342571 -0.291330725 -19.9989357 
9.40912533 -0.0650964826 18.2627983 
11.8007011 0.335646957 17.4099064 
-10.63836 0.540974021 -17.8783894 
1.15435898 -0.344422936 -14.9770956 
11.3763914 0.593893349 2.10888934 
-3.18395662 0.0671140626 20.8504162 
12.8966589 -0.0300551075 9.79693222 
-5.0713129 0.0289478227 -4.40063429 
-8.54569149 -0.776164293 18.3536015 
2.14075327 0.757982016 20.9936962 
-2.95422983 -0.380907834 22.8704605 
-6.76319504 -0.404932648 15.0085306 
-0.749513566 0.630628169 17.4951057 
11.8427706 -0.101266116 20.1010838 
-0.935377479 -0.450956523 -15.8455839 
9.13993454 -0.110598169 18.9625072 
-7.80576277 0.410917461 -14.6387682 
13.2195549 -0.00580122415 16.5067692 
8.59226418 -0.316129535 16.7555027 
23.1566029 0.14775148 -1.21040821 
-14.9354458 -0.524169266 0.0594763532 
2.32462072 -0.218840256 -17.8507519 
3.8833313 -0.166592151 1.29990649 
10.3082399 0.173607409 -22.3395042 
-2.66496325 0.331314445 17.4007549 
3.34134793 0.462446868 18.2455864 
-6.31610966 -0.201448321 -16.7645969 
24.6284542 0.955970824 -21.2988396 
-14.0719109 0.00926148985 20.1896648 
-5.3927412 0.0456884839 15.6298828 
-1.03133118 0.766817808 18.7786617 
-4.22487497 -0.121460028 -15.8096952 
-2.40395689 0.559293687 14.1106863 
4.52130461 0.291973054 -22.7969933 
22.3414516 0.184021428 -20.1720982 
10.7152624 0.00992124248 -20.3441162 
-7.06445551 -0.267577291 13.8672981 
-3.84209394 -0.196504906 -15.9464808 
17.4784546 -0.295475274 -24.0159187 
-23.5061321 0.88008517 8.66672421 
13.2964678 -0.374922454 18.8844337 
-4.28499937 -0.416535676 -18.45158 
-11.0316572 0.697288871 -16.3111801 
20.5828705 -0.403004408 15.819046 
-6.42185545 -0.328701377 16.1494827 
-3.73514986 0.256751299 15.4043055 
13.4527435 -0.421491534 18.6729813 
-17.5754356 0.0752392039 -13.8512621 
-0.216559172 0.446211636 17.1514931 
20.3116112 -0.0632847548 -20.0498619 
0.14959231 -0.457994401 -16.2477779 
24.7290401 0.929992437 -21.3922844 
-0.704486728 -0.49980247 -17.9549847 
-3.36512256 -0.377484679 -18.9606361 
22.440733 -0.247407928 7.87244177 
18.0582237 -0.217167243 17.9138851 
9.98229218 0.146124095 -20.6036129 
-0.467210531 0.251155615 -5.26373577 
-18.5697403 -0.387991697 21.0669518 
-23.9574966 0.257121205 24.0974751 
-3.23130965 0.132796556 17.9688168 
-0.871800184 -0.49343887 -19.014576 
-0.715073586 0.403408647 15.6814117 
5.72887278 0.357767135 23.7331791 
-17.9831314 -0.127927616 6.64622688 
-14.4537802 0.455386788 -18.6691246 
-3.09546447 -0.208983511 -14.2475061 
-8.63792515 -0.534419298 20.4634895 
18.1205635 -0.18303144 17.325592 
-17.3785419 -0.240102664 20.6186676 
1.47718632 -0.297436982 -14.5112991 
-18.1171303 -0.418277144 22.288929 
24.2697601 -0.0916303024 14.6045237 
-24.8831482 0.408383876 -18.9776192 
8.80888844 -0.112331815 19.3043003 
-8.46995449 -0.352126211 -2.44963598 
15.9174128 -0.313934565 -22.9531841 
12.8487349 -0.0613144003 11.7711229 
-3.43151522 -0.120856427 -14.5663671 
-8.96918678 -0.426706076 21.8467484 
7.98193741 0.37407577 -19.3866997 
7.35592175 -0.0119572794 16.1187897 
18.2149162 -0.180186182 18.1400013 
14.4749241 0.279123068 1.9480859 
-21.5069695 0.0603910647 20.2122402 
-1.0073359 0.684309721 17.643137 
20.6492023 -0.488410562 13.2104397 
21.7574673 -0.0526618063 -22.1485462 
-1.26484978 0.491556942 14.7721691 
-22.1409492 -0.159521013 24.0778427 
-6.3546629 -0.178317204 -16.8963013 
6.97406292 0.0923330486 21.3715801 
-5.27465725 -0.0855918378 5.07260036 
7.1892972 0.333646744 23.0427895 
7.21621799 0.339257568 -20.0045815 
-21.7973614 -0.237194151 -17.4040337 
13.73139 -0.491939485 18.9441738 
-21.0976353 -0.35296464 -18.0383663 
4.69473171 0.447805643 20.6118584 
-20.9992619 -0.137544259 -6.85955524 
11.6125574 0.237673134 -2.64558601 
-7.31979656 -0.623321772 15.1152401 
6.37791967 0.507240891 -19.5676556 
-4.90516663 -0.774588227 -21.8794918 
2.20489979 -0.115057386 -19.4555683 
1.43661714 0.843737364 21.663868 
-10.8231964 -0.378226459 14.4177141 
8.890625 0.261981905 -22.4213219 
17.1699696 -0.45462355 18.0420723 
-7.90430117 -0.155168712 -19.031786 
-14.9481134 0.366562605 23.4856682 
-16.8539906 -0.298124999 -18.1053658 
-4.82525396 -0.421441853 -18.2772694 
-22.6733284 1.03056002 8.61798 
-3.38509035 0.186546266 17.2909336 
-5.53800249 0.000965670217 3.82812381 
12.6131544 -0.215675622 -22.6746979 
15.4436131 0.0163050406 14.8090878 
10.6671314 0.176234126 14.5780354 
-10.9826078 0.597593486 -17.4362316 
11.1501942 0.551722407 1.93389201 
-22.1570187 -0.301837116 -18.8015633 
12.2446404 -0.262971342 -22.7933159 
10.7602453 0.235079959 13.8662243 
-0.46255666 0.0726118609 7.56212664 
-16.1378155 0.0868222341 21.4376431 
-20.1839466 0.436505318 8.01991558 
8.01570129 0.543702841 -18.2794228 
17.7463379 -0.176859289 14.0491438 
-3.79251313 -0.0857407674 19.305212 
0.157516763 0.451950371 17.8640976 
19.4650631 -0.335864514 16.3971024 
6.41466618 0.384215802 -18.9096088 
21.6294975 0.238612086 -24.915453 
-5.98171997 0.00288500125 13.7499485 
9.38788319 -0.195233926 16.4863358 
-5.69990444 -0.149272293 -15.4753532 
24.324543 0.533797264 -19.8361797 
-6.24487352 -0.125725389 19.8771667 
5.52217722 0.376425922 -22.8416386 
1.7667768 0.209350586 15.4543238 
3.79759502 0.526651204 17.9905033 
24.090435 0.827337027 -23.0459785 
2.3133378 0.0387912169 14.7269077 
-24.4897118 0.329373747 23.5730915 
3.03066278 -0.261784166 -15.1799784 
17.9509583 -0.164445728 14.9197569 
-8.13775921 -0.238177031 -20.8435116 
-14.8288088 0.327788711 -19.3804474 
-14.1583385 0.445428997 -19.3391342 
12.2404537 -0.304175615 -23.055172 
2.31334901 -0.312989473 -15.9253569 
14.608386 -0.683746696 18.3686485 
8.86021042 -0.073891148 11.0841122 
-23.5019207 0.726427436 2.98598218 
-8.81556892 -0.568643808 15.2202826 
-17.319912 -0.267529637 20.9649601 
-25.0642815 0.333257377 -18.4915657 
-4.32315445 -0.126122192 19.5342464 
11.8107557 0.181487277 16.4959812 
-7.77200699 -0.730706096 18.2289467 
3.65247536 0.283301622 15.7115755 
15.5876837 0.499340147 -4.1909194 
8.53432941 -0.167643234 18.5862446 
-11.7336512 -0.545715749 14.7918301 
-19.4498539 -0.142233968 19.6176395 
3.96124601 -0.164861336 1.93555999 
-8.8508625 -0.367681533 22.4930096 
-12.8656578 -0.267956257 2.11919594 
2.00399923 -0.409489542 -14.5170164 
-5.04730701 -0.650229573 -20.5835533 
-13.7451487 0.0396320708 21.140049 
-15.363327 -0.687617004 0.133296162 
-4.15306473 0.00020922313 -13.8066568 
1.30475414 -0.317786902 -14.4835358 
-10.8195152 0.472938925 -20.5755005 
-17.4590931 -0.130169451 19.7194595 
-18.323122 -0.0900596008 -14.9533625 
0.8420645 -0.422434598 -17.8392525 
-6.4826808 -0.221244141 -17.8221588 
-16.6801186 -0.0452948287 23.1980095 
-3.99442053 0.21315378 14.6156883 
10.255455 0.12325681 -17.2656059 
-23.2856998 0.00419368781 19.7313423 
24.1930771 -0.0800882876 -5.16674137 
-5.27418232 -0.0907901749 -14.7234631 
7.05723524 0.632343292 24.9901199 
6.74507856 0.0302647222 16.2333298 
-4.77099895 0.0595818721 15.7132473 
6.42366743 0.528104186 -19.7938194 
2.66732669 0.36852932 16.0001183 
3.16165566 0.411484897 17.9808083 
-2.68518686 0.127451703 21.198534 
8.62881374 -0.0603795871 -14.0824995 
2.70211434 -0.00743700238 14.6746407 
3.71789789 0.530435264 18.2855892 
6.57197952 0.00359227881 9.76463032 
2.79666662 0.465240359 17.9581509 
16.5157032 -0.483435065 17.5401287 
-22.8426571 0.07550475 23.7901669 
25.1871033 -0.0665722117 16.1551495 
-5.32549572 -0.220016614 -15.9969721 
24.1328926 0.811060727 -24.0034084 
16.8735714 -0.216849118 -14.6639509 
-7.41968393 -0.63608861 18.3038387 
5.22011757 0.0232355427 -14.2578421 
-24.101963 0.324120253 24.799736 
-5.22159338 -0.0809462219 -14.8733778 
15.2288628 -0.327950984 16.8035927 
13.11586 -0.0553041771 15.0948038 
-15.0563736 -0.482144058 -3.6833868 
8.2231741 0.488284051 -17.4357052 
16.0277901 0.16508697 1.11615872 
0.672826529 -0.449786425 -17.8173409 
7.5428772 0.646362662 25.0329285 
0.537801147 0.492087722 18.0205021 
12.6268492 0.0177334938 15.9830818 
24.2077332 0.348514169 1.48858023 
2.11625195 -0.411973059 -14.182126 
-17.7362671 -0.352753699 21.7116337 
-0.972348332 0.329715014 14.2535992 
9.83351421 -0.0463285744 16.0413132 
-8.14882374 0.448155463 -14.7461395 
8.05283356 -0.104945712 2.34740543 
-3.71376014 -0.295555383 -17.6151123 
5.43480015 0.308750749 -23.4205494 
-17.7401199 -0.249489188 20.0029144 
-4.55355072 -0.0944139138 18.9732265 
7.86260414 0.0162775703 15.4763937 
-5.8157959 -0.0919062421 19.2164059 
3.15160441 0.0153042022 -17.0302296 
20.4999142 -0.316243261 -21.551487 
8.4343605 0.286750853 -21.3778667 
19.3031693 -0.667463481 10.1371803 
12.1263371 -0.042078305 8.2880373 
-8.89216614 -0.295841634 -22.425787 
-1.15977645 -0.197839692 24.412981 
-9.63234901 0.38090241 -15.9665051 
22.2569313 -0.010116321 -1.73175406 
5.99059343 0.285063505 14.9725199 
7.4583149 0.492740571 -18.4646149 
23.318327 -0.271177411 16.6652813 
10.6809378 0.184508607 15.1735153 
0.372688353 -0.478783906 -16.3934517 
7.47397232 0.590001822 -23.8823414 
0.670420051 -0.133494079 -22.2456512 
-23.4017467 0.146436095 21.2971191 
13.6933651 -0.0922736749 -22.0781498 
4.71984148 0.278553694 -16.1720295 
17.6440449 0.0551603399 -4.09012747 
23.3557911 -0.183171198 17.3740253 
-10.6901455 0.651995063 -15.7328186 
7.79823351 0.362543464 -16.9990845 
-5.16326523 -0.199585587 21.5092754 
7.71159315 0.508193552 -18.4786644 
-22.5266838 -0.208203435 -15.6729984 
15.4558907 -0.793412685 18.7318039 
8.11902237 0.286567241 -21.4176693 
4.16461706 0.390416265 21.5935497 
9.7338295 -0.359968275 -4.98620844 
2.47925377 0.465694278 17.3506851 
-21.6033916 -0.263249904 -10.9098511 
5.41389751 0.39616245 -17.8708725 
2.6549015 -0.0480388366 -17.6252632 
-4.59693432 0.134713933 16.7040253 
-18.970932 -0.482727051 -18.7920341 
17.0041962 -0.21585685 14.2364416 
-18.6097813 -0.486578524 -16.322834 
8.19965839 0.150669634 21.2147026 
-1.27479422 0.371314675 15.8732109 
24.2468338 0.937567055 -23.1706963 
-6.3760376 -0.314772815 -23.7822742 
23.6491394 -0.224394813 15.2461166 
19.511385 -0.345636457 -22.5941772 
-19.5219345 0.572599888 6.17978621 
-11.9368372 0.503226459 -17.381424 
5.37243414 0.336606622 -22.8687992 
20.9750252 -0.090138793 -24.7902164 
-14.8440075 0.345671177 23.4282227 
11.4049253 0.263588101 17.2741318 
0.176846862 0.200445801 16.2159805 
4.04245138 0.554734111 18.7813511 
-20.5407143 -0.485556662 23.79039 
-14.825058 0.309919 -14.1731901 
-3.19411349 -0.427314281 -18.282217 
2.73090148 -0.201288253 0.0871417746 
-5.67855692 -0.0449437201 -13.928709 
-11.9778919 0.759065866 -18.6753826 
-12.3709774 -0.32002759 18.1505241 
-9.56235886 0.207434729 -18.3807964 
-5.43432283 0.089390792 14.2756729 
21.8487911 0.0038804193 -4.40241861 
18.3786526 -0.222292677 16.7246513 
-4.47834158 0.134613469 17.1853409 
-11.2886572 -0.629768133 12.9491167 
-2.30002451 -0.0841243267 21.9447098 
-3.74211216 -0.206311643 -16.1888733 
-11.3133898 -0.0887482762 22.9233608 
13.6321678 -0.0753615275 -21.7653275 
-14.5920868 0.44383055 -17.6893177 
4.95729446 0.464540243 16.0705433 
3.17449951 0.460620254 18.309679 
-23.5174885 -0.257730871 -10.8045807 
14.7267809 -0.0808598772 15.4050617 
4.27546692 0.0892581567 11.8545837 
5.2020936 0.226946905 14.9390049 
3.05813766 0.392957777 17.6138401 
10.1188021 0.236670122 -15.1397514 
-24.0681858 -0.283205152 -15.4519968 
0.942641318 0.244950876 17.1079693 
-9.97969055 0.0780830979 25.1886024 
4.50210667 0.439839959 16.4582233 
-7.68924475 0.256561458 -15.6083603 
9.70565414 -0.0687827915 15.358139 
-4.38760567 -0.423172027 -18.5671062 
-16.5102558 0.0150028504 -15.2024517 
10.1733513 -0.0434800051 16.0435028 
13.3085566 -0.117681146 -20.9358101 
-1.08840287 -0.181502685 -25.2230206 
-4.56064367 0.0865397453 17.8582001 
7.04363585 0.568374693 -24.3304939 
2.32326126 -0.157746181 0.8203246 
20.9736652 -0.0499150679 -24.9253349 
-11.0956917 0.546371698 -20.3571777 
24.3953476 -0.0420837216 13.9821472 
-7.62783241 -0.279313922 2.54773903 
-7.69749451 -0.283874899 23.8934879 
2.53404498 0.685234547 21.5718231 
-12.1040602 -0.547028184 15.6667852 
-16.3487473 -0.361849636 4.83812857 
18.3014145 -0.180712521 17.9766464 
-6.55457211 -0.414233088 17.7568626 
11.1607399 0.138255596 17.8378429 
6.47921228 0.062712729 20.1385727 
-5.78371096 -0.0950353593 -14.8245449 
-5.88203382 0.111365825 7.41299438 
-8.77549744 -0.642848015 14.5003195 
-12.9590368 -0.0376498103 -8.55023575 
24.1394901 0.833069801 -20.926712 
-8.37121105 0.634259164 -13.929904 
8.7337513 0.415111184 -23.4011974 
-3.44316888 -0.110464744 -14.2221775 
20.7457142 -0.0449230373 -20.0099258 
-13.1677284 0.585165143 -20.7776375 
6.84216309 0.132570192 21.8618393 
-15.57903 0.255196184 17.9392681 
21.2428627 0.0680485964 -24.6502571 
23.227932 0.633373797 -23.4252243 
8.48168087 -0.296409577 16.6189499 
24.9777527 0.281391233 -1.62825012 
-7.77966976 -0.210026205 -6.39260483 
5.6783185 0.393776387 18.7785454 
-16.4200916 -0.0990679339 10.5901613 
15.6213608 0.123066783 -1.82206893 
11.8730001 0.21956262 18.8191319 
-17.076952 -0.0749064162 24.0958004 
-18.6558571 -0.355142385 24.9556446 
-12.1095772 0.483311981 -16.5953655 
-12.0260191 -0.48834458 4.27611446 
-11.5568047 0.779767036 -19.4012566 
3.6155622 -0.075239785 14.1639633 
17.4365978 -0.33172521 -24.3604584 
9.0696373 -0.20912537 16.5482178 
4.66504526 0.26492843 -19.1808186 
19.6419373 -0.369888574 16.5097942 
6.20401382 0.414610535 -24.3773174 
-8.97206783 -0.278183848 7.71805668 
-7.75365257 -0.182197183 -18.2315769 
1.70451403 0.446255594 18.1537781 
-21.8150749 0.286907822 14.9616394 
-10.326272 0.178391367 -22.0637836 
2.6726315 0.231323183 15.5861664 
-7.54498529 0.0467759185 7.29116249 
24.1937351 0.477492124 -18.9475822 
-1.80121922 0.595816135 18.4440975 
13.0338392 -0.200407147 -22.4341488 
13.3440056 -0.14998816 -22.9250145 
-21.1510868 0.0276365355 20.419363 
-5.46439171 -0.23774597 21.6755257 
4.14155054 -0.154779941 2.08290243 
-14.6213493 0.330465943 -14.3883867 
8.82399273 0.251509398 24.6353264 
-1.83233392 -0.342423916 -14.3073769 
-8.33524227 -0.0318888165 -18.195137 
-4.93382645 -0.203162298 21.0586395 
23.3175983 -0.0813346431 18.3042564 
24.2332878 0.918550134 -23.5988407 
-16.2746449 -0.337403327 -18.5093784 
-5.01838064 -0.179707125 -16.0817986 
-0.229854211 0.247812018 15.6064329 
18.2200394 -0.463693112 -21.3505116 
-15.6575918 0.0506193563 14.3230991 
3.53207088 0.056580022 -17.2394295 
0.856008708 -0.352617919 -19.0434589 
7.19380569 0.510408223 23.8855343 
12.6078024 -0.0281843171 14.4678879 
-8.83041668 -0.0399776921 -18.6146603 
16.8506927 -0.547341585 19.1193447 
7.20038939 0.00485616317 16.1632271 
11.4892807 0.162484765 14.3887177 
7.36195898 0.0481261536 17.4443588 
-0.590683222 -0.0929517671 -0.984667003 
-14.4889355 0.403637797 -14.942853 
1.03577363 0.0952819139 14.6066427 
20.28368 -0.288196325 -24.6480789 
3.1880455 0.449869752 17.0390072 
4.6315918 0.346533746 16.1601887 
-6.8033843 0.199751541 -13.8349771 
18.289547 -0.284096748 15.4243517 
16.0698109 -0.427895874 16.6396465 
-5.48777866 -0.22098121 23.3171101 
7.79097271 -0.0824685544 18.4283543 
3.69141269 0.592580557 18.6744518 
-4.37431431 -0.758299291 -21.337225 
-0.834857583 -0.578301132 -19.937645 
19.7452488 -0.399725586 -24.0169544 
15.6485472 -0.76061511 18.8851223 
0.816472888 -0.029605696 -1.75700927 
24.3784161 0.272794634 -1.1635313 
24.7822609 0.477448881 6.07804966 
-5.62585688 -0.676475942 -19.1436787 
-15.2453337 0.254432589 24.4729481 
7.01170301 0.438817143 -18.2195873 
-16.1140804 0.113620833 23.6508961 
8.10798359 -0.188311845 18.1980114 
-14.2485266 0.418957084 -16.7350311 
-21.5934372 -0.0346038118 21.7968712 
21.3407154 -0.439315945 16.380331 
8.87377262 -0.155036256 16.2802296 
-9.90389442 0.00402084738 -19.8419456 
0.26848793 -0.466399193 -17.1656933 
2.2646172 -0.20706436 -17.1053677 
23.5005779 -0.275307506 15.726923 
-15.8655357 0.127596587 -15.6021032 
-18.9963455 0.0533093624 3.86359382 
23.6474876 0.699083567 -22.1821499 
1.86301959 0.561863124 18.6351109 
7.11002588 0.0858918056 18.039463 
-0.888344049 0.379200518 15.2108383 
12.6481361 0.0315886363 16.5192738 
-4.01222324 -0.175652668 21.3739204 
0.800748169 0.00809577946 -24.5179825 
19.7745285 -0.398765028 15.0175238 
21.4593525 -0.0508665815 -20.8070965 
-1.69311941 0.456632406 14.2193785 
-0.587230086 -0.490212917 -17.9090462 
4.07719564 0.0776175261 -18.1217918 
-0.443120122 -0.475404859 -16.1675434 
-13.6782961 -0.174439728 18.9448948 
-5.60651207 -0.382773578 -23.105957 
-0.0207274705 0.239392161 15.977087 
-4.20706654 0.119455181 17.6734085 
3.31528091 0.06539087 -20.170496 
-13.2208195 0.585591674 -16.5592155 
22.3777218 -0.281907171 13.7904606 
6.81040859 0.0447975956 17.4769382 
8.61651993 0.00600184407 1.02030206 
9.35542011 0.284765273 -19.6596584 
3.62329578 -0.107452199 -14.9209509 
15.7574759 -0.743834436 19.5645237 
7.58880043 0.0822993219 15.4603977 
-24.340374 0.267286867 22.1359406 
-17.163271 -0.0921385586 24.5676517 
-13.8164949 0.0321200117 21.7584095 
-18.1068764 -0.25356257 -15.6683159 
21.0949211 0.0989529863 19.0954456 
15.9276009 -0.699802101 19.2681389 
16.8251209 -0.470596462 17.7317009 
-11.6254768 -0.446501672 19.204916 
4.14451218 -0.355129808 -4.39254141 
13.2564449 -0.0783646926 15.3485088 
0.0667057931 -0.157060713 -0.765510201 
-20.0512943 -0.517706394 23.3599281 
15.9197855 -0.424917847 16.6863117 
-16.4034061 0.221354544 -7.67706537 
-0.60285157 0.349149048 14.8513355 
23.861042 0.285108745 -0.835674465 
-4.67255592 0.0987148657 15.577117 
-13.2015743 0.18345654 22.8759861 
4.90657663 0.343881607 -22.5411472 
-24.3588581 0.175390333 22.5416069 
7.79520226 0.427498281 -19.0115585 
-7.92187786 -0.168004841 -19.3554306 
7.57885933 0.0161024574 15.764699 
-17.2887096 -0.355840296 -17.1408787 
8.45044136 -0.0732015073 14.9879427 
3.1013236 0.168858051 15.1730108 
-12.0980797 -0.27643916 2.10695171 
10.4942875 -0.134157881 23.5371399 
-11.4336081 -0.423119485 18.4627838 
2.03799009 -0.411825866 -14.3405638 
-3.04480386 -0.884313524 -23.0545807 
7.30092907 0.0541520081 20.3811951 
13.6994104 0.443929195 1.71515 
21.9669914 -0.277268052 17.4469147 
20.6307011 -0.0974670798 -20.2076492 
9.25504398 0.0893772691 22.73526 
11.7831545 0.444701821 0.409337997 
14.0315008 -0.0815461501 -19.8573723 
8.08795643 0.138638794 21.0945511 
22.0723324 0.0423310772 -3.84647489 
-0.138829067 -0.457883984 -15.2366028 
17.4098835 -0.228112072 14.6961842 
-11.5363264 0.511760771 -15.1460829 
-2.91827178 0.415824324 16.8403568 
-20.0742779 -0.469715804 23.1818962 
-2.49797654 -0.45882526 24.1286182 
-14.5341043 0.455101699 -17.2293758 
1.967857 -0.319934696 -16.623558 
12.3253155 0.112028524 16.8733101 
-24.8392029 0.4397313 24.2958736 
-6.82546663 -0.457325637 18.4441624 
15.4978046 -0.287693024 16.5071468 
-4.33500338 -0.0997862667 19.2320862 
-0.488602936 -0.525288522 -18.593214 
-17.548254 -0.258928597 -2.77831912 
12.3924217 -0.0906527787 11.8848486 
-23.3430824 -0.0296241343 20.3392487 
9.33137512 -0.227167681 17.0322361 
4.55977058 0.26850915 22.6018829 
1.3786087 0.647037745 20.6151619 
-1.30592179 -0.45780009 -17.5498962 
2.2191298 -0.0898596272 -18.5989685 
7.37135267 0.149144068 13.9056711 
-12.6659746 0.548334599 -17.1224785 
