ply
format ascii 1.0
comment created by gply, a Houdini tool.
comment converted from .[b]geo
comment for more information about Houdini, try:
comment www.sidefx.com
element vertex 1268
property float x
property float y
property float z
element face 0
property list uchar int vertex_indices
end_header
-1.79757798 -0.313125759 -2.01200986 
12.7804155 -0.0778727606 18.0910892 
15.2160292 0.211427838 10.1448317 
-1.74765062 -0.304282457 10.7763586 
-24.4037628 0.113780357 15.8594341 
-5.6969099 -0.200847924 -18.7358494 
5.99885082 0.116451859 -15.4326296 
19.2089729 -0.342804372 -16.5325584 
0.618856013 0.366547555 -20.4196453 
2.46709108 0.402499527 -14.8438148 
22.3703594 -0.141204968 -14.7902203 
-23.5262966 0.664369047 -10.0925817 
18.4396324 0.269751459 5.13624668 
-8.08140087 -0.0843420625 -1.03936422 
9.28443146 0.0534915887 -3.18261313 
-22.8304482 -0.172282696 0.912234068 
23.5978451 0.309300154 -5.81588125 
-23.4433193 -0.609049618 23.5367451 
2.9767766 0.46581009 -21.8886318 
20.8856716 0.548294127 8.17665291 
23.5949631 0.126494855 -14.1275787 
-13.7666101 -0.208977595 -7.55368757 
-21.9124432 -0.284505546 8.02618122 
2.83831096 0.294115663 9.71792984 
2.96458793 0.0541064516 6.68705463 
-9.82049179 0.115709193 9.94685078 
24.343277 0.605370462 -11.4831724 
9.22372818 -0.105297819 22.8436184 
2.20377898 0.12814638 -7.50295258 
-22.661417 0.0025848709 11.5856771 
7.11728573 0.0290807523 17.8355484 
7.12411261 -0.0694812909 -22.1643524 
-22.8008575 -0.119372666 5.44769526 
-9.92987156 -0.0936824977 15.8225832 
1.6393187 0.439837754 -15.2755232 
-14.0055971 0.360907853 -17.202795 
1.88699102 0.105282307 1.76466858 
-16.9452057 0.343674511 -10.3044462 
-6.18731117 -0.0560696386 -19.863205 
-21.2359581 -0.255314827 9.44994545 
15.1240692 0.39080444 21.6726551 
-15.138958 -0.0675533265 7.43905735 
-13.1217661 0.0523822233 0.890675306 
-0.528196633 -0.230177015 11.5113583 
21.146553 0.381027877 10.7951508 
23.3797588 -0.608676255 -19.2253857 
6.87585783 -0.239083096 6.61582994 
-6.30955553 -0.364541143 9.74071407 
-15.8738098 0.0560060553 4.07346392 
5.51276016 0.254478008 4.30839729 
-3.1188519 -0.156331629 -7.87043476 
-16.0305042 0.345021278 7.32698727 
2.48016357 0.368167758 -0.864577532 
14.2890024 -0.45036459 -11.9214325 
5.17559004 0.152426958 -1.04420161 
15.1272297 -0.495187223 3.51490474 
-11.132452 0.0111235157 -11.9273825 
11.681284 0.0947630331 -21.6219997 
-22.2585278 -0.254266858 10.0246191 
-6.41139984 0.429477513 18.6717758 
17.7429237 0.087752603 11.4278975 
-17.9815235 0.43646732 23.0630054 
-14.6289129 -0.560101211 13.0726347 
12.2136993 -0.168713063 -1.86669242 
-23.6417141 -0.0161454994 -5.20839643 
-17.0867729 0.0791819766 18.6286888 
14.6606398 -0.242967293 6.54274416 
5.64482212 0.3472296 2.93006086 
-20.9014435 0.314329207 17.6871738 
20.4726925 0.00780973257 24.5257874 
-16.948494 0.334853202 0.809586585 
9.16289997 0.30851981 -5.33615065 
-3.41665411 -0.128239959 6.36737013 
-11.0666523 -0.00428654067 -0.832118571 
-23.8954239 0.0521770045 -3.41338944 
13.8918009 -0.493219674 0.0263468623 
-17.8979607 0.599279821 20.2049103 
-13.3772793 0.24953106 -2.24677348 
-20.0696793 0.229527801 -9.3700943 
24.1641388 0.469262958 -8.79702568 
-6.71847677 0.0136859696 -6.29887819 
19.0657768 0.501268804 1.96244001 
-2.25831366 -0.203192353 13.5222692 
-5.2977376 -0.346726447 1.68976796 
-16.1099014 -0.0562115461 18.6672668 
17.7857361 -0.141881391 -3.45683742 
-4.49065208 0.482716501 18.7748547 
-7.9303956 -0.189211875 4.80088949 
8.40287685 0.191163152 16.6447372 
-6.10928917 0.0131007172 13.8938503 
-18.012188 0.316856652 -12.3352795 
7.5722065 0.267767757 -11.2292604 
-18.6669884 0.132548466 17.4235897 
-16.5086975 0.411393851 -0.950463593 
8.276968 -0.0653577968 -0.578408182 
3.71224594 0.34380579 -17.0841541 
13.3344793 -0.202978402 7.40369272 
-21.64645 -0.312575907 7.97014475 
-0.0532212853 -0.0994093865 10.7617416 
1.05102277 0.149949908 -2.26911044 
-3.7371347 -0.564818084 -2.44082856 
-17.5809479 -0.167567581 -3.22220087 
-19.5763302 0.540213227 -15.5566521 
12.7076778 0.0176160671 7.41680574 
-22.252964 0.405069232 14.3701324 
24.1224766 0.0904757679 -1.91849422 
-4.31862879 -0.683346212 -12.1530619 
-20.0983334 0.142786667 -4.23841476 
-3.9505105 -0.269330055 -7.63781595 
-5.00044394 0.0115836663 -22.5766983 
14.5293446 -0.436629415 -12.0245914 
21.6058273 0.507017076 3.05460715 
-8.1624279 -0.0788969025 3.02753139 
9.62811661 -0.168949664 -14.495944 
-14.926136 -0.0694737509 7.00562191 
14.0841503 -0.525943935 0.159754649 
-18.0127926 -0.0902717784 13.3575554 
5.69894505 0.0302709546 12.591691 
-18.229208 -0.36730814 -1.20418 
-2.06545353 0.23663418 22.3333588 
-19.6640739 0.275263131 -11.2448435 
-11.0371866 0.206808656 9.55521107 
6.25772667 0.109079957 -15.008729 
-24.5059357 0.185215861 -4.82243156 
7.05552006 -0.0905293152 7.41858196 
-24.6554966 -0.0513489135 -2.52358294 
-6.33137846 -0.68307066 -13.0210333 
7.02693081 0.2781654 0.986774564 
8.2116518 -0.211066812 -18.1278667 
3.28028297 0.155349791 -9.13054276 
-2.29613066 -0.114282675 5.5723815 
-22.2528286 -0.248555109 9.55508804 
9.07612419 -0.11398387 5.36248207 
22.2699585 0.298112839 12.1915493 
10.5915785 0.00841141492 8.22811031 
2.70734477 0.162499592 6.06152391 
-4.0110383 -0.526761591 -13.8959007 
14.191165 0.30313912 9.26761532 
14.98839 -0.0231105667 -18.7080593 
-13.7880373 -0.290274143 -6.39665508 
5.2274003 -0.19123961 6.87100601 
-11.9247379 -0.120646566 0.0939378515 
0.394956768 -0.107858397 15.5986261 
3.68718505 -0.111325972 16.1911621 
20.8505821 -0.0454945713 -19.819479 
-16.3262978 0.445074677 23.6983795 
10.452054 0.0361662209 8.2833271 
-10.4679995 -0.145137027 -10.0688972 
3.50832129 0.431049734 -17.5446548 
-10.7488565 -0.0662490949 15.0954094 
-9.34719563 0.127127737 10.9530516 
19.3802433 -0.304898441 -7.26384306 
-4.36217546 -0.133141786 4.0503993 
19.6271229 -0.107093126 -3.38866115 
20.3597984 0.627967596 4.1282897 
2.01515508 0.159461543 -3.716892 
-2.50005341 -0.32250312 -1.95447886 
-2.19659066 -0.221432611 2.72008944 
6.83579016 0.175951093 -0.39340359 
-4.40618324 -0.195214048 3.23774219 
-3.33094358 0.136195466 -19.1735497 
-18.246376 0.121154949 -8.17276955 
-13.4560461 -0.078997992 -4.72335339 
22.6167831 -0.16506359 -15.7147369 
-16.9753284 -0.189489409 11.445322 
12.6863298 0.0222470984 -21.2067966 
-7.78700209 0.0406239927 1.92236185 
16.616951 -0.483248323 -5.51384878 
1.59605479 0.105337389 -1.43334699 
16.9330349 0.0802423358 7.40137339 
21.0000973 0.00785575993 -8.58482265 
-13.4542999 0.171810076 -15.7854414 
16.5890942 0.0675175637 -13.451705 
-14.6596289 0.262812763 -1.74518168 
-16.17313 -0.180104718 11.1602869 
-8.17882633 -0.82864213 -11.1816359 
18.3508987 0.261778682 5.02768707 
-2.25612998 0.144702107 20.1355762 
8.87160301 0.143084884 -12.4546604 
-20.7261257 -0.109981358 11.2063007 
8.51346016 -0.191741154 3.86699224 
-20.217186 0.395969898 -16.5621033 
-3.83780813 -0.335342824 -4.19978189 
-4.87811661 -0.678534031 -13.316433 
5.49952412 0.106834404 -8.92916298 
5.38421774 -0.31236133 8.51845646 
-4.70371532 0.508310497 18.0745201 
-17.9785538 0.304696351 -8.91603184 
18.6417332 -0.0292835589 -0.910714626 
-12.8316507 0.0752880722 10.8681536 
-2.04503608 -0.226447806 -6.84337664 
23.8981876 0.618616223 -11.4663525 
18.2298317 0.140112415 1.29677582 
-5.2771697 -0.327072769 4.55911589 
-5.3807106 -0.24233377 4.10323572 
-0.988943219 0.321753711 7.20558786 
12.0188389 0.0107885823 -2.51891661 
23.6137028 0.241792321 -13.466547 
-24.2130795 -0.159997687 -15.5268402 
-23.7902966 -0.107986465 19.5093479 
-14.800292 0.313120812 -1.73691738 
-18.5278893 0.139587462 -10.2831955 
12.0480108 0.0437997952 -21.7759418 
9.01214409 -0.0762302354 -0.300681919 
13.1277847 -0.297226518 -12.1377373 
-18.918005 -0.449415833 7.71624184 
-6.7954855 0.0754816309 13.2199593 
-23.0544605 0.670479715 -8.63053703 
-3.34923029 -0.289708912 -9.18917561 
-4.07894039 -0.245115772 3.35551715 
10.6556721 0.543201208 -10.4243011 
0.643428326 0.453935891 -18.6129494 
-12.1254835 0.096742183 -13.177578 
20.8751106 -0.180457354 15.4400187 
20.9301643 -0.230165392 13.5877905 
-17.350956 -0.0969019383 -0.380846262 
10.4120369 0.599179924 -10.1648407 
-8.05199909 -0.343160659 -16.2036629 
14.2991991 0.443818182 11.3004503 
2.48948574 0.300374866 2.66550541 
-24.0405254 -0.225824967 7.33055687 
-7.90254974 0.462603122 13.8293695 
-6.94562149 -0.128478646 2.25167632 
11.5115709 0.369120032 -8.45515537 
-0.0884647667 0.296382725 -15.9315367 
3.48605466 0.248345643 6.18724632 
-13.4767752 -0.198215395 22.565958 
-18.7552929 0.466275036 -16.7223949 
-0.0268308818 -0.243843585 -10.3886518 
-12.04527 -0.244835988 13.8159218 
-10.6033716 -0.537984967 -17.8366127 
8.08657932 -0.110569023 -21.116703 
-22.7875309 0.0310552996 11.900938 
1.87431049 0.332527965 -0.66571629 
16.7292824 -0.029165322 10.2468853 
7.81131029 -0.078629151 -24.0847893 
23.9720478 0.170470715 -2.22664309 
-19.0964451 0.36646384 -18.9739494 
3.04709029 0.495187134 0.432895422 
-0.547159612 -0.232046962 0.332285047 
21.4671993 0.278234005 0.646938324 
22.6278381 -0.00116988365 -13.1477127 
-14.8276176 -0.0181311704 -11.0568466 
23.5593987 0.0352774784 11.8109865 
9.75383759 -0.0639822632 6.26869535 
2.22336721 0.511090159 -15.774518 
13.8576345 -0.10250894 -18.8614998 
-16.218132 -0.070296593 17.1230793 
18.2611542 -0.412654102 -13.7120094 
8.40554428 0.388893932 -5.48710012 
-6.25866413 -0.273748577 3.36982155 
-22.2576103 0.410458982 16.8158207 
10.7122936 0.22461769 -4.8638463 
-14.3692322 -0.463525116 15.3553543 
10.5443783 0.56342864 -7.95503902 
9.22638702 0.203946263 14.5248098 
-5.67028666 -0.549153924 -15.1205015 
8.84469223 -0.0516037941 2.24698091 
-8.4306736 0.0287141055 0.217424214 
23.2863541 0.419578075 -11.7688522 
-18.2194538 0.467197835 -17.4704914 
-7.67829323 -0.295561105 6.43101931 
11.9426041 -0.210877821 -12.5352516 
3.52112937 0.0823269114 -6.86077118 
-6.655931 -0.976573586 -10.8230772 
20.5710487 0.191294491 -23.3338127 
-25.265276 -0.104502447 -0.0940880552 
-15.809535 0.00436800439 -12.0567932 
-1.45793843 -0.215882659 -12.8408403 
-3.39653897 -0.417076409 -15.1107893 
-10.3888121 -0.0622920766 -5.79189157 
-17.998251 0.0483555645 17.2942619 
13.7000446 -0.152842239 -2.46216655 
-8.01508904 -0.0891557932 5.22086143 
-1.95142579 -0.300284415 13.5914917 
-10.5028124 0.293089807 12.7320576 
-8.98959541 -0.0411252156 19.0427971 
-23.47995 -0.143691272 5.56085396 
3.30502009 0.449757367 2.64372158 
-6.6494112 0.0776344538 -4.76114178 
-8.79774857 -0.117212527 -4.40459585 
-11.6582155 -0.223473996 1.66816008 
11.8623552 -0.0849326849 -19.106535 
22.6134529 -0.179784566 -15.4097805 
-3.80591869 -0.538336694 -0.214483172 
-12.6517 -0.238801897 8.15614796 
6.22593927 0.255826205 -11.6587534 
12.0163431 0.139897242 13.5096684 
20.5282116 0.115183823 -24.0385284 
-7.33535242 0.18820326 13.4184198 
6.68832588 -0.254319549 5.13908768 
4.58934402 0.393198162 -13.4446926 
-10.29496 -0.0760046393 17.2362614 
-14.1824017 -0.421229959 14.4354334 
-15.0067053 0.207684726 -13.9072618 
3.08026385 0.404714823 -1.17300153 
-12.7725248 -0.147786036 -11.9475384 
-23.6273804 0.282750577 16.8864555 
18.2510281 0.279765517 7.19615602 
20.5786572 -0.0780626759 -19.7213135 
12.9232798 -0.542322099 -0.0775180534 
2.86583233 0.3091757 10.1310644 
21.3801193 -0.082353659 -9.83415985 
-3.34598374 0.0234250519 -18.2291069 
-12.1841908 -0.264834195 -5.71133137 
-5.66568041 -0.676947474 -13.2151508 
13.9025898 -0.160657227 -2.95003366 
18.2386112 -0.224771976 -16.4914703 
-15.0085869 -0.0419906899 6.56344604 
-17.471529 -0.0775237903 13.5035391 
-22.5720387 0.238388628 17.839365 
15.1989298 -0.0963868275 19.2708549 
1.53372908 0.0722176656 -11.061944 
8.00476551 -0.305418581 5.49592686 
-15.9230299 0.307969868 7.11021805 
11.9496212 -0.293655992 -0.785108268 
-9.71516895 0.00119227264 -4.20669174 
2.0775609 0.482316196 -15.598073 
7.86972713 -0.0270371586 -14.1472855 
0.622970164 0.492401034 4.5496068 
-12.5956974 -0.171673909 -11.4371214 
14.339673 0.183475897 12.4657555 
5.65719795 -0.294287384 8.35620213 
-18.6746922 -0.0666156262 -5.78300667 
-17.7769623 -0.0867822021 2.19484544 
-13.387291 0.24088271 0.934967756 
2.09969759 0.203181729 -11.2450027 
-19.3379955 0.488905221 -13.0585318 
14.3635178 0.371248871 11.5736866 
3.64005184 0.315690696 -3.86135817 
6.53481817 -0.24499236 15.1495829 
18.1796494 -0.751029551 -8.17083168 
17.1018639 0.173971578 -20.0103302 
-18.3479366 0.0778932273 -7.51846409 
18.4106121 0.128207967 4.23665428 
9.20065784 -0.0138594816 -13.5429344 
-1.2832166 0.290849239 5.90292168 
-22.7241879 0.455747455 -13.1776295 
-3.04991269 -0.315557986 13.5194292 
8.00773525 -0.218938574 6.65189219 
-8.67181015 0.316116422 15.965291 
-9.50648212 -0.0149575695 -5.96633911 
-14.3193331 0.0520920865 -13.6948843 
-15.7582998 0.210118234 2.68316412 
0.925224602 0.394658089 4.01245165 
18.2636681 -0.226895422 -14.9969645 
-4.08125877 -0.669448972 -10.3666277 
-16.2663193 0.357159257 -18.9740009 
-20.8536358 -0.38286218 4.61171293 
5.4137702 0.289232314 -12.8663445 
4.35157251 -0.11803706 8.48871994 
12.6406984 -0.200359181 -10.2532606 
1.18044448 -0.0484110117 -9.62453938 
3.27570558 0.585229874 -18.9477024 
0.089574784 -0.0427805409 -4.89086008 
-20.5594101 0.137495041 19.7112083 
12.3227253 -0.303641945 -1.35230815 
-8.93242264 -0.489773035 -19.2234573 
17.8841209 -0.0884869993 -23.4789371 
-17.6052113 -0.197198689 4.79783058 
10.9296227 0.387777865 -7.13938046 
3.81488991 0.628231585 2.10752726 
3.79216528 -0.0750434324 8.36680317 
-15.1871147 0.555745542 -0.869206071 
-10.4767437 0.271012843 13.6059418 
13.2616234 -0.0992492288 7.91069937 
-3.39101934 0.00914226472 17.0340481 
-15.4719801 0.49429521 -1.87739849 
17.915554 0.114375323 9.68121433 
21.7681503 0.559046686 3.13586879 
15.1346617 -0.447794974 0.198576659 
1.56768239 -0.0514632352 24.4618683 
1.19807899 0.100717366 10.6418648 
-10.4442253 0.150221184 -3.21823764 
12.0327339 -0.0618547425 7.7293272 
-8.72175312 0.243592396 12.8895416 
18.0007133 0.0379568227 0.0813110918 
-4.77911186 -0.217829958 -19.0011406 
-2.63750601 -0.326694012 -14.6239042 
16.54702 0.169760138 -14.7246103 
-18.285284 0.333338737 -13.522831 
22.6525116 0.16011247 12.6170197 
17.3762665 -0.243127599 -2.04779148 
17.9938145 -0.230595857 -18.9153366 
-14.8453131 0.277870715 4.18353605 
9.86736298 0.0197398197 14.9690542 
-19.4971504 0.392038316 -17.5815639 
0.818469405 0.00450689811 -1.29972839 
-23.0078812 -0.111876056 -2.79386449 
-2.44236803 -0.313187212 -12.5930786 
0.448004782 0.406030029 6.00214195 
-24.1810379 -0.230944633 5.00978422 
-3.4998672 0.230174676 -21.335331 
5.43615913 0.292309582 0.22359398 
5.44076586 0.360360295 3.78172159 
-7.32799196 -0.0714666322 -0.242030025 
-7.56087351 -0.120301388 23.9830685 
17.0156288 -0.0581296757 16.1445179 
17.7249222 0.0643288717 2.81003237 
-24.4202766 -0.0759554505 6.56653976 
-11.7575665 -0.146737561 15.515131 
0.190731287 0.508716524 4.86430788 
10.4936275 -0.052680485 7.35820389 
4.6286068 0.241285369 -0.987443984 
22.9629745 0.285381228 -6.42092276 
14.4662924 -0.517605245 -8.61840916 
1.2695483 0.195344776 -12.7024345 
-19.1479435 -0.178694025 3.69066191 
9.92537022 0.148866594 -13.5922766 
-10.320713 -0.126670808 -9.3407917 
-10.6774244 -0.473182499 -18.467392 
20.7452488 -0.0972153619 -9.07948971 
-9.88773537 -0.116848387 -9.45364189 
-18.7419338 -0.142112002 2.85091233 
23.4287434 0.515793085 -11.3460655 
-24.7797585 0.12671636 -6.22018528 
-23.2381516 -0.0627309531 4.55095005 
10.5899878 0.307511389 -4.95634317 
-14.3815022 -0.457790762 15.5260391 
-16.8604832 -0.0159569178 -2.34501004 
18.2998371 -0.822331607 -9.91020679 
-19.9551754 0.255303174 -18.1983242 
21.9689217 0.109173819 -6.71827269 
18.1282997 0.0734320879 18.8311253 
-4.82777929 -0.325338125 5.68858528 
-22.7080441 -0.336353093 24.291193 
-14.126687 0.0868386105 -14.1274157 
-2.64466763 0.0962241367 7.11073589 
16.6804199 0.0914549157 12.4062262 
16.8188915 0.198705986 -19.4363976 
-22.0032158 -0.0488460772 -3.94417334 
6.596385 -0.164824829 15.9099216 
16.9026814 -0.13440308 1.139884 
20.7606907 0.725356579 4.84767866 
18.169836 -0.222720742 -3.76210785 
23.7908821 0.104827672 13.674366 
2.91425323 0.27569899 9.64821529 
20.3292713 -0.100234665 -17.8208065 
0.981766343 0.369551778 6.4495945 
-18.6863365 0.0423872247 -6.5472126 
14.3927736 -0.102376431 17.0706234 
-6.53925848 0.483387262 17.1738129 
-13.477313 0.27132228 -0.0259602387 
-17.7956829 0.132804647 17.6656132 
-14.7237406 0.424596965 0.716255188 
-9.84248161 -0.329229176 3.07153749 
-13.6477432 0.298794091 -17.3218822 
12.3843451 -0.0328005739 -5.83814764 
9.03919792 0.241375312 16.1458397 
-6.07656956 -0.716775537 -12.9054718 
-22.094305 -0.203005657 23.3872395 
-9.27802849 -0.362151265 -8.85813904 
-3.62043023 -0.567289829 -11.5711727 
-23.1872749 -0.285332859 8.867033 
1.30073357 0.0240036063 -7.42192745 
11.4795876 -0.347768575 2.2839632 
21.3655148 0.675306141 5.06676674 
-5.7783761 0.394387096 16.3648357 
7.88886452 0.477622986 -8.5528326 
-7.7731328 0.37576884 17.9701252 
-5.48497057 -0.479061484 -8.62380981 
-13.1058607 -0.257225394 -7.87870264 
-13.3692474 -0.0324373879 5.913867 
-23.7102184 0.0212077964 -3.30105376 
12.787899 -0.335038006 5.56497955 
-9.9783802 0.165343404 -2.17306948 
1.91159439 0.18144308 -11.003705 
-25.2649136 -0.0875447541 0.849643826 
18.5556679 0.0427736267 -0.522125363 
22.6831703 0.450535953 3.72635579 
17.7759762 -0.593653798 -6.767694 
-4.51361847 0.378005892 22.5876255 
-3.3910315 -0.125688642 -7.28599977 
-16.5034065 0.265944123 -24.8954906 
6.13807964 -0.103322081 9.73183727 
-14.7245626 0.298445404 2.13422465 
-4.33032656 -0.340140969 12.7487135 
-5.18717289 -0.433219045 -1.57614517 
19.4865608 -0.0618171953 -5.9904685 
-21.4904308 -0.0353582576 11.4644079 
-23.127264 -0.103027694 11.278718 
-20.3347187 -0.313105851 8.44615459 
-11.8240671 -0.283471644 19.1131802 
15.6506453 0.020394953 -14.3449125 
9.59159184 0.0100722248 11.7019453 
9.79102039 -0.00435027666 -1.58999586 
-24.3844795 0.196882844 13.240572 
14.9755669 0.150681868 12.5006666 
0.0180741549 0.525605381 5.37363768 
15.8252048 0.0661666691 12.5532064 
-4.2855134 -0.459717989 -3.50646091 
-23.9318352 0.26408124 17.3681068 
-3.25701761 -0.129569933 -6.22464609 
8.71827507 0.496288836 -8.0924387 
6.54110861 -0.188107923 7.51383781 
-14.2439251 -0.234652176 -6.62511539 
3.60221481 0.323206186 5.050529 
-3.03312302 -0.106195562 -7.07645226 
16.3004417 0.0618296228 -14.2389641 
-5.03258133 -0.705556691 -10.7861891 
18.8367596 0.251625746 4.57789373 
13.089613 -0.0876929536 -5.25723314 
8.14015579 -0.339751691 4.61939573 
-7.87422276 -0.877650857 -11.956131 
-23.3074398 -0.529032171 -18.8864174 
-1.31719577 -0.206166029 10.8270073 
3.02207851 0.195026726 -7.83096266 
12.522295 -0.132174447 -4.37959623 
-22.3790798 -0.123238541 2.63530445 
10.2133007 0.587777436 -6.54159784 
-22.0174217 0.445189387 15.2338228 
15.3110962 -0.125950411 -14.8488245 
5.60612011 0.107407533 -6.37773132 
4.69657183 0.0752222538 -20.8234711 
-22.1652222 -0.16526863 4.38543224 
15.5162945 0.140573785 13.7250938 
-17.1454849 -0.094105117 14.8829508 
-17.9670334 0.0955656171 -7.67229176 
-24.8476353 -0.126962885 8.87536621 
-11.2114611 0.172274441 9.59542561 
-8.1566925 -0.823127091 -9.68342972 
-22.9580822 -0.116117299 1.26957464 
13.628581 -0.139601797 -15.1174459 
13.5629749 0.233345434 9.71361065 
-5.53813457 -0.114949077 -4.01241207 
-10.4177999 -0.430778742 -18.5963478 
8.36305428 -0.0985478461 20.6960793 
17.812233 0.246544182 6.18077755 
23.8160229 -0.754905283 -24.4405308 
21.6624718 0.334562033 9.8792181 
5.7282548 0.161446765 -0.893566787 
-12.8547096 0.00493184431 11.266057 
13.9715586 -0.559602857 0.330122054 
-18.9348698 0.111072138 17.4543533 
-16.9790955 0.00565624703 17.4599075 
-22.5178528 -0.0313593633 20.0561543 
-9.97580433 -0.227820858 -15.1999474 
12.570962 0.0497720353 9.87475681 
9.29859257 0.286732823 -7.84604836 
-12.514575 -0.237693325 -5.67762136 
-3.07813692 -0.0646900386 6.90928221 
-21.2866192 0.646261036 -11.6618996 
18.870451 0.414149165 1.56131732 
-3.30615902 -0.14295347 -8.68572712 
-19.2314453 0.111536369 -6.13284492 
-13.7615213 -0.227872565 -8.17719173 
11.6603947 -0.0649753362 5.81161642 
13.3212433 -0.365838766 -10.7930956 
-3.13020515 -0.370608807 -10.2382565 
-17.7507248 -0.163390115 15.0259476 
-15.7546139 0.43667239 21.3610249 
-9.73558903 -0.390173286 -18.5649834 
-21.2848301 -0.0624188259 23.5728226 
-6.85025072 -0.101460613 -3.37059665 
-18.0132179 0.231682971 18.6662655 
-1.71733975 -0.314595342 11.0923223 
-5.53144598 -0.514439642 -15.6847649 
20.6377525 -0.64211005 -13.2867146 
-6.73213816 -0.0316656642 -3.88258648 
-11.6393118 -0.170651957 5.60789919 
-4.71578264 -0.341187775 1.58795142 
8.57510757 0.0720243305 -3.22874331 
-3.44850302 -0.238801152 -16.5054359 
-15.9136419 -0.0720253214 17.6405392 
-20.4801369 0.0987679288 24.8304386 
-5.83511257 -0.330602527 1.05064058 
1.61921263 0.0310611874 12.963582 
-2.0919888 -0.265826732 -3.02079248 
-14.3710566 0.280078888 -1.62120378 
-10.3508987 0.302257597 13.0880766 
20.3113632 -0.295958161 18.2622566 
-3.00219941 -0.158677295 17.4492168 
0.635282516 -0.209122777 13.2131615 
-17.5420227 0.525746524 20.1812649 
6.78893518 0.107942022 -8.74380207 
12.6255264 0.0937999263 8.93249989 
14.2160988 -0.468306243 -7.80330896 
-6.97388601 -0.137827352 -19.3548393 
-17.51474 -0.0211642049 13.0648174 
-10.2403498 0.0399666652 -0.139852494 
24.1638737 0.132569492 -4.88476706 
9.15397739 -0.149942324 -16.5173073 
14.0955153 0.00566805014 13.8102808 
0.546803653 0.290710241 8.78775978 
-8.94492245 -0.466410011 -17.6281776 
-21.6629696 -0.110379964 -16.3502502 
11.9732218 -0.0597275123 7.14641094 
18.6504517 -0.855099618 -10.460743 
5.77677107 0.0685279071 -1.78382373 
-4.07134342 0.170602143 16.7265587 
-20.8312168 0.510030389 -7.83082914 
24.0126648 0.0553128757 -14.6168823 
-9.53482914 -0.218669504 2.24503565 
19.716877 -0.463527858 -14.8650017 
12.5549431 -0.35350585 -14.4595747 
-11.8309288 0.0773051605 -2.39749503 
-24.8260574 -0.0814005062 4.90727282 
-25.2045364 -0.110653535 0.774380565 
2.38990903 0.237084657 5.71721697 
17.7178249 -0.306366295 -13.3926487 
-3.85755539 0.212592959 17.9587288 
-16.2608967 0.220214039 -13.4548512 
18.141449 -0.227733612 -16.2056427 
13.0542917 0.101419702 10.4229183 
15.4651318 0.133524075 13.3502092 
0.767969847 -0.246746317 23.27668 
-16.4564228 0.212395519 -2.59423518 
20.4473476 0.636978865 3.65244412 
16.750843 0.0658630729 7.39706421 
11.9864969 -0.0694926977 19.4681168 
6.49420929 0.159464747 -10.320837 
-16.1014481 -0.282144278 11.6477022 
22.704998 0.384039134 -11.0239553 
20.1629829 -0.210551873 12.5200291 
-15.9065952 -0.355317712 13.8711214 
-8.56156158 -0.159344167 -6.24338388 
-21.1297531 0.287844509 -15.0356703 
24.7676125 -0.591219783 -18.8880291 
-19.8260899 0.175716609 -9.98896694 
-6.94448376 -0.635982573 -13.1289625 
-9.7716732 0.13907589 10.4314327 
18.0012283 -0.772607505 -9.37172413 
0.0469405353 0.515623689 4.89500141 
5.8337636 0.331583411 -0.12798658 
8.71417809 -0.24727346 -22.1480885 
-19.8045921 0.343765736 -11.563509 
16.5032234 -0.458233118 -11.5418968 
14.4342899 0.199058905 8.5160017 
-15.9756422 -0.153815672 -6.08020735 
0.993365467 0.388585955 4.15605974 
-10.5647001 0.0355077162 7.07405424 
-2.36432362 -0.203930095 -14.8634634 
-2.16727638 -0.123518132 8.96608829 
10.1181126 -0.0910545811 7.14673901 
22.0704231 0.544575214 3.3216114 
-1.70686436 0.0780046359 7.57236052 
15.3847427 0.178789541 13.6308794 
13.1971302 -0.124864802 -15.3456755 
-23.6550808 -0.38007918 -17.3156128 
14.7959089 -0.151503682 -2.83386731 
-14.0963058 0.224766433 -2.03065777 
9.7484684 -0.342120469 1.87207699 
5.68611288 0.131385267 -10.0843086 
-10.5727768 0.0217049085 6.79528046 
8.51721382 0.430776358 -7.62181997 
7.49749374 -0.263694912 5.8949213 
-3.73459649 -0.246658593 -7.99824238 
15.0700636 -0.629222512 -10.7046814 
-0.0646303892 -0.0524268113 -5.26798964 
21.8708324 0.0971796736 -9.92498589 
-16.3263474 -0.0421349779 5.88329172 
23.7566872 0.302847266 -7.88830233 
-20.6777458 -0.288213462 -1.10178292 
-22.7703953 -0.171406314 1.09587085 
5.95649242 -0.0489808433 5.07543135 
11.2676754 0.120912835 11.7648859 
-18.0092945 0.675513983 20.3998356 
1.48296332 0.10008806 -11.6410437 
-5.50305033 -0.149859682 -4.46302223 
12.288249 0.14505522 14.2567368 
-10.584712 -0.195697069 -9.35311794 
1.72877336 0.0952451602 1.88420284 
7.96308517 -0.150902897 -18.9585381 
10.3326111 -0.1324967 -14.9940891 
-5.28164053 -0.164812416 -3.73429775 
8.76869583 0.160918891 -12.6317921 
24.0229034 0.322274804 -12.8814201 
-3.98664474 -0.168425202 -5.05185318 
-3.71579409 -0.182483405 -5.35790968 
-20.9411888 -0.143471047 -2.04078746 
-11.6895638 -0.185017154 -5.16666698 
-1.04889059 -0.356409192 12.595418 
-13.5906591 -0.259921491 8.80490017 
-12.4180346 -0.045767989 4.08659363 
-19.6277256 0.208549768 20.1197681 
-18.2814484 -0.246935979 15.5294342 
-5.47283459 0.529659748 19.2212296 
22.7323685 0.276235938 -0.538405657 
2.72798514 0.428991675 -14.2619753 
15.0815601 0.161489055 13.6791754 
24.4635887 0.0661079735 3.63066435 
17.6672459 -0.230469465 -2.78103495 
-15.4613113 0.599070251 -1.41085279 
-8.75325108 0.172765613 11.9143658 
-18.5833015 0.146675721 -8.37329674 
3.39868045 0.125158474 -6.32684851 
-9.55292416 0.0548089147 16.9116764 
-9.39788914 -0.0129691362 -6.74335337 
-18.866045 0.176757619 -8.96503735 
1.25528467 0.0972907394 -1.84755337 
1.32045496 0.269821435 -12.9596567 
2.48201418 0.350813717 -0.153583452 
25.1136665 0.619800568 -10.2141562 
-15.2887239 -0.396787614 15.8734674 
-11.3532381 -0.143957779 -5.05326843 
23.5984726 0.221767813 6.9813261 
3.24538088 0.231144607 -5.05121279 
-24.0662556 0.022787625 2.63005781 
6.88249207 0.15635699 -12.2987795 
-12.8828564 0.233988315 -2.56282854 
-20.8949852 0.253443152 -15.6715956 
-4.02839518 -0.136375979 6.99037075 
-22.3297272 0.290047467 -5.50552988 
15.5831852 -0.305776864 -12.6472416 
-14.3896446 0.273942441 -18.8495674 
-3.12389898 -0.197719708 8.60205078 
10.3615541 0.257731259 -12.5777111 
14.9593992 0.378481507 9.4473381 
18.2948952 -0.530254066 -6.67717171 
1.07342541 -0.136939421 17.3589439 
0.282009929 0.401451916 -16.5838547 
-7.22925091 0.160153538 -5.45295668 
-14.1118221 0.188331872 -3.41116333 
-14.7165995 -0.097477816 6.37984133 
-2.92133689 -0.381931394 -13.5145712 
5.68301392 -0.214674696 20.2851925 
-24.4609814 -0.0240300149 0.811059594 
12.3383541 -0.30179289 -14.9287605 
-11.2884579 -0.200053081 4.22484589 
13.3114853 0.0213408992 -4.60518742 
-14.1998129 0.349468529 -17.6274834 
-16.6861801 0.182723925 -8.12462044 
19.1525021 -0.0690093637 18.0318813 
-2.86971045 -0.0730046183 -7.66460657 
-22.4843826 -0.106958769 2.89162087 
-15.7466068 -0.0270402841 10.4852991 
4.68212318 -0.388395697 20.4280643 
-21.9975643 0.593911827 -7.48341656 
22.0778809 -0.18101114 -14.6446695 
-9.52871037 -0.218300581 4.07883835 
-23.4224739 0.655346692 -10.4982023 
-15.9977083 -0.0258748289 -5.13622379 
8.9832716 -0.308769047 -22.6000481 
5.93828297 -0.273955375 17.7289581 
11.4611559 -0.152704448 0.424543649 
-5.07301998 -0.413647115 -2.52469969 
-18.2561302 0.0550927743 -5.94483042 
-5.57069635 -0.757150888 -9.73749065 
-17.1669979 -0.0762135163 -0.798753798 
-16.7946796 0.408000588 -15.2028751 
24.7850151 -0.138138741 17.2152119 
-9.10769463 -0.0192617942 7.88856936 
-8.28536987 -0.192866564 -21.2183723 
18.4578876 -0.118521102 -1.03408742 
-22.002182 -0.196380258 10.3163786 
4.04498625 0.359737158 13.0397406 
5.88616562 0.119597182 -8.39786339 
-23.6092663 0.00998094492 -4.32005262 
-13.0719194 0.0398458131 5.79167557 
-24.9797249 -0.13464047 10.1749153 
-17.9487 -0.332620054 4.93429947 
-13.896184 -0.146441057 21.8978691 
3.79317808 0.184835687 -23.8658218 
19.5906887 -0.199300215 -3.89714336 
7.56453943 -0.225994483 6.41978931 
9.17339516 0.0089762127 -2.0570271 
23.5119362 0.0371371247 11.3899527 
10.2813711 0.425857782 -5.20355797 
-22.1940098 -0.153114632 6.52180004 
-4.59818029 -0.172792614 13.8726721 
15.5084705 -0.409130484 -0.0348114446 
-6.47293043 -0.479503036 6.76168823 
-22.760952 -0.124806948 4.89949846 
7.13833094 0.131987751 -10.4339542 
-19.0175571 -0.382683486 4.70874596 
13.344327 0.0336802341 13.9927206 
23.4122887 0.204387918 -4.24112749 
6.30883455 0.233129039 -11.1148882 
-5.06064415 -0.417181373 -7.8250103 
-14.3347034 0.124119684 -2.27295637 
-2.73467255 -0.479510754 -4.62996912 
8.39302254 -0.0955133885 7.52845716 
23.2766228 0.246202439 5.84678555 
4.53674507 0.501437128 1.66861451 
-0.363818228 0.421931744 -17.6607437 
-23.0281105 -0.0500222892 3.52886343 
1.46935606 0.0185070131 -9.76533985 
2.93217993 0.520372391 -19.0400524 
22.6569347 0.179811001 9.52271175 
1.1626749 -0.0329505317 -4.67230034 
22.0702477 0.412459701 11.7061024 
-20.5701981 0.183201388 17.6746883 
21.8380127 0.211999789 -1.80216181 
17.6396694 -0.146220133 -15.8451815 
3.72118497 0.0744659528 -9.24325275 
-20.5676708 0.0855812728 -3.39746261 
19.3670521 -0.434277236 14.653511 
11.0000639 0.262161583 -12.2084513 
-24.3176575 0.614879012 -10.3354855 
-7.84882259 0.335529983 18.0785103 
3.60682535 0.131257638 6.69218779 
-3.75919127 -0.375384241 9.31672668 
4.98751307 0.0939984471 -5.41928482 
21.3043499 -0.153705195 13.4702234 
-8.86808586 -0.156258821 -7.38674688 
-3.18816471 -0.474369049 -2.56240296 
-7.35068083 -0.488054037 8.59254074 
-22.4994297 -0.213587135 6.69619703 
-9.82158089 -0.113004655 -6.3387413 
-11.8444672 0.0161124449 -11.6827278 
-12.2057724 -0.258964568 -16.9078999 
-0.755809188 -0.0242050849 19.2118454 
-11.2327633 0.160619915 12.4181547 
-9.83692074 0.0629729256 8.67723656 
-20.9844875 0.450807422 15.6575451 
-23.3296108 -0.0453828052 2.43223286 
-12.8865023 0.00979529228 6.11043119 
-5.61105347 -0.7330513 -9.5711813 
-18.108633 0.10396681 -6.90743589 
4.88208389 -0.000814219238 -19.0217171 
-17.3294506 0.34594804 -12.9996653 
14.2112522 -0.136323586 -1.58779192 
16.3492851 -0.258000165 0.772408247 
-9.50059509 0.128886923 -1.17102396 
-11.3618336 -0.231146187 1.59224665 
-19.5299072 0.0263955723 -5.10751295 
0.850776911 -0.00158488413 -6.31896973 
9.77267838 -0.031588003 7.1363368 
19.5821915 -0.0978666916 -5.64145136 
2.43888664 -0.00484213047 25.0013962 
-21.6140957 -0.169502705 -17.7763958 
-6.41083479 0.0197800808 -4.72551537 
5.562675 -0.282032222 7.63243341 
-16.5680466 -0.328474939 12.9778528 
7.00746346 -0.0583777316 13.6019344 
8.39935112 -0.151186019 -24.6159554 
-22.2570438 0.346101224 17.5030041 
3.74122071 0.451962501 0.601225138 
18.1155491 0.269941568 6.86256695 
7.33214903 0.237592727 -11.5304441 
25.1617603 0.295142204 -7.57398558 
17.6405697 -0.796827734 -9.49660778 
-7.6043005 0.117311604 -5.04018497 
0.542851388 -0.101523601 1.49235082 
-13.1994209 0.111370496 1.59590971 
-15.5104179 0.417844415 -15.2345867 
16.5038395 -0.733860552 -9.06914711 
-11.4024572 -0.0547948182 0.680697918 
22.8769455 -0.202103227 17.3276672 
-23.030901 -0.0703781322 -3.87854481 
0.307446241 0.404554337 4.11603069 
20.1520748 -0.627993047 -14.2884846 
14.1253719 -0.557210743 -10.5792961 
25.1965904 0.0776481107 15.1268024 
24.6445332 0.0977288559 6.73035192 
24.0213757 0.178091094 -0.243188053 
7.0139513 0.162095979 -9.1694355 
4.51688576 0.131985635 4.98977947 
-8.9438324 0.0935505405 -2.72502661 
15.6645079 -0.362203211 -12.043519 
-5.68144655 -0.289691627 -1.72329664 
-15.6880617 -0.233811513 -6.89216566 
1.79395473 0.0578574799 12.9246101 
-20.6831417 0.436888069 -10.631258 
2.19635892 -0.112912059 17.3815727 
-22.0574837 0.908167362 -9.74660587 
24.9792747 -0.249507874 -16.149168 
15.3512001 -0.583593488 -4.87504578 
-10.828229 -0.215636641 21.974102 
19.3566628 0.409680784 1.97813892 
-22.9087467 -0.35067156 -17.670393 
8.41709137 0.40943709 -10.1923723 
-13.5608492 -0.198263377 7.69674969 
-18.1106739 -0.366378188 5.53563499 
-0.948720634 -0.147701904 0.106553137 
2.35748863 0.0933074951 -8.29724789 
-19.9498253 0.153747112 15.3788452 
12.2811279 0.00663476298 7.26340055 
-13.1335564 -0.0397827476 3.16142869 
20.3991089 -0.523891926 -15.2558737 
-20.6664238 -0.288476288 1.69656694 
-1.38308752 -0.238093659 10.6199465 
15.2377062 -0.601703346 1.56097353 
-6.74608183 0.0765922964 -4.51848459 
22.9258938 -0.722336829 -23.3460178 
-4.1929903 -0.70719707 -10.852622 
21.617815 0.165870965 -2.4288466 
-11.972084 0.19288443 10.637126 
-15.3988895 -0.486037701 12.9251738 
2.18411708 0.114941455 7.6015048 
-22.5603218 0.319939435 -6.1226306 
13.6170197 -0.374821603 5.99135923 
-12.3860435 -0.0855642855 12.7625856 
-6.63699389 -0.18086949 -1.99920261 
-20.7261581 -0.348247528 5.33659363 
-4.4817934 -0.635159075 -9.23160362 
13.4134665 -0.0640629977 20.0253391 
21.206213 -0.226236314 14.9940214 
10.8659 -0.0701451376 -18.7950554 
-5.12017298 -0.350908279 10.221839 
-14.0018377 -0.00687350333 -12.4591131 
21.1906948 0.0379989147 -5.57450438 
-22.4433784 0.872986376 -10.3509731 
-0.431927145 -0.0750766397 17.0844517 
-19.6070423 -0.359337986 -0.528610528 
-0.571592331 -0.308715105 -8.16373158 
-20.0059128 0.290092528 24.331316 
23.9982376 0.243389904 6.57785463 
-20.7308407 0.350462794 -14.8704958 
-2.75454903 -0.2333951 5.89840317 
-5.75130606 -0.598077357 -14.5068884 
12.5905781 -0.124096423 -16.6275005 
17.6301975 -0.494456857 -6.32588577 
17.4539738 -0.748288512 -9.84280968 
-17.6542034 0.307090789 -8.97548199 
-15.6781359 0.310952008 2.06257343 
8.57352066 -0.127706558 7.26739216 
-24.0866489 0.39283666 14.0604677 
22.5303955 -0.635790467 -22.2617302 
-23.4030037 -0.102142334 2.0629971 
3.18341398 0.475311875 1.24576724 
-20.1932487 0.0725919083 14.0541973 
-3.99563098 -0.108615257 4.79923439 
7.43592548 -0.00274643023 13.4583673 
0.745462358 -0.49336791 20.4345646 
3.25787711 0.249777183 -10.2571526 
22.8491173 0.290826887 6.28224754 
4.11758566 -0.0505099483 7.19818926 
9.21204185 0.144094348 -11.922472 
-9.25191689 0.0889834985 -1.92184329 
0.843261719 -0.0117274169 1.28912807 
18.4853668 -0.816253424 -10.7803555 
-20.4518147 0.191805422 -17.4065819 
-9.31955719 -0.0921510532 -7.53724051 
-4.871768 -0.649036348 -10.0045509 
3.44921541 0.117490783 -7.48585272 
-12.0514994 -0.0119008198 -12.3977871 
18.0480137 0.252261728 6.55305767 
17.7150249 0.1702912 7.46378231 
-2.32596207 -0.235943958 15.2572489 
-8.82521534 0.0506733693 -3.3938055 
-3.85110497 -0.558866322 -1.42969465 
-16.1461983 -0.157224759 10.7172985 
-21.2819042 0.0232782736 12.2754459 
10.9956512 -0.126003906 2.00138736 
11.336257 -0.129799932 -14.2789135 
-7.73292875 -0.285385936 -16.919014 
-6.29023886 -0.221010521 11.683898 
-17.238863 0.334049106 -16.9791088 
18.307476 -0.337103218 -5.70724583 
3.45571756 0.404870212 -13.2116327 
-16.0245476 -0.0617537312 -5.32608604 
18.0118408 -0.576434791 -12.1602869 
19.1651993 0.333779156 3.14914441 
14.2211466 -0.117865875 17.3282547 
22.8471642 0.272194713 6.84420252 
-17.8009605 -0.338962466 -2.08957744 
-14.1986713 0.180680022 3.78524661 
-24.8627262 0.151099995 14.4419765 
-7.40369654 -0.821232498 -12.7193651 
-3.85917783 -0.273138553 3.42148185 
15.5244417 -0.194789574 -13.2991104 
-5.49772263 -0.180143118 -4.85756397 
11.4015684 -0.173565939 0.643776119 
4.92143869 -0.197894379 21.1375351 
-7.05790567 0.188947558 13.5593443 
1.11159682 0.216513857 2.05404735 
9.25744724 -0.0371622294 -1.27634943 
15.5666504 0.142894492 -19.9314423 
-18.4630318 0.0869373232 -8.10474873 
22.2928123 0.316829056 10.8292828 
-10.3882256 0.0185943935 -0.208715573 
22.3824692 0.278383672 7.75164413 
21.2051506 0.224810421 0.576515496 
22.4007645 0.0754808784 -5.82867479 
-10.8027534 0.189428329 10.9945412 
-13.8111601 -0.409197122 13.9956741 
-5.13246346 0.604508817 18.1298161 
5.395576 0.0604788959 -1.94938755 
-24.0719242 0.0782353953 -4.48151159 
-4.74750042 -0.3189753 10.612628 
0.061898604 0.00592291029 -5.33748913 
8.24646568 -0.0440891534 20.3570194 
-16.1540737 0.146980718 2.82651997 
-20.9865265 -0.0988885686 12.2384777 
6.49449921 0.333913803 2.67369056 
-7.10921335 -0.135555863 -3.26955104 
5.58659601 -0.0311377198 10.1772203 
-19.1390915 -0.386408359 -1.64958107 
2.68593287 0.376103133 -1.5631423 
14.1186552 0.00990463328 13.6605902 
-16.1854649 0.39831093 -18.5978127 
8.84373569 -0.170638874 5.14083481 
1.10925221 0.174517259 10.0193062 
-19.7496433 -0.289421201 -1.85243607 
7.7661376 0.456423193 -6.70919132 
-11.1423225 -0.193232119 16.2478771 
6.67132139 -0.0286045149 11.3293381 
2.55572677 -0.0208604615 16.6079559 
21.0292225 -0.0571183376 -9.73812771 
-17.7512608 -0.338574022 -2.34171462 
24.4334297 0.0235013794 9.17649555 
2.81022596 0.424844801 0.609321892 
-7.21634007 -0.0777012259 -0.792763948 
15.7464933 0.0435661227 6.42744637 
-14.937273 0.352195442 -14.9072638 
-12.7328129 0.033541251 5.83572674 
17.5661678 0.147972077 6.81670475 
14.0787859 -0.180416405 7.41238499 
-22.1008263 0.474182099 -12.4703512 
12.1259003 -0.438917279 4.26481152 
-5.4404397 -0.276190609 2.72637725 
9.06970119 0.542702854 -8.94229794 
15.7857418 0.229548261 8.06120014 
25.0132065 0.594920576 -9.39459896 
-23.5089989 -0.112538464 5.24832153 
6.83294106 0.159043446 -10.9623013 
21.8002014 0.0611516647 -10.0306931 
-16.7525196 0.178001344 20.0117455 
16.3433266 -0.032059703 13.3404818 
-6.54772234 -0.332565486 4.10990334 
-22.8369884 -0.168345943 -1.64202976 
21.2541809 0.193338126 1.31185758 
2.29348207 0.224880368 -10.568305 
-10.5810652 -0.294413507 19.1181335 
-4.69983959 -0.346609652 -7.25786972 
-12.4889126 -0.214627147 -10.1141071 
-8.32526588 0.285583824 16.3472862 
8.59495449 -0.02989031 10.192585 
-2.30596232 -0.488448918 0.0675208494 
16.0752487 -0.687569082 -6.0178957 
11.336834 -0.0564739965 10.4315395 
10.746707 -0.224726975 3.76182795 
-7.80477715 -0.61874944 -8.85347652 
13.8673182 0.203082919 9.22585297 
14.015955 -0.258680463 -14.0805321 
-4.37504339 -0.528524101 -0.861686468 
15.2466984 0.230099991 9.84275246 
11.028429 -0.116643667 6.64509296 
6.60313034 0.111193784 -4.37217569 
6.89597702 0.296130389 2.06075287 
7.89070082 0.220365033 -4.24064445 
-20.1151981 0.146439701 -4.77857208 
20.9478016 0.562687814 3.20959401 
13.19135 -0.028366385 8.29191589 
3.26891088 0.166187376 15.0847807 
9.7395134 -0.281287074 2.19170523 
3.48513484 0.276687533 -12.3355503 
15.0281391 -0.217426315 -14.5752697 
-20.4151325 0.245045647 15.0692101 
-16.5273285 0.0634142682 -8.05743122 
-13.6005745 -0.130117133 18.5848713 
5.04475307 -0.0859163254 5.81982136 
10.4778643 -0.148964167 1.76053643 
12.7887516 -0.123024195 -7.7967205 
8.17291641 -0.0653499737 0.606781662 
18.8235302 0.215088144 -0.0529778153 
-24.7774429 0.0162007753 2.21940517 
-17.4963455 -0.0277951472 12.1910706 
1.3434912 0.176303029 10.1185217 
2.61760092 0.369424939 -0.594459176 
12.1396475 -0.210934684 -12.5742817 
-10.9581528 -0.229409903 2.16373634 
-17.3873959 -0.199777797 5.85958147 
18.8806057 -0.659996331 -13.1250362 
-9.43745422 -0.197696328 3.94338775 
-10.4648666 0.0893804953 -3.61617327 
10.505394 0.0256475806 11.8706303 
4.92220068 0.158166319 12.696866 
9.23909283 -0.234256834 1.15775359 
22.2648087 0.24370423 8.43199539 
7.39983702 -0.224074915 -15.8786545 
-21.5899677 0.747045398 -10.9772415 
-21.5355873 0.363626063 14.754921 
12.2022009 -0.000124677666 8.8456459 
8.14844799 0.0255958829 13.8726492 
-5.05921078 -0.239248678 -5.45243025 
-13.2154598 -0.0673347786 6.59035873 
-12.6600447 -0.055987671 -12.4013386 
-9.49339962 -0.184420884 -8.59925938 
12.0047369 -0.0892527327 -2.07781601 
-22.1518631 -0.250861883 5.29604292 
17.2902279 0.21275194 18.8538456 
-8.0621891 -0.143579111 -2.34236574 
6.19741774 -0.27094838 24.2996445 
-8.14498806 -0.113825276 4.31979275 
-12.7724476 -0.205500454 17.3179436 
24.8113365 0.137029797 13.1692076 
24.0592136 0.0927478001 8.95764351 
24.7857761 -0.942627072 -23.006197 
13.5340891 -0.305253714 -1.38247228 
19.0713005 0.230525061 -0.287525803 
7.86717606 0.389126301 -8.93708038 
13.179512 0.0813293606 11.1793184 
17.3796844 -0.192456394 -3.31493711 
-24.5590878 -0.445019275 20.224535 
20.3148079 0.114186712 -2.16750073 
-4.9336195 -0.251117855 9.29935646 
-24.8395004 0.469386488 -8.4880209 
23.1230087 0.149561092 -4.24537277 
12.0835218 -0.0183385033 8.04208374 
10.5864649 -0.196320802 3.72099161 
-15.341979 -0.0437955633 -11.8296366 
23.801815 0.0777383819 8.86991692 
5.19876862 -0.287831515 8.42642403 
13.8010378 0.00696446467 12.8594942 
-0.149119258 -0.12746419 2.41340137 
-22.815361 0.807074368 -9.66607857 
-17.8283672 0.320610285 -12.9078875 
-0.573258102 -0.039305333 9.93979931 
23.885376 0.175049976 -13.6874323 
-12.7727451 -0.137118772 12.57092 
-7.64394617 -0.965406716 -10.4166288 
-10.9144239 -0.203910008 -10.9319868 
4.18575382 0.0366996937 -7.75999355 
18.8100662 -0.454014331 -14.1135092 
16.4577904 0.0102363685 5.58514547 
20.2797394 0.653389096 8.37717915 
-16.4169388 0.210867569 7.01777267 
-21.3638935 0.568515718 -6.92380667 
23.9648476 0.240155414 4.87524462 
-25.198185 -0.118398547 10.7875547 
22.0820961 0.00443091011 -4.08552313 
21.1023064 -0.144209281 -23.6760368 
5.32312107 -0.0611718744 -16.9537983 
24.3185825 0.237939522 4.75710869 
-0.664398074 -0.301453114 12.4698763 
-10.9271688 -0.289312094 3.10629129 
-15.7792749 0.155243665 8.55718231 
14.1349268 -0.531360686 -8.29884052 
10.972477 -0.23629649 -16.2652683 
4.71716309 0.276752084 11.7140102 
3.85088253 0.27817145 -15.6249657 
3.24970627 0.0105484109 7.62777615 
16.7246647 0.0244581811 -22.1702404 
2.39126921 0.0614047162 7.33997059 
15.3590937 -0.230091885 -3.36536765 
9.51142406 -0.145677775 -14.3988695 
-10.4311228 0.0472817421 7.8614583 
-21.6570435 0.491563469 -5.88607073 
2.31831217 0.113523185 -5.8318615 
-1.11865735 -0.244396672 -8.22176743 
-6.23208141 -0.0684302822 -6.04858923 
-23.7683334 0.0394503102 1.21748924 
2.50731182 -0.102033176 17.207962 
-10.8782444 0.0879536569 -0.608758211 
19.7321491 -0.0413149856 -21.0327015 
-5.87908363 -0.385895997 -0.907467782 
10.0796213 0.119714931 17.0937805 
-16.7649136 0.105229542 8.35779572 
13.252594 -0.509680927 4.36297369 
9.1783123 0.0964987352 13.0683298 
14.4923725 -0.342498869 5.60196304 
15.2456589 -0.0224477667 17.7748032 
24.6157818 -0.0331482887 9.30159855 
-17.3212376 0.276400298 19.2010765 
-19.1836777 0.440171629 -12.9132042 
-5.29615736 0.601891577 18.5809879 
13.6446943 -0.129879445 -2.71599913 
-14.8214693 -0.110480607 7.9630785 
-6.79060841 0.424989581 15.7427874 
-21.6484222 0.485071629 -12.6296902 
-22.390976 0.268438995 12.9810114 
2.59253621 0.0368071124 15.5182867 
-4.61134052 -0.611609221 -2.03007364 
2.63478947 0.345017642 5.368258 
1.74484706 0.148144439 -11.1384897 
3.16287136 0.527069211 0.453282714 
-19.0018234 0.104743183 -9.42385578 
-24.3887463 -0.385552883 -16.7431488 
-19.5521126 -0.0152966194 -4.82798433 
-22.7844982 -0.304413885 21.0996265 
20.0578289 0.0856716707 11.203023 
-17.3584118 -0.208308056 -2.11969423 
-23.5153084 -0.624495685 22.6967049 
-11.2251415 -0.274838388 2.67060804 
-5.44631767 -0.320661217 1.38037598 
-3.56468844 -0.490499109 -0.828807354 
24.241169 0.123512544 -4.64753532 
-18.5552807 0.520881951 -15.8793707 
-0.778298497 -0.183091387 0.749616027 
-17.2065449 0.419120014 -13.5035105 
-14.7224979 -0.536279619 12.9174137 
18.3142281 -0.342066944 -18.0521393 
-20.5433846 -0.0950610489 13.3031769 
-19.2843304 -0.0575254969 11.3276777 
-3.03876543 -0.266011208 9.86072731 
12.1704159 0.0614403225 12.7923775 
-17.6322403 -0.00480094878 1.17708659 
-10.8187017 -0.275957465 4.68790054 
-11.5816545 0.0972859487 9.20585442 
13.5813818 -0.469639719 -7.91432333 
24.2553291 0.091221258 -0.111260995 
-6.31936741 0.445134968 18.9091835 
-0.628103197 0.0307119638 9.38356781 
-14.3727713 0.194681719 -3.42256379 
14.2434692 -0.215803564 -1.27877605 
-0.801124573 -0.223058984 -4.25277185 
-3.33742332 -0.104984187 6.63014126 
12.1923418 -0.00536098797 -6.60029459 
20.1369152 -0.10428898 -4.31819868 
15.9476213 -0.257847399 -2.8719151 
-0.810794473 -0.134874836 -1.68305027 
-8.49650097 -0.0175159443 10.8067951 
-19.3567963 -0.209803089 -3.25474334 
-24.3154678 0.258446068 13.4428387 
-3.07919145 -0.450650305 0.0882631019 
-8.77987385 -0.0558213145 1.15651977 
-3.65843916 -0.169839337 -7.64610291 
8.08422947 -0.124974117 7.21141052 
2.81989622 0.00720076356 7.91937208 
6.82303286 -0.12329869 -22.6651134 
22.0245895 -0.115893751 -12.3742628 
-10.7101097 -0.0947075561 16.694252 
-23.7800007 0.735362291 -11.3475103 
13.0119953 -0.15832144 -5.80504608 
-2.62803483 -0.271242976 13.2358522 
-7.78972864 -0.113423765 -1.45538485 
2.65380454 0.166594446 -8.44795895 
11.8935833 -0.0340898521 6.13894892 
-6.96316862 -0.146531165 -18.4455032 
21.878231 0.263100863 -7.38497257 
2.18455315 0.171275437 1.70888412 
-11.1221542 0.0290274713 0.537862837 
7.71454525 -0.319921911 5.23971701 
24.0490112 0.126929268 -1.71121883 
14.9077845 -0.614913404 -9.65445805 
-22.6111679 -0.192684561 -0.476957202 
-3.04238224 -0.143561959 -5.88980341 
-23.7560539 -0.0425456129 -1.77496707 
-22.3881702 0.324106216 13.3419256 
-21.7208824 -0.217782557 3.83714485 
8.27609825 -0.151650801 -19.1658535 
17.2649918 0.177959278 4.30420256 
1.68183124 0.359223127 8.13947678 
-15.7718029 0.112951629 8.72127533 
11.8972855 -0.0846960768 19.5997906 
23.1681194 -0.0154049434 -15.914959 
10.9039125 0.0803372189 23.6064358 
8.8097477 -0.0340723395 8.23808098 
-18.6618137 -0.21416004 10.5660086 
-15.7209444 -0.376098365 14.5190744 
-15.8179655 0.248931438 7.97907734 
-6.0763855 -0.281326145 3.94314027 
-15.7391119 -0.144199044 17.2950058 
7.32054853 0.308586776 -6.04813004 
-14.893383 0.305491477 1.90515518 
20.756319 -0.096238479 -19.3646755 
-2.16276813 -0.333543897 9.94457912 
3.15486932 0.366575629 -10.9716206 
-0.872043788 -0.294816971 -7.39406204 
-15.5193386 -0.449859321 13.0814295 
21.6776619 0.234963253 -1.3875401 
-22.6790829 -0.195008561 -0.272818536 
5.41426754 0.044016961 -3.5148716 
16.0727005 -0.259281099 -2.9268949 
-0.539471924 -0.168685973 -0.566794634 
-18.2061806 0.0979698896 -6.77532768 
3.33031416 0.262676686 -4.75566387 
4.12366247 0.331917882 -15.6980438 
7.64722443 -0.0642694011 11.0513487 
10.9878244 -0.154111758 4.74297237 
23.94561 0.241837561 0.936009884 
20.9571934 -0.0300895236 -5.80061007 
11.6370668 0.291715741 -8.50301456 
12.1544113 -0.0923359022 6.44196558 
9.56424236 -0.0285932124 -1.24205768 
-2.55038977 -0.337687165 -14.0605774 
-3.72529364 -0.468444288 -12.8523703 
-10.0363035 0.0861587673 -0.577049553 
-13.6228447 -0.0221606456 5.70195913 
7.88975286 0.0988378301 -13.5766935 
21.4606628 -0.300755382 17.8413086 
6.95260048 -0.0789597705 -21.6956997 
-21.4490814 0.515863597 -12.6217976 
7.54900932 0.0282716155 12.8371162 
-13.8504162 -0.177088216 9.8613739 
24.6538429 0.212978661 4.63565779 
