ply
format ascii 1.0
comment created by gply, a Houdini tool.
comment converted from .[b]geo
comment for more information about Houdini, try:
comment www.sidefx.com
element vertex 1273
property float x
property float y
property float z
element face 0
property list uchar int vertex_indices
end_header
-6.0287714 0.27652365 19.2265644 
17.8934116 -0.39686501 -5.92829514 
-9.7756443 -0.199515507 -17.8935127 
11.1086512 -0.175093845 -23.837904 
15.1677809 -0.30717659 22.9363995 
8.43784428 0.0386165157 -24.0125027 
23.462265 -0.463337094 19.0033913 
8.08127022 -0.427624762 6.28633404 
-19.6849442 0.125523463 22.4372063 
-8.00647926 -0.159581274 -24.0290413 
14.1544476 0.0192130189 -18.5673485 
19.148283 -0.0876793638 -0.751242638 
7.76022434 -0.18274723 18.9610271 
5.08980989 -0.0686156452 16.2693996 
2.38763523 0.346958697 -18.4510326 
-1.04550612 -0.271311313 -15.7768116 
4.64312029 0.250636399 -17.2606392 
-21.5262604 0.354839921 -11.6952343 
24.7348938 -0.583499432 -22.4127293 
5.3991003 0.324876636 -18.6809006 
-16.7128429 -0.0613505393 16.8194027 
-8.3480072 0.0539186746 11.6662655 
19.0180473 0.0198614597 2.66491628 
1.50407124 0.165416807 19.4204369 
-13.1650467 0.743093073 -17.6339283 
-17.7206917 0.35289529 -15.0030584 
17.5486984 0.363069862 -18.1103363 
-2.45731497 0.0482878163 14.9318094 
7.05326653 -0.340277702 -8.06335258 
9.68237877 -0.0286818184 -16.4444714 
10.6146955 0.322821468 18.2885017 
7.97165394 -0.0275593977 -16.3856316 
11.5825167 0.0785908997 -3.21208215 
-4.25429201 0.0624698997 -6.86749887 
-7.25756931 -0.52598995 -17.1422024 
11.215745 -0.225249857 -15.2463703 
-0.64574194 0.229551151 6.58103466 
-7.36735106 0.393199235 15.7459745 
1.44366312 0.0505371019 23.893877 
16.1324558 -0.0575701743 -22.4162025 
17.5394287 0.372340888 -15.5376148 
-20.6476994 0.476179332 16.3814201 
4.30921078 -0.233719647 21.4182186 
-22.6504402 0.233189255 18.7227745 
12.9930458 -0.186283723 -16.4824066 
-0.385574967 -0.0288380478 16.6344013 
21.1481667 -0.4848755 -15.9008923 
-24.1342182 0.603337705 7.09478378 
14.388298 0.002790967 -18.1856899 
-17.222456 0.220374778 24.7001057 
-23.4348602 -0.355911255 -14.6273241 
-19.6598854 -0.176665202 7.06680775 
-22.1444225 -0.363194883 -16.0772839 
22.0384693 -0.404223949 16.3277969 
-15.7629576 0.416657448 22.9749146 
-16.8527622 0.508957863 -14.8079424 
-6.32364511 0.303736627 19.2218513 
-7.42260551 0.313254565 17.1678944 
-22.3737869 0.380019307 -8.59014511 
6.85357237 0.228901461 -21.6501179 
-18.0097179 0.283046216 -15.9252234 
7.52951241 -0.23154296 22.6608276 
-5.04651499 -0.198363945 8.17689896 
-7.77192974 -0.175590456 5.78129101 
22.4225807 -0.410894722 15.3694267 
-7.30851555 0.0565743595 19.128685 
5.04575253 0.310840786 -17.7067738 
-21.496357 0.166084766 5.89512444 
-19.8207645 -0.170475096 5.91135406 
-12.8084755 -0.54376477 18.4604607 
2.90568495 0.195097819 18.1345692 
-13.8103342 0.193499014 23.6742115 
-20.8808136 -0.260779649 23.0325699 
13.7955942 -0.128854528 9.42528725 
6.92268038 0.0172650442 0.0378907658 
-22.4174156 0.509050488 15.4322453 
14.5773563 0.0401607491 14.1458359 
-12.1366272 -0.696983218 18.4316883 
11.3567438 -0.184498519 -14.7485323 
9.90726566 0.0170459822 21.4170475 
3.12300253 -0.100592159 23.7101479 
-7.9323411 -0.213774398 -14.3958273 
14.0746012 -0.121278621 -15.5250902 
-8.46008396 -0.0603840165 18.5937672 
8.98356152 -0.110976428 -19.0220432 
-5.02834368 0.41950193 17.0707436 
-5.11490393 0.396808207 17.7248745 
-8.80913258 -0.0658248067 8.59597111 
-11.9125414 0.2884188 -18.5710011 
7.33171511 -0.116746686 14.2190685 
-4.95585728 -0.539216936 -14.1606007 
6.25908518 0.200697973 -17.1429214 
-14.7044792 0.111624785 -11.0804634 
5.30002689 -0.288554043 9.05449104 
-21.1144524 -0.0716701746 -4.09670258 
-6.92965603 0.364238471 15.2236147 
-0.648885667 0.015229702 17.4823399 
18.5263214 -0.140581474 18.5760441 
8.99433708 0.215558812 17.0003223 
-20.3159618 -0.0594470575 24.0481224 
-6.90774012 0.355543017 17.3832302 
-11.899991 -0.182093471 -24.0907478 
17.4336319 0.14897342 -20.5435696 
-21.3872147 0.338862181 -11.6478338 
7.1465888 -0.120071895 19.0973511 
-6.93519783 0.28898406 14.0570307 
-13.3828421 0.620975375 -15.1869583 
4.29714155 -0.267744333 -9.12287807 
-13.3285694 0.675479054 -18.7902431 
-2.78726578 -0.480508506 -15.8577757 
-5.2362175 -0.365379214 -15.209012 
9.90263271 0.177726299 17.3188801 
-15.7292404 0.0687340423 19.169651 
-13.820714 -0.288920015 18.055151 
15.0562487 0.0467434227 -20.3409042 
17.3484802 0.413419545 -17.8517017 
-1.81526518 -0.296255946 -0.0860113949 
11.9182434 0.0321687534 -19.6078815 
9.8600378 0.253094882 15.7154369 
19.3272648 -0.19092162 -16.4604359 
-22.8534851 -0.659537256 -18.9104328 
-18.5042515 -0.146245629 -20.6215668 
21.5568123 0.210940123 8.80948925 
-2.06705809 -0.0706325471 14.1493387 
10.6547089 0.292298436 19.0406475 
-23.4582138 0.0744861662 19.8479252 
17.4841919 -0.254466027 4.29007626 
-19.4927616 0.31329903 21.9006691 
-6.4966054 -0.185066506 24.4577065 
-2.97462988 0.696749032 17.8548412 
-2.14799738 0.0243249144 -22.7186794 
-15.2363901 0.635819852 -14.1065454 
-1.56296372 0.034410242 -23.5591564 
-3.89795232 -0.544735074 -15.4066753 
-12.7630396 0.77308774 -17.0657959 
10.4639769 -0.0908853933 3.37567401 
-14.201376 -0.222323716 9.08151817 
-19.0156307 0.0822748393 -15.0689049 
21.9551792 -0.646189451 13.6857891 
-8.56551456 -0.190610006 19.1645737 
-1.54683101 -0.116041288 -18.3848228 
-22.311655 0.683767259 13.9273005 
-16.2760086 0.518036187 21.9120827 
-3.90830255 -0.218738839 8.05622673 
-1.15753746 -0.0125054661 -18.9050789 
-5.61860561 0.425777316 16.9145851 
24.8402042 -0.282623321 -17.095211 
-2.59406662 -0.395052761 -17.5221691 
-13.1765299 -0.610250831 15.3446913 
15.9143496 -0.129001677 -16.5003166 
12.540267 -0.420328587 19.0241356 
4.02254438 0.179235473 15.5675125 
23.1093216 -0.170994565 -24.9288139 
19.419054 0.0728183687 7.12037659 
8.00507545 0.137695655 -20.1342087 
-4.88544512 -0.447124124 -19.3269463 
-20.6636543 -0.311329722 -16.3400993 
15.1880827 0.0451058634 -21.2070293 
-5.67934847 0.105991058 11.5090885 
-12.7441874 -0.561952651 18.5817757 
9.33477783 0.125557587 17.7936478 
-13.8487406 0.0763299167 -0.0894492939 
-8.05871487 0.0565925725 18.4873123 
-6.83516026 -0.577649415 -18.4472713 
1.70756257 0.0430138409 16.3855705 
-6.45757294 0.267352134 19.2042141 
-2.70648623 -0.447153836 -14.1366434 
2.69894981 0.436450541 -20.8379555 
5.40825987 0.355707884 -23.7377129 
-5.27695179 -0.598348796 -22.817667 
-20.9414063 -0.0124428347 -14.7879162 
10.8655109 0.161276594 18.309391 
-0.253374308 -0.0203721449 15.9401665 
-7.41459036 0.409554809 15.8605099 
-5.60974407 0.228732958 14.7859707 
16.6700191 0.0996431634 -25.0303898 
16.4912338 -0.0914235562 17.5417786 
23.3170986 -0.185499206 -17.6572323 
-13.7359762 0.827016056 -18.2631836 
-3.29264617 -0.649919748 -15.0145197 
3.30749512 -0.224646851 23.03895 
-12.4978266 -0.143227667 2.13487291 
5.76127338 0.192296445 -15.2718534 
-12.1026392 0.45025453 -18.4030933 
6.18194103 0.272327006 -15.1213465 
-8.46771145 -0.129126117 18.3226395 
-16.321846 0.247917712 19.9824162 
9.59954739 0.066606015 -15.3110561 
-23.9693375 0.0641599298 18.5922947 
-2.3692143 -0.322296113 -19.1350994 
4.05220842 0.0456601083 17.6919479 
21.0153923 -0.210925117 -17.8504295 
6.45575047 0.285711139 -16.1507835 
-17.962328 -0.188353449 15.1074705 
-15.046526 -0.298127264 15.5666714 
-15.538044 -0.16992344 14.5208807 
-1.60539615 0.282899886 19.5630627 
19.5990562 -0.155391768 18.9890862 
1.21360004 0.180642709 19.1931267 
-1.97316325 -0.24394244 -17.8224888 
-4.25066757 -0.566435456 -17.0722656 
9.12285137 -0.0993070379 -19.4215603 
-6.44908524 0.357597917 18.5606308 
-20.5477619 0.329942763 18.7229385 
-8.95892429 -0.414160728 22.5701942 
-9.86274147 -0.417432129 15.586442 
19.8869591 -0.418696731 -19.0636311 
3.36895514 0.0843684375 15.5961113 
14.6196709 0.18544209 -2.78457403 
7.09910488 0.120241821 -17.1833858 
5.89717388 0.286666423 -17.0591583 
22.7263317 -0.436960846 -14.9999771 
17.4468613 0.147184864 -20.2588444 
-18.0981655 -0.127013728 14.4004536 
8.82503605 0.00281075947 14.1223288 
14.778409 -0.0251699705 -19.4173603 
-17.1756363 -0.198621735 14.1656179 
15.9550848 -0.0328193791 -17.5849819 
-13.6330223 -0.461269736 16.7582169 
-23.3214684 0.30511272 1.35040975 
18.5666733 -0.0456974767 -20.6476593 
-14.3799505 -0.304519176 9.74172306 
-4.44792843 -0.348242253 -19.3805408 
13.2365284 -0.397585273 19.2035503 
7.21838188 0.205902696 -22.5080166 
-11.5449467 -0.49840951 16.3398247 
8.06752777 -0.141318709 22.2300034 
1.33923829 -0.00990038458 -15.4876814 
0.327185094 0.210454121 19.1675949 
2.59697556 -0.0445138849 14.2434998 
-9.1261797 -0.459915549 4.52994013 
13.992404 0.231069639 13.9195948 
9.36495495 -0.00212177704 3.17193985 
0.054326281 -0.0433115549 17.1795254 
13.0590572 -0.199396208 6.3814702 
5.78189707 0.229102582 -14.2861338 
2.78149414 0.369755805 -15.5926208 
19.1096687 -0.110583156 -1.03214622 
12.3491383 0.138796166 -19.1329784 
0.930096388 0.0837151334 17.8244724 
-1.16381168 -0.13233304 -16.8880177 
-18.2004032 0.424238801 20.8881283 
11.7234917 -0.198240191 -17.4266872 
24.4909763 -0.219898462 18.020792 
-20.6278019 0.336380363 12.0639982 
-12.7821035 0.572439015 -18.4044609 
7.07372236 -0.170658946 18.7167416 
19.7905025 0.0610451438 -23.8474388 
21.5402107 0.0551514551 -20.2542648 
-24.3549328 0.236761555 0.11520566 
-19.6942024 0.116623938 10.2100658 
-9.4808979 -0.0657798275 0.349621594 
-2.59919095 -0.409302294 -16.1381569 
8.34636307 -0.003563351 21.852644 
6.7318964 -0.239396408 -10.9981604 
24.4304142 -0.410633415 -23.4454098 
24.8642445 0.38710615 11.7366972 
5.19728374 0.196944103 -16.0331211 
-12.5555611 0.768567324 -16.6043854 
8.55182838 0.0155781768 -14.9085665 
19.9410305 -0.725708783 15.9510107 
-12.1030149 -0.673184156 20.7894802 
17.3544712 -0.38119173 14.1638193 
-23.1633568 0.45165512 16.9054546 
-11.1317625 0.24983497 -17.3250866 
-14.422698 0.716181338 -21.1854153 
22.2785988 -0.0478020646 -7.47793436 
0.195424438 0.0474653393 16.3025532 
-1.06515324 0.478494704 22.2464523 
21.2025833 -0.63849169 -14.9473791 
-18.2641029 0.221999556 -15.2960052 
17.4415169 0.162991688 -14.694315 
-4.43902302 0.436611265 16.0522461 
-10.5976381 -0.355843604 7.6231842 
-4.89683628 -0.0370481461 22.34412 
-16.9688225 0.262752563 24.5724087 
-23.6642323 0.302238703 17.1947365 
14.4411955 -0.201496363 18.0294189 
5.67294121 0.296616673 -24.000824 
17.1729317 -0.4199256 4.25030327 
-5.81441593 -0.403912961 -18.9068336 
22.4267654 -0.4179461 18.1126518 
-15.793211 -0.0206635185 18.1961632 
-18.0827732 0.242046371 17.7124786 
-6.22745895 0.342725605 17.5398407 
-7.67009783 -0.398042679 -16.2660789 
-20.0394726 0.035212338 7.52722073 
1.60485566 0.390543759 -19.0686398 
-1.57737231 -0.33425504 -14.6372623 
10.3199015 -0.105155036 -20.248148 
-11.474412 0.268294483 -18.0094681 
5.30771446 0.303873569 -17.223381 
-20.1583538 -0.299480736 -23.317461 
17.1434898 0.0494642891 -4.13127184 
-23.3894749 0.345780402 13.8997631 
-8.2634325 -0.227101579 -15.0632095 
2.67573404 0.0548672639 15.6400299 
-10.309597 -0.0190564226 11.2478571 
-3.37110806 -0.205802724 12.4023972 
16.8611202 -0.215210825 0.568210781 
-21.9151478 0.520048141 -10.8504715 
-20.0732193 0.296882123 19.4022903 
-2.88889074 0.0601106547 14.5333052 
20.6534805 0.294392288 8.38823128 
19.6017799 0.0410684049 -2.41524959 
5.14561319 0.199709192 24.4048615 
-0.273125947 0.211747363 20.1439953 
-8.74784279 -0.367925644 24.3360634 
22.9347706 0.346454829 9.11710835 
-22.3054085 0.677694023 14.0934963 
7.72002792 -0.0849187896 25.0149899 
11.4563274 -0.217959523 18.065855 
-20.523447 0.0136353457 -14.7386446 
15.8945026 -0.360316783 2.68359852 
8.85423565 -0.0257149078 -19.8810501 
13.7480621 -0.107394025 -14.3206387 
15.3281841 -0.184299335 16.4638844 
20.8545055 0.329403669 8.22632122 
-12.5660658 0.484880209 -14.3868656 
5.50101471 0.190811589 -15.6341848 
-7.20263386 -0.197103977 21.383173 
5.17852688 -0.0752260536 16.4313526 
12.9375696 -0.0802227706 -16.9588432 
6.57144403 0.356153846 -22.2007771 
14.0451527 0.0692787319 -19.0349007 
15.0910292 0.068941839 -23.3919258 
-16.535284 0.495774925 -19.0171242 
10.9827127 -0.191298589 -14.7810488 
23.6950035 -0.193982124 -15.9309587 
-8.08039856 -0.371270627 -21.7031727 
6.87645388 -0.0512017794 14.6130505 
2.09698606 0.0434633344 19.3173065 
24.4396343 -0.4978486 -21.493288 
-20.5592117 -0.122937448 4.04644156 
-4.7027545 -0.401727498 -21.4909 
11.5243406 -0.205584228 -17.6373825 
-21.8275375 -0.332949311 24.8673897 
-12.4245319 -0.465798885 15.9890575 
6.14168072 -0.0340471566 16.6397247 
-24.2476463 0.180656821 15.8781433 
-5.00573158 -0.436756879 -14.8507977 
12.2092066 -0.0571763143 0.343731374 
-5.1104641 0.405255139 17.3522606 
12.0737362 0.504554212 -7.74332476 
23.3237076 -0.387655288 16.6354275 
11.942934 0.148505688 14.0502548 
8.59353065 0.109000131 -20.8781796 
-2.7166512 -0.482369751 -17.9336014 
19.3007298 -0.244609281 -15.1193571 
-5.64333057 0.34314692 17.6678886 
0.0851516724 0.0208815131 14.72262 
3.52700591 0.497448385 -18.0761223 
2.75824618 0.150535181 18.4048443 
23.3864079 -0.166477367 12.8110237 
1.54919922 0.059825331 16.3359718 
15.5235033 -0.084914051 14.1633091 
17.4486542 0.0851166621 -14.1675148 
-20.3337669 0.617316425 15.1219339 
16.7169495 0.29686141 -18.1379967 
24.3571224 -0.208062246 -19.217926 
-15.8562679 -0.376340628 5.20254374 
19.0975742 -0.220090926 -19.9751053 
-24.4926834 0.154860273 16.4622726 
-14.7758493 0.453394532 23.7981186 
22.3660202 0.103005327 -18.9245834 
10.8302326 0.218246594 19.574358 
-2.49652982 0.356268466 16.4762592 
-10.2884102 -0.793730915 18.7890606 
-9.20998001 -0.0943989828 -8.7273674 
-24.0288887 0.175094634 -6.30329752 
-17.9432259 0.351717472 19.4429913 
14.9046259 -0.0484398119 -14.9517088 
6.11701393 0.226152897 -17.1553211 
24.9644699 0.0840593204 16.6673717 
-24.3954735 -0.328601301 -16.7056084 
16.3778267 0.0612117425 -18.4700584 
-21.593832 0.522418916 16.7433987 
21.1959934 -0.482982367 18.738306 
6.10446358 -0.025920786 16.3800945 
-11.2531557 -0.487585813 16.3292236 
-8.26098442 -0.3595348 -16.4053802 
24.5410042 -0.319774836 -15.8178997 
-14.3195229 -0.475844294 16.4670506 
16.5874958 0.191523418 -17.3710232 
-11.326745 0.229208097 -18.0331535 
23.9207363 0.29695037 8.9853487 
18.2170925 -0.118221872 -24.0534821 
10.6839724 0.25330767 18.0299416 
14.8711796 -0.0817270651 -15.1265144 
-5.79296589 -0.320520639 -14.648097 
23.2939568 -0.0712582767 -18.9972572 
-4.56754494 -0.282061249 4.62726021 
-0.666969717 0.0634665191 18.9296074 
-24.6213226 -0.133261532 19.0283203 
4.16219378 0.142576218 -14.073103 
14.7534389 0.00587841356 -14.2498283 
5.46235466 0.291088849 -21.1741772 
10.8400583 0.10455849 -13.6205225 
-22.3519859 0.314002365 11.3544884 
-0.167704999 -0.200006545 -16.1497097 
-15.4121056 0.625892937 -22.3241634 
5.3931365 0.321288586 -18.4754963 
-11.4565926 -0.128746316 -20.5680866 
-13.8905592 -0.117569774 2.55270123 
9.41829491 0.0255171135 14.0722275 
-15.4084396 0.649516821 -15.351161 
-21.5097561 0.227688432 18.5610638 
0.305644929 0.124734297 15.4391527 
15.5305538 -0.187909395 15.4781847 
5.52819729 -0.0854848996 16.3562527 
-2.36000824 -0.207003698 -20.0271339 
-19.2406445 0.303668737 17.1807213 
-10.9998379 -0.21303539 24.9307461 
5.65026474 0.0669874027 14.0797176 
23.8265038 0.651528955 2.86329794 
15.0291576 -0.0934571028 18.5459385 
21.6621246 0.108364306 -24.5186481 
21.2656441 -0.47681284 19.214922 
-23.2987919 -0.491045713 -17.6565094 
0.0996218696 0.478211462 -24.6706867 
4.04268646 0.337682128 -15.8422937 
-0.0793307349 0.52314496 -24.3009377 
-22.2359428 0.297445029 18.3365059 
16.6382847 -0.243339553 -7.07914591 
5.47724819 0.314297438 -24.3830605 
22.0622139 0.079771176 -20.0507526 
21.7652283 -0.413412929 19.2558308 
16.3958015 0.0131670395 9.02309322 
-3.98960471 -0.366598755 -23.6614494 
23.8786926 -0.258671314 -14.3940229 
24.7253876 -0.272431016 -18.1222992 
-18.6611977 0.268101275 18.9409409 
17.3115139 -0.0873451009 6.20211363 
-4.08028936 0.439599037 15.3309002 
24.5851669 -0.476941407 -23.412035 
7.59759235 0.0323114283 -14.7831116 
-6.27319765 0.422067881 16.320652 
18.8999138 -0.29078573 17.522171 
20.6190052 0.128684983 -24.8125782 
16.5297909 0.215153918 -19.3033047 
-5.73492336 0.312245548 18.2514057 
20.6705494 0.348410994 4.08357668 
-7.44011974 -0.384288073 -15.4196396 
20.0515766 -0.296895206 18.6823006 
7.59284592 -0.248255759 -3.70534682 
-8.02242184 0.252381414 14.0588264 
-24.5964909 0.664944589 6.11581516 
-20.8464966 0.57532233 14.943265 
-23.6263046 -0.322358042 -16.4573307 
6.17456722 0.170103863 -14.5636292 
-7.72642803 0.240936264 16.9973202 
-10.6998606 0.0206572879 -17.0657444 
-2.52670097 0.0385815017 14.7815905 
13.7876348 -0.0558811128 -13.8257685 
-13.4909277 -0.21921967 3.9064486 
-20.9972439 -0.313732147 -18.8695755 
-20.0455723 0.640051782 16.0915184 
25.1213493 -0.277254701 -14.7322845 
-2.92833519 0.45068571 19.2140903 
-7.02464294 0.362545878 17.2908955 
-9.98853016 0.02424399 -2.43645263 
-10.213768 -0.110689498 -17.316843 
-19.6651611 -0.0620160028 24.8143692 
-7.4089489 -0.217979014 24.4893742 
-8.24184895 -0.129208133 20.4665585 
-22.0834675 -0.450577557 -18.5012016 
-0.255462259 0.185012609 -19.0788403 
18.5777493 -0.0444046892 -16.7819042 
-15.8713961 -0.179595932 14.153264 
-6.27591467 0.303095907 14.2821159 
5.4788785 0.148529306 0.758644521 
-11.9717236 -0.439331889 23.0402317 
-1.3233062 0.275275052 -24.9919186 
-23.7372894 0.308034867 16.9046955 
-8.9505806 -0.275377482 -18.7036209 
-16.8764019 -0.305746943 7.31516743 
-1.32027364 -0.213976249 -15.653595 
16.6428928 -0.164402306 15.9788294 
-18.5946178 0.108227804 14.0261755 
22.6129665 -0.34513852 11.95224 
8.55023098 -0.00668138918 -15.1183167 
16.8995152 -0.158579662 16.6337814 
-9.92632866 0.165182084 -14.4743385 
2.287323 0.00694643334 14.3905611 
19.7925472 -0.213667601 -17.0265827 
0.895947933 0.285960585 -17.0741138 
12.0065784 0.0830883086 -3.26122642 
-24.2886562 -0.614004374 23.7213593 
4.95502996 0.198136479 -15.7119465 
-21.7062054 0.402251661 17.6179028 
-1.55697548 -0.286286205 -15.5829887 
5.92683983 0.259192258 -21.316494 
6.44485331 0.398231596 -23.0444145 
17.0217094 -0.0679470226 -4.35974693 
-21.7042828 0.610583484 15.4198809 
21.955307 0.290467113 8.85970592 
-9.62614155 -0.0922223479 -16.9229813 
11.0401688 0.0258279797 -13.8896408 
-6.18259239 0.405335993 16.4855499 
-1.48281074 0.265112966 19.7117748 
20.6925716 -0.447846353 11.5693178 
-9.11443996 -0.200486362 -17.0064964 
-3.75582147 0.84632796 19.3127327 
8.51425457 -0.023625657 13.8867664 
16.1342545 0.00652816379 14.092453 
17.8584042 -0.263876736 15.3772621 
2.80854654 -0.198832005 22.9734516 
21.638422 -0.649083972 -15.4605989 
10.2499428 -0.0235616677 23.568903 
-22.5501156 0.535037458 14.9906397 
6.04533195 -0.0413660482 14.054163 
-1.02663779 0.105177201 -19.5526199 
-2.61749172 -0.362058491 -18.9842396 
0.585372031 -0.0349072441 -15.6331034 
-18.960804 0.210178345 23.6585751 
17.3462048 -0.02713551 -13.5501289 
-18.8979836 0.211021706 23.33988 
-10.5241518 -0.647795916 22.635767 
-21.5992165 -0.350376517 -16.3245564 
-2.13096905 0.205900848 18.020668 
13.4235363 -0.124619693 -14.8241692 
17.8204384 -0.108803838 -2.53581953 
-4.89657927 0.252956212 14.4812183 
-12.6342258 -0.547119021 14.6935387 
-24.7538471 -0.232486382 -13.9605675 
13.5742102 -0.0995019451 -14.6071768 
14.8815317 0.000783743453 -21.0510368 
10.3044424 -0.14818044 5.89337254 
-18.2280788 0.092636086 -18.0955677 
-4.14697456 0.449523211 16.577467 
8.34353256 -0.146554813 -18.3848019 
8.05152893 0.0247212518 -13.5577545 
-18.0545406 0.157652766 24.1774578 
-4.5477376 0.519552648 18.4384327 
13.959444 0.0308189206 -18.8738708 
-17.9000702 0.365178227 -14.0170221 
3.63798594 0.269621938 -1.5935024 
11.1088591 0.126615688 -1.2192663 
-1.5892005 0.336849391 20.0684891 
15.3929663 -0.154956967 -13.4020824 
23.2549171 0.631142914 4.81202984 
16.1971588 -0.213394701 -11.3916397 
-13.0486012 -0.235300109 2.27508235 
18.5745716 -0.0415538736 8.14534378 
-14.8222504 0.508393049 22.4480076 
-13.5670643 0.732833922 -18.8998184 
13.9500694 -0.20829083 18.2779312 
-5.29691172 0.153761268 14.3916578 
-14.6958332 -0.35447672 16.9586163 
6.643188 -0.0414024368 16.0601292 
0.180353761 0.537561953 6.33151913 
19.4638977 -0.14068079 19.0340405 
5.79100609 0.277885258 -23.5570107 
-13.7046385 0.75162828 -17.7446499 
10.8378525 0.210099474 18.6698837 
-14.9189329 0.4801929 24.3562298 
-7.45731831 0.29605934 16.5891991 
-5.55300665 0.404736578 16.0301418 
-22.136198 -0.271258295 21.47019 
-20.5206604 -0.0545404553 21.3973408 
5.88798523 0.225731507 -14.4702311 
9.42538452 0.130793273 -15.0683088 
4.75147581 -0.205030903 -6.34755802 
-6.05945539 0.387645274 17.1031609 
14.6371632 -0.242184311 5.70965815 
-23.8655148 0.208797485 14.0337687 
-5.75507832 -0.32195732 -14.8975286 
4.00328732 0.0797004551 17.8872833 
22.1280937 -0.26204589 -17.4037056 
-6.68037605 0.377528876 14.723341 
9.51578426 -0.263431072 7.98783684 
-20.7055988 0.515405715 14.2358589 
-8.07085228 -0.425889373 -18.8965454 
3.23751664 0.437212348 2.02617192 
13.4752483 -0.265249312 23.1896152 
-10.6222696 -0.120403968 -18.787075 
6.85668325 -0.17149429 13.1303215 
-20.5352859 -0.244360834 -18.0747299 
-10.8725719 -0.119949743 -0.411709487 
-20.2409058 -0.0593683645 24.428751 
-12.1087379 -0.456503928 6.6049881 
14.3103886 0.068042919 -19.0800972 
-2.02309275 0.179917291 18.4911633 
-21.696804 -0.183750138 -15.4452944 
10.8753986 -0.147849143 -16.5453243 
8.38447857 0.0572412349 14.7172174 
12.3827028 -0.246531159 20.3261375 
-3.96413922 0.454144865 15.7890463 
-4.42919683 0.436374873 15.4660845 
22.0819016 -0.125141248 -18.1518841 
0.412482351 0.24993813 -18.5984344 
-6.91322613 -0.174032971 21.1935787 
-13.8630781 -0.250860602 4.05156422 
-14.6869497 0.493671566 22.424015 
6.33062172 -0.100641213 15.310298 
-12.4642344 0.0398529731 0.622648299 
-14.5920506 0.540614963 23.3316174 
-15.112483 0.0830190778 19.5643368 
20.4971733 -0.404306889 18.5976467 
3.10295057 0.409712195 -17.8282738 
-15.6778803 0.0604694113 -3.13631868 
-20.4912605 -0.264306247 -17.0473461 
23.6883717 -0.17005609 15.6283808 
-22.5486984 -0.422025174 22.6901932 
0.719985366 -0.0156832803 13.8965254 
-11.1368971 0.318615228 -16.3489323 
9.11285686 0.0215122923 -24.3971691 
-10.4295206 -0.615867019 17.2174358 
-22.853159 0.491126925 14.0690651 
3.41134953 0.109147996 -23.1054745 
23.6353226 -0.0975914896 13.6889601 
-22.9428825 0.213667899 9.20305157 
18.7897282 0.0327672549 18.9683475 
9.06422424 -0.0338972993 -16.6036568 
24.53862 -0.220169201 -17.5160656 
-6.31790066 -0.378720343 -15.8437347 
-22.0700817 0.325383157 18.2825451 
3.81992698 -0.0664941594 18.8085728 
9.52857018 0.229856297 -13.8911295 
13.783289 -0.0568078905 15.9699154 
3.32788086 0.446732223 -16.2810688 
-24.5516376 0.214949191 15.7640867 
-16.6949596 0.357548863 19.4285126 
3.9221983 0.0199493021 24.0807495 
-16.9366379 -0.178867131 16.0861225 
-4.73607588 -0.48685661 -16.4801292 
24.0574894 -0.207395121 17.8287468 
21.3195534 -0.16726172 -17.862278 
0.277062505 0.264977366 -19.1939373 
-2.53678155 -0.280641466 -0.624157667 
-21.2692642 -0.272396237 23.5059166 
11.0411777 -0.139710844 -17.5744534 
14.9574318 0.0459821969 -4.52377701 
-13.206008 -0.535675943 16.9178066 
-4.48935032 0.550334215 17.7914257 
18.0876541 0.0892149508 19.732233 
11.2143383 -0.147677168 -17.6928806 
-16.2358894 -0.106223844 2.69667602 
13.819562 -0.133479431 -14.8100729 
-21.255949 -0.297959417 23.7171135 
-20.7899323 0.575895905 15.0791302 
-23.632391 -0.466184914 -17.5494652 
21.314291 -0.639449894 14.1142731 
20.8542728 0.195756987 -24.346611 
-2.20570469 0.173703417 18.5349083 
1.93274474 0.206891254 10.4745235 
11.4222107 -0.168093115 -17.7898827 
5.37502909 0.0144661553 14.1170454 
-19.1559086 0.23666209 21.7054749 
24.6662807 -0.279580921 18.5571671 
23.1789894 -0.0569719523 -9.18663979 
-9.09591579 -0.0527147502 -8.56970596 
-4.89128351 0.410370857 16.3225441 
3.40449691 0.0929156169 15.7217503 
23.7244606 -0.114902876 -20.4460278 
25.334692 -0.00224637659 17.0445175 
-24.6556702 -0.0589424036 18.5292568 
17.8689098 -0.283455431 15.2185011 
14.8312588 -0.0320302695 -19.2117863 
4.29073858 0.495811015 -18.5428085 
-2.54500008 -0.475618422 -15.7336788 
23.5499859 -0.265941083 15.9369478 
11.5292149 -0.182173789 18.36273 
23.3902092 -0.189138785 -17.0287495 
-12.9558964 -0.202269047 24.7296791 
5.2453804 0.0396143906 14.5784206 
10.5084829 -0.0105580818 -17.0803051 
17.0960026 -0.242590427 16.6217289 
24.0263462 -0.25508818 -24.8734112 
4.88198566 0.326240689 -18.9452076 
23.0493908 0.0217903759 -20.2496204 
-9.54148483 0.11232961 -15.6049366 
-13.7423782 -0.588359654 15.4784403 
-19.4075851 0.0276685245 24.7346973 
-22.6918049 -0.607104361 -18.0407715 
14.4528151 -0.0316799916 -20.7123394 
-17.5059566 0.537403107 21.8782234 
24.6987991 -0.567719936 -22.965538 
-9.91713715 -0.622976661 23.0159512 
15.273798 -0.140754253 15.5269871 
14.8101215 -0.215697512 20.8764286 
-24.3558445 -0.478455186 22.6678486 
-17.6981201 0.294695407 -16.5949841 
-24.3678284 0.0115694795 18.5788116 
-24.0829201 -0.511963129 -18.5706291 
-17.6310787 -0.187624782 15.4589663 
22.5021458 -0.497402042 -15.081234 
24.5161629 -0.120986201 16.3685284 
-17.4402313 -0.155510619 15.6708689 
-10.9084911 0.317508787 -15.8115253 
13.2783442 -0.15016219 -14.9134731 
-0.120611846 0.484756827 6.92531967 
5.37073088 0.267650902 -16.4612675 
-3.90839005 -0.580086112 -16.4295139 
-11.5152082 -0.298067302 11.5187073 
1.53467751 -0.0799345225 22.8322372 
14.3573036 -0.188889623 -15.806673 
4.39138842 -0.0517551415 23.5080128 
-19.002985 -0.00540505396 -17.50284 
-21.5289402 -0.172795281 -1.5437988 
6.4676671 0.0956562683 -17.736742 
21.3553848 -0.365774453 -16.6107063 
9.10740852 0.0272566751 13.9955673 
-7.38937521 -0.0537093095 23.8663082 
15.2492495 0.00981544517 -19.281683 
20.710371 -0.37134251 18.2299652 
12.8141298 0.262049943 -5.63473415 
14.3115826 -0.168772802 -15.9774084 
0.11141108 0.233588159 -18.8319149 
-2.04146266 0.192372546 18.8587074 
-4.40991068 0.447985023 15.3224869 
-5.10403585 -0.395871013 -17.3893433 
20.2915401 -0.206228852 -20.2930012 
-19.0693302 -0.224167302 8.19682693 
23.4171772 -0.187713191 -17.2931519 
-7.4767518 -0.240925178 -23.6833439 
4.5717659 0.373006672 -19.0755806 
4.74747992 0.240433171 -14.1740704 
8.74480343 0.208876505 17.0285187 
-10.4721537 -0.169898421 -18.4821339 
21.3042526 -0.443887025 17.3014698 
19.7038441 -0.227916569 -16.5296345 
-3.27722907 0.0197220203 24.0539474 
18.1750298 0.0709622502 -21.186697 
-21.6073837 0.060521394 19.4550896 
-4.79687977 0.395607561 15.5763121 
9.22666645 0.190817803 15.0790339 
-5.59915161 -0.52467519 -22.4862156 
13.2113304 -0.138820067 -14.3674841 
-11.2030058 -0.750186384 19.1159973 
-23.2610779 -0.522156298 -17.8362904 
0.158597395 0.226965964 -19.1691303 
17.730669 0.271848947 -17.4199123 
-14.5758514 0.555732489 -15.9052753 
21.1931877 -0.458299905 17.1410866 
22.8778591 0.0593453385 -7.63988161 
-24.2944088 -0.393935025 -17.3328381 
-7.82425785 -0.510029674 -19.0483036 
-17.5669518 0.322596431 19.1048222 
1.51606727 0.457715958 -17.5188351 
-21.311821 -0.292047173 -0.861363947 
-5.97444677 0.298427194 15.8129034 
-16.6588612 0.422326118 -15.7404671 
-14.3522539 0.0379140377 -2.61888933 
-19.9468174 0.592854023 14.9607792 
10.5210447 -0.201681271 -15.2888126 
-0.797257662 -0.0423463508 14.4610004 
-5.24321842 0.222773373 14.5902481 
19.3753548 -0.611479521 15.3071432 
-18.4777832 0.161575705 -15.8118401 
2.46920466 0.0959595665 17.9866447 
-5.32545519 -0.493032455 -14.0604525 
-6.64021349 -0.53293407 -18.5023003 
-24.3457584 0.139407262 16.9060268 
-23.9605598 0.325543702 10.3180599 
-10.6977262 -0.442376077 15.2082281 
-0.612187743 0.372538477 -24.3585014 
-3.42544961 -0.00214264914 23.9426975 
18.3037281 0.0237813815 3.94569635 
-15.6689997 0.567144573 -16.1606312 
-13.2040167 -0.431410432 13.9812832 
1.55592072 0.368482858 -16.9722443 
-20.2820415 0.432757616 13.6603289 
-17.4807377 -0.250997365 4.36076355 
-17.2680149 0.452989489 -15.0923843 
19.6268501 -0.208392382 -20.9246502 
-8.88500404 -0.218271941 -16.5131645 
21.5998611 0.183823779 -21.0000248 
19.2237415 -0.599957228 15.1920443 
10.0833902 -0.0108122444 -21.7703609 
-19.1801014 -0.086818397 -17.7758331 
10.5873756 -0.0926805288 -18.873476 
-3.27071977 0.461819649 16.7134151 
-16.1081219 -0.133242771 16.4326649 
0.709014833 0.115360141 17.987648 
-2.20011234 -0.345884353 -16.4062481 
2.90475106 0.410705179 -14.8849554 
24.4878025 -0.103279233 16.044775 
-10.4471493 0.0880785882 -16.2365952 
-10.5016241 0.210614219 -15.6989717 
-9.00480556 -0.0863521546 14.2730818 
-20.1966228 0.464567631 -7.19796228 
-3.63744807 -0.644804478 -14.8300705 
18.5946617 0.289385647 22.3882179 
14.6163759 -0.140150771 18.3484306 
11.9898109 0.046204295 -24.3929138 
-0.618881583 -0.119318433 12.1249256 
-22.3551235 0.407846361 -8.72385025 
23.922739 -0.31974113 -21.058857 
3.83103561 0.151707426 -23.0374222 
-5.85294771 -0.390705079 -15.4006348 
4.44052172 0.37338534 -23.6398659 
-24.318325 0.195248231 15.0033531 
21.1026649 -0.332172006 -17.0494766 
15.7407513 -0.0468528681 14.0925388 
-10.6293917 0.289185077 -14.3844643 
-17.4385853 0.422476918 19.8834476 
19.0923443 -0.234894976 18.2385674 
7.95392513 -0.12453986 -18.4162159 
-14.344553 0.697761178 -18.6657486 
0.517105162 0.0282466337 14.8243303 
-3.36738324 -0.565395474 -16.5904121 
2.27569866 -0.126603454 21.0553989 
13.5410042 -0.103383824 16.2485142 
-19.1631012 0.365229547 16.2307644 
-10.0757504 -0.0650424883 0.199006468 
-11.0265284 -0.418992549 23.4246616 
-9.1250267 -0.341058761 -19.7945461 
16.2367134 0.00397048565 20.0788059 
-22.79743 0.46137023 15.5472012 
-21.8338146 -0.0797454044 -14.9296665 
4.93949556 -0.0733777061 -4.29911184 
9.22994423 0.142778113 17.5163898 
-9.99864578 -0.128026381 -19.9379139 
-7.51809549 0.296450347 17.3308926 
20.0259628 -0.255218446 19.0314445 
-23.1749763 0.421530485 16.7927647 
-15.2046871 0.410199374 -19.0523396 
21.6392136 -0.331716508 -8.12082577 
21.3824863 -0.100371696 -18.1373215 
24.9347954 -0.248293176 -15.1348372 
20.4819374 0.206910446 -0.339795589 
12.7116051 -0.420363367 18.7522526 
17.6055889 0.412094891 -15.7241802 
-1.46228981 -0.00181076583 -19.5094814 
14.8658552 0.0370019861 -19.9063606 
13.1533327 0.0468478948 -17.5712872 
-22.2463627 -0.503353536 -18.0834122 
-14.5536757 -0.428706378 16.1651917 
-0.406848907 0.162526071 -19.0470829 
-19.286993 0.254535943 21.6649723 
14.3084097 0.0328201763 -22.6034451 
14.8494635 0.0163576268 18.8715153 
24.320137 -0.27299577 -17.0728722 
-2.78291798 0.367193609 19.5112171 
-16.4243259 0.429341048 24.4821625 
-9.2589426 -0.426734447 16.8561783 
-23.960125 0.1968261 14.3274212 
14.1682959 0.2168874 -4.17093849 
-21.0024166 0.539004743 14.156333 
-2.13269377 0.184568316 -24.835598 
25.0016823 -0.304751575 -16.5925503 
-22.4198589 0.595184684 14.4081078 
-3.51761341 0.677370489 17.7614994 
18.6748505 -0.0608545244 -20.7445068 
23.3916874 -0.130576223 -22.2444668 
-23.4358368 -0.372559547 -14.8257122 
-18.1700516 -0.0520696528 14.0286827 
9.93107033 0.585135043 -8.32595444 
24.4444027 -0.35108456 -24.8056908 
-11.0961142 0.0784424245 -18.4243851 
8.70487309 0.190945581 -13.8853884 
-6.08365822 -0.0699723139 23.2142181 
-7.28209305 0.411958009 15.2851934 
11.9883652 -0.176725522 -17.210186 
13.7232618 -0.0886521041 -22.5562344 
-14.9009571 -0.127690226 -3.81185532 
2.92466664 0.072829932 18.9123592 
-18.1724205 0.296007574 18.7405224 
1.35703123 0.396787047 -17.210537 
8.21605682 -0.0923078358 13.2325735 
-23.10886 -0.097957924 20.3805923 
-9.14023495 -0.480878502 24.3167229 
23.9194183 -0.109072514 -19.1955395 
7.25521898 0.122394815 -23.0703354 
-15.2833662 0.403901726 -12.9005032 
-1.03371978 0.375989914 -24.6956749 
4.2009511 0.465896875 -18.7591133 
-5.74252319 -0.604248345 -22.9669857 
-23.8071575 -0.263691306 20.7833595 
6.53515625 0.21246995 -19.5267467 
-14.4216824 -0.215401545 18.2480049 
15.0725012 0.0443943627 -22.2582684 
1.13789487 0.336722523 -17.6735458 
-10.717823 -0.485819757 15.982708 
-23.8872547 0.197197318 17.3205814 
-11.8722324 0.44702962 -15.3418722 
-14.8997698 -0.376082301 15.7545624 
-4.18284225 0.424577594 14.196022 
6.38159323 0.400039285 -23.2672691 
-23.8680687 -0.453421861 23.3546467 
18.29916 -0.122058995 -14.3426342 
-17.6708698 0.151844993 -18.20084 
-14.0583401 0.846343219 -19.3149147 
12.2674541 0.107946873 14.9924841 
-0.757899463 -0.34538871 -14.5721636 
-24.1343765 0.0191797204 18.3622646 
20.0202847 0.0451423861 -2.59553242 
-10.7346115 0.304291636 -15.3525524 
-1.02557075 -0.152073115 -16.3276405 
-13.7605553 -0.296575576 8.43274498 
18.9993362 -0.54869473 14.7666245 
-9.20563793 -0.472648084 17.9595528 
-12.1323977 0.65724647 -17.2148952 
0.513662457 0.244492844 -20.3158989 
24.5625267 -0.252022296 -14.828701 
-5.06891394 0.414366007 16.8658524 
-20.5221558 0.262793064 -13.2111177 
21.6393681 -0.447278619 17.9416904 
15.4847851 -0.0535553209 -15.137166 
-24.3080406 -0.477758884 -18.7777786 
8.90812492 0.101753943 22.7812538 
-14.3933115 -0.107051335 18.6614933 
13.0050116 0.0790773258 -19.4017258 
-19.9129391 -0.0217639431 23.6556072 
-17.326725 0.438541919 21.1988888 
0.746445715 0.241822064 18.9998817 
6.36443806 -0.0849091187 14.7042713 
-7.45015478 0.317872703 13.9457445 
-15.7971296 0.0652648211 18.9859943 
-3.55597162 -0.367617249 -20.2731018 
5.54056978 -0.0305939708 17.0083389 
0.0806564987 0.0137099372 16.4013901 
3.78234816 0.0432830304 11.2167664 
22.1232433 0.288466156 -22.3331299 
-21.222868 -0.33442083 -18.1128311 
-22.3057957 -0.358822852 24.1523857 
2.7945962 0.175417691 18.2671013 
-18.4978065 0.165334269 -15.6541405 
21.0875607 -0.473569095 -15.433609 
-19.9994564 -0.0633183345 24.8566666 
2.91807556 0.450653017 -16.753252 
-8.91563416 -0.0322188921 -8.69605446 
16.8696156 -0.110519275 17.8663197 
-13.9898262 0.120303728 20.6009388 
-13.4287233 0.618811309 -16.4037094 
18.107317 0.0350507423 19.5161114 
-8.09858227 0.0608252324 -2.20599318 
-4.55441761 -0.494078577 -15.0022631 
5.30915308 0.243807897 -14.5768089 
-12.9329052 0.749564469 -17.9056473 
-21.7327442 -0.330312818 21.8677216 
23.6394329 -0.0797404274 14.4117365 
16.4662781 -0.371325105 -5.55989504 
-12.575736 0.718219876 -17.0385513 
-13.8954535 0.712309539 -17.5420589 
-24.119936 0.282632023 16.7086544 
-1.17600286 -0.146390647 -16.6660137 
-3.5770843 -0.162379533 -2.66968918 
-21.7602501 -0.320042819 22.2705059 
18.4160881 -0.15911673 18.5193577 
3.55228877 0.471831381 -18.2274895 
16.9632778 0.259505481 -17.1585808 
3.71325469 0.157812342 -22.8358536 
15.4230862 0.0957492962 -23.648571 
-10.4351549 -0.331429154 -20.3553772 
15.8694324 -0.100301541 -18.2948818 
-18.3107433 0.206876844 17.545826 
22.4752865 0.135409907 -18.7892838 
16.8280716 0.0892056227 -14.8870544 
16.7613068 -0.214174196 0.195727423 
-10.9403343 -0.462021619 15.0257921 
22.0596695 -0.58335495 14.6653223 
-16.4952564 -0.0375571623 17.0690269 
22.5092831 -0.229681239 -17.2858315 
3.31792116 -0.0751442164 -5.56663513 
-4.22753572 -0.138192803 -1.25911427 
-14.8898268 -0.367622763 4.76334953 
16.8676796 -0.0761131942 19.3875427 
20.870533 -0.62556833 15.8544655 
0.233021632 0.263834924 -19.4920197 
6.59492826 -0.0464642122 4.65406799 
7.77270699 -0.53588295 7.72396708 
13.3934259 0.0506498218 -18.3599548 
-20.8751068 0.529249728 15.2178059 
-21.5731182 0.676988661 13.9510069 
19.8679905 -0.326543093 -15.3609962 
5.38430595 0.275070131 -17.4522018 
18.2571545 0.0533149801 -17.4627056 
-7.51681089 -0.304641128 -24.7871552 
-19.1557426 0.204581067 -14.2959318 
-12.4336472 0.733498335 -17.4147892 
-8.47504139 -0.120983377 -4.77714968 
-19.007843 0.188249305 18.4190865 
15.8574753 -0.0841022804 -18.7617645 
-19.2071266 0.261681318 20.7282715 
13.8597136 -0.144256473 -15.2618008 
5.08894014 -0.0712721795 -4.80202198 
9.52526855 -0.0529331937 -16.7665844 
8.04865456 0.0320017673 -13.9280386 
-7.20642948 -0.573880196 -18.473505 
-7.54867506 0.176331967 18.5316696 
-21.0306759 0.477380306 16.5718155 
-10.6789484 -0.39225629 -5.79953718 
2.97378516 0.416538149 -16.2472229 
-1.27985477 -0.206259117 -16.282547 
-22.1344509 0.232016012 18.9276218 
13.2598772 -0.162546054 9.72774029 
-12.3843069 -0.427396208 14.2123594 
-7.22930813 -0.098619923 22.269062 
-21.857893 -0.344116271 -18.2556381 
16.438158 0.102638103 -17.7009144 
20.887289 -0.440109164 11.4914722 
20.0340939 0.250347644 4.84147835 
22.4535294 0.0818667635 -18.5502567 
5.83153534 -0.363466233 19.3512573 
-24.5006943 0.224868089 14.1376801 
16.6347542 0.215918809 -16.5415916 
-23.7322903 -0.302330881 -16.1812687 
19.0064106 -0.1726228 -20.1069775 
-17.1146526 0.4276326 -15.9918346 
-14.4176903 -0.162960276 8.70374298 
-23.0858383 0.457360566 14.0500774 
12.2912807 0.129501 -20.7035618 
23.109457 0.0113431569 -20.748827 
-3.16932344 -0.385192513 -21.1993351 
17.2587547 -0.00717418361 -23.2108364 
-23.4397621 0.151018083 18.453846 
-18.2135029 0.112028494 -17.9463234 
25.2737541 0.180791587 13.793438 
-19.6797714 -0.178699389 -17.3805428 
5.67173862 0.254257679 -18.2039528 
-7.0890317 -0.57016784 -19.897398 
-16.9075909 -0.132492065 2.80891061 
17.3944321 -0.225754425 -7.72699833 
9.20689106 -0.0344433151 -17.9373398 
14.331027 -0.0338484272 -14.0499849 
-22.0744381 -0.261964053 23.8738041 
-8.88824749 -0.047690969 -1.68275571 
-24.5212116 -0.0715509281 18.8552189 
0.528090477 0.273496389 24.2638683 
-11.1902399 0.101816095 -18.4914265 
25.2173138 -0.165610105 18.8095226 
-5.35903788 -0.411770552 -14.5973921 
-6.61707783 0.337614149 14.9619513 
-17.3068962 0.237895772 18.4446297 
-19.1679382 0.243089512 21.867342 
-4.46700716 -0.172183737 -7.96950245 
17.1864319 -0.289195627 16.7164612 
-15.5440016 -0.0106267855 18.9084702 
-21.6145725 0.637165964 14.3345442 
-12.1348991 -0.674390912 21.1322193 
3.21131015 0.0998578742 16.4569378 
0.612515986 -0.0505923741 12.3749456 
-17.7163982 0.237663299 17.7815285 
-6.7517767 0.36569041 17.8909721 
5.05602741 0.244120434 -17.08358 
-17.4494247 0.264258981 18.5324497 
3.83914876 0.355829656 -15.341403 
-18.7913246 0.0964308977 -15.3017187 
9.47719193 -0.0358348116 -17.1446304 
7.20951033 0.108673759 -19.2577076 
10.9504356 0.0356847048 17.1010742 
19.152832 -0.437393188 -18.2489548 
-16.4404507 -0.0139330989 17.5231953 
-16.9355679 0.429959387 -15.9052343 
12.329668 0.134792879 14.7499838 
-5.22558594 -0.501856923 -14.2607384 
20.7555199 -0.692807496 14.26756 
-12.4888954 0.770502508 -16.4566555 
-10.2385378 0.230252415 -15.4039516 
-5.48212528 0.436138153 17.0196114 
21.8963718 0.544815183 4.90757179 
3.97012329 0.430618167 -21.2135983 
10.1367207 0.0945838541 12.6369514 
2.98013854 0.237128496 -22.9345379 
-4.03316545 -0.499134481 -18.5940399 
-1.40867317 -0.130080849 -17.9232006 
1.56836069 0.391314387 -17.9057999 
-20.0956554 0.60318023 16.504982 
-24.535532 0.199938387 14.814909 
-6.19230366 -0.308240205 -14.8823576 
-4.30549765 0.681613624 18.3380623 
16.2586117 0.0388369858 -15.1107931 
-14.4156551 0.420138896 21.0472813 
14.7536688 -0.0921447277 -15.2162886 
11.1298962 -0.113721147 -18.0492954 
-11.6835451 -0.392644674 14.6258211 
11.5555773 -0.010400584 -20.1089706 
13.9683151 0.00867207535 -17.4368362 
12.2868404 -0.189169899 16.9467468 
5.29672575 0.252269179 -16.5918789 
21.5751343 -0.75058037 -14.8831282 
-19.4785824 0.186194003 19.4133339 
7.75467443 -0.150505349 -17.7087021 
4.16402006 0.124156252 15.2583876 
-1.92444265 0.0296603777 -5.91840124 
14.2969503 -0.0533589944 -14.3427019 
-12.2607164 -0.688697815 19.6117592 
6.7177763 -0.283885151 -4.10027313 
-11.6163092 -0.427116632 15.4284096 
-0.929787159 -0.0205126591 14.9628935 
21.4841442 0.331057101 -22.2377052 
0.476747751 0.0770466402 -16.8175678 
-8.35903072 -0.226693287 -14.2688112 
-24.6866913 -0.331943542 -18.7976398 
17.8585949 0.271236122 -16.4170589 
-19.3533707 0.135731325 -6.81361771 
-10.8965931 -0.595425248 17.0649548 
16.0383492 -0.0926698744 -16.3119431 
-6.12888241 -0.169552535 10.3216381 
-12.6957273 0.761722386 -16.7461014 
-4.79566622 -0.436582178 -18.6200066 
16.6072617 -0.0391908437 9.48745251 
12.7406616 -0.166173205 -16.7920494 
12.133441 0.125209793 -14.2680559 
17.7744045 0.274595767 -17.0755577 
-16.3221703 0.43570295 -16.5496883 
-15.3616438 -0.183693245 15.1923027 
2.70552397 0.0304542929 16.488842 
20.3690529 -0.409467906 -15.6034021 
-9.4833107 -0.471072733 17.0676079 
17.3913841 -0.330813706 16.8546047 
7.21781111 0.260863155 -15.7831669 
2.4554801 0.302244097 -15.2668686 
-14.70473 0.539839566 -16.0507603 
-23.2130413 -0.378243595 22.1138535 
8.75993156 0.0377792083 -20.1939163 
3.34832144 0.443918973 1.98942661 
24.2712288 0.479562312 -0.614096582 
15.8944054 0.038707912 -23.0291691 
2.54653382 -0.0214345548 14.6382494 
15.1575985 -0.207667947 17.927187 
-14.5408602 0.119809665 -1.11535752 
5.44910526 -0.114374079 15.5354166 
16.4291725 0.0866722167 -21.1387577 
21.4259682 0.0540354438 -20.4393005 
-12.5207472 -0.602458119 18.1412525 
18.8545132 -0.215394363 -19.8240852 
-11.274641 -0.241216063 2.13992333 
25.0142555 -0.309302598 -16.3768635 
-23.9216251 0.140023142 16.1722603 
-0.169165805 0.0212407373 3.12882113 
2.24463439 0.0752019659 -2.50416899 
24.848484 -0.241421774 -17.9709415 
0.305011183 0.0679498315 15.824543 
21.9728394 0.0257048905 -19.5555668 
-22.6207905 0.358259946 18.0035133 
0.32455501 -0.0457966514 13.9888554 
-10.7783585 -0.366091728 -6.258811 
20.7800598 -0.384550661 18.7899818 
13.7798157 -0.111560456 10.3124599 
10.8435526 -0.0870088115 -22.1951618 
-1.15434003 0.0212174542 18.0256119 
-10.7775249 -0.458292812 14.5080318 
-21.1015072 -0.304844528 -18.2337532 
-13.3205347 0.522208035 -20.520895 
-6.0377326 -0.410770029 -16.1490898 
-13.0148191 -0.39002955 11.5787773 
19.9858971 0.260505557 1.71462822 
-19.2792454 0.258705497 17.9005928 
-22.7693214 0.373499334 17.9365978 
-15.3094769 -0.173485219 15.5715122 
6.51002359 0.14734444 -18.6573982 
-4.13593149 -0.55723238 -12.4218416 
0.939339638 0.0729222521 15.441597 
-11.3286037 -0.295581132 23.70401 
-4.8657608 0.503401935 18.9168739 
4.36758614 -0.080900006 8.37825584 
-24.3586845 0.768827081 5.05459452 
2.69447565 0.340631127 -14.7992125 
7.42141485 0.026882248 -18.6701584 
5.35884953 0.2415573 -20.8118858 
4.50006819 0.252857327 -20.1938553 
5.93220186 0.212652519 -17.812006 
-21.7522717 0.733972847 14.1899395 
20.2042427 -0.342969179 18.7179756 
9.14504814 0.133783907 -14.8620958 
-16.5755253 0.446465254 -15.4658852 
-19.5711136 0.612699807 15.5667276 
-24.7575989 0.63340199 3.90127563 
19.377903 -0.316336155 18.1026478 
-4.21134424 -0.54804635 -17.5707054 
2.3862958 0.0756254718 18.4146347 
-19.2298622 -0.223820984 -19.0046291 
-21.925806 -0.276968658 23.8267918 
4.48486853 -0.00913722254 15.5053406 
-12.3894472 -0.709365308 19.885397 
7.54285908 -0.0585084334 14.1113787 
5.99926233 0.194192111 -18.8250828 
-1.61745977 -0.159112245 -17.6326122 
-21.2022457 -0.294114351 23.3757343 
2.67617273 0.0227415338 15.1839752 
22.5720215 -0.339165121 18.9830379 
20.84165 -0.208079293 -18.7633247 
-5.03976011 -0.211450681 22.9188461 
23.3494434 0.441469908 6.99088669 
14.1397715 -0.201772347 18.5591717 
4.60709524 0.21865809 -14.2616806 
16.4874859 -0.0681843609 17.2048397 
-23.0359802 -0.198199257 21.1915588 
6.82926321 -0.127479225 19.4695015 
-20.5347977 -0.0104649179 -4.56257153 
-11.5225582 -0.141260639 -2.7526505 
-16.2070141 0.6802122 -14.3717346 
-13.8594799 -0.131411746 -2.30029488 
6.19839811 -0.0489047244 14.0283451 
7.36986303 -0.104466125 21.4844761 
11.5016079 0.053520672 15.6679296 
-4.29868603 0.62740165 18.1885128 
-1.92853129 0.101338103 15.4366512 
18.8407078 0.255400151 20.4863377 
-3.73110485 0.307459056 14.3026047 
14.7479887 -0.126020953 18.2937088 
-8.89447594 -0.339401484 17.704422 
18.1962433 -0.0207462981 -21.8136997 
-15.6146927 0.117618673 0.596941113 
-3.6252346 -0.592723489 -16.0027275 
-4.44458342 0.434607446 15.1678133 
-17.1247349 0.0467167385 -7.92551661 
12.8527527 -0.106699005 15.9870892 
-15.0634031 0.599704802 -14.3621397 
1.42727339 0.516278327 4.90941763 
-24.4082661 0.217459261 14.7227039 
24.2274494 -0.231400326 16.8812428 
2.13230276 0.0783992633 24.926918 
8.20177078 -0.119392529 -18.465744 
-5.778584 0.246535778 15.366889 
-14.6480551 0.550325692 -17.3323097 
5.35054541 -0.012049688 14.9280405 
-22.4230156 0.459197223 16.5906048 
-3.49361205 0.43953833 16.4194031 
-0.82534349 -0.183154881 -16.7759933 
9.63718605 -0.0838041529 -18.306221 
4.16492701 0.377025783 -20.8174725 
2.57649255 0.372174054 -18.1740284 
-8.32352352 0.0104975067 15.0095654 
-22.7271976 0.254411399 18.6215973 
-18.932682 0.364323348 15.7437201 
-12.5407419 0.374096543 -19.0214539 
17.7923622 -0.467934102 13.876667 
7.85209799 -0.098788254 19.8234444 
-19.6749477 0.605475783 14.8730974 
13.9028053 -0.110387184 -16.5152111 
-2.62523031 0.360346347 23.7034588 
-6.5782733 -0.297055781 -15.575181 
4.07169294 0.260350555 -22.7481632 
-9.74813747 -0.49091664 22.1401768 
5.1424017 -0.0230742376 16.9849033 
6.68919277 -0.0645600408 23.3851757 
-23.3228722 0.0873195454 19.8446503 
-21.3193054 0.128964424 4.03464079 
-15.1934996 0.575678766 -14.882762 
-18.4570751 0.170812026 -16.0002594 
8.27768993 0.0382449292 14.2239609 
11.9173918 -0.28426972 18.0102539 
20.4192181 -0.648780107 15.5936699 
21.8232613 0.0641004071 -24.839201 
3.71471405 0.153900832 16.1098499 
4.97881079 0.313156456 -19.2222061 
18.4813499 0.0917201787 19.7915688 
-24.2614822 -0.281417519 -15.8627062 
-23.4493771 0.295882463 17.758482 
-20.6341591 -0.248146579 -17.1134567 
15.5010834 -0.349505991 2.37126207 
5.03007269 0.176731586 -16.2306366 
6.1099596 -0.438584983 9.66941166 
10.9232845 -0.115305185 -19.9054394 
-5.16647673 -0.284535229 23.1686592 
-2.52355051 -0.421047896 -16.0542908 
-18.7472439 0.148883447 23.8203545 
-9.24114132 0.0834081173 -14.3889484 
17.835104 0.258911788 -17.1804352 
-21.3443604 0.558203161 15.1457024 
-3.6989646 -0.29169026 -20.9799767 
10.7334814 0.271657616 19.2673531 
-14.3556471 -0.495357126 12.6709909 
-10.7012234 0.233393058 -16.011055 
-9.96358776 -0.555544496 23.4913635 
15.9806385 0.00328477286 13.9815121 
2.28823733 -0.0166098606 20.2929382 
-22.4122429 -0.156657279 -14.3073521 
-22.2815971 0.124698818 19.264637 
-24.3832283 -0.433995515 22.3403778 
3.21801066 0.432440281 -15.4700289 
-15.5009708 -0.091748409 16.0851421 
-1.49797606 0.00982871465 14.7273045 
0.584068298 0.294580132 -21.0004787 
7.96764469 -0.0317398794 17.840826 
22.9027042 0.412547022 1.28470731 
-15.0174141 0.554989338 -17.1163673 
-5.90933943 0.414959341 16.9746494 
12.1687679 -0.09994407 21.2022171 
