ply
format ascii 1.0
comment created by gply, a Houdini tool.
comment converted from .[b]geo
comment for more information about Houdini, try:
comment www.sidefx.com
element vertex 1270
property float x
property float y
property float z
element face 0
property list uchar int vertex_indices
end_header
7.10311222 -0.0333252102 -14.110961 
-11.6519661 -0.318419427 -2.59942913 
-12.9517527 0.144857436 23.8166409 
1.50604177 0.144172758 16.0766869 
23.6924801 -0.541702986 -8.51119614 
-19.655674 -0.0387863144 14.3214426 
-17.3733444 0.0826653838 9.46964836 
2.79673696 -0.36197257 -15.7144384 
21.0421047 0.0775689557 -14.5963411 
-18.720644 -0.39818415 23.3412228 
4.98725462 0.469286859 18.8207932 
10.6412802 -0.0363221467 7.53675699 
12.885232 -0.0723784789 -13.8127623 
-0.653778136 0.409004152 16.4279099 
-1.98071313 0.0216321703 -14.3307123 
12.718708 0.333860159 17.3068619 
-15.9723558 0.491419464 15.0193205 
-8.74974823 0.200287193 -8.90398216 
-3.96039438 0.189339504 12.3859301 
24.8240585 0.3937971 -3.56979084 
10.0103722 0.0576600209 -23.053154 
-21.0252819 0.489839762 8.35745049 
12.8364334 0.612670183 2.87380338 
13.8741722 -0.318094581 -20.2717247 
-23.292593 -0.288742423 16.2966576 
-17.2056751 0.404404491 14.7237988 
8.59630299 -0.49415949 -7.00692749 
22.5922871 0.366046607 19.3191509 
10.1915846 0.0350878909 -24.1009712 
24.2052078 -0.0689159632 11.1463537 
-2.07530975 0.202448785 -0.559392512 
-4.61184597 0.111983091 -15.2676563 
-17.5329876 -0.0661289692 1.25775552 
-21.1314449 -0.225649685 24.7866421 
-7.74584198 -0.662579656 16.0979824 
3.75319576 0.129472211 14.0034771 
-21.1867599 0.527551889 8.88305092 
19.9599133 0.0319137834 -15.9730558 
19.184742 -0.245913193 12.063406 
9.46646595 0.154562965 10.5821333 
22.5365925 0.157499611 -15.7765198 
-9.3472147 -0.280000031 8.31092262 
-3.3216126 0.0345648527 -18.2516994 
20.1174774 -0.0260890611 -7.21801615 
3.83311319 0.100270979 8.61778736 
10.8705893 -0.247795403 -12.2766829 
-7.40600348 -0.578200996 15.6277637 
-12.9544725 0.369706124 17.0517921 
-23.8921547 0.258185148 -0.169061482 
14.6483011 0.205448538 -3.51625252 
22.8437557 -0.595472097 -8.97212505 
13.8381901 0.371953964 1.0964359 
7.75807571 0.280067801 10.0943394 
20.3384018 -0.0228902977 -15.9565849 
-7.24528837 -0.392497361 -5.00166702 
18.5594864 -0.472909987 19.2329769 
-20.9656277 -0.0976747796 15.331953 
-23.9693375 -0.114246793 18.3018036 
-9.82876873 0.0320428684 -15.0278807 
4.11006451 -0.334595263 4.33612156 
-17.2040882 0.110695854 10.0270414 
-19.7002583 -0.227298245 23.0393867 
-22.8060741 0.0912557468 21.143034 
19.4450188 0.262786686 -10.3481569 
12.2999439 -0.162222981 -8.99545574 
10.7654734 -0.225542307 -4.26140118 
-11.7509613 -0.26146242 9.29936123 
-5.99069929 -0.494064897 18.9305382 
-12.2326317 0.0402667522 -12.2626543 
-0.688460827 0.297002643 13.1941833 
7.79450035 0.264326215 9.84597492 
-12.7702131 0.323610961 16.6687851 
-4.25870419 0.198024467 10.4733191 
20.8843098 -0.515636027 3.83592367 
-1.17880702 0.492898315 14.4956474 
18.2715359 0.479644537 -9.7369585 
-23.6478615 -0.524251521 -9.7223835 
-6.70575809 -0.639591277 17.4049587 
24.7582893 -0.443049163 -8.74736404 
-10.0652075 -0.344070345 4.77676105 
11.8022957 -0.338104963 22.639328 
-2.11495423 0.090129517 -8.2860136 
-16.9545708 0.374169558 -9.36903763 
-13.0636101 -0.398486495 0.219590813 
13.5490437 0.0691087246 -8.79898548 
14.2033968 0.159667626 -9.01436424 
2.34633756 0.00377510977 12.7504988 
19.4746017 -0.231011689 -17.7300911 
5.24811172 -0.158846825 -1.00294232 
-18.7652016 -0.269461989 -11.4480333 
-20.3730373 0.55671519 8.74623966 
-8.61289501 -0.584778368 10.104228 
-19.2392712 -0.101403795 -18.1225433 
6.35585737 0.114210665 12.7837 
6.48114395 0.331377596 10.879858 
24.1002922 -0.497879803 -8.66936302 
5.30948019 -0.020516552 -13.7143173 
-3.54572725 -0.0760768801 3.69926143 
-17.2049294 0.312026322 7.16470098 
10.0580883 -0.250543684 16.9491196 
-5.197505 0.317966342 10.3286905 
2.07334852 0.0718530789 13.1034851 
-21.9876785 -0.0836840943 -9.81663895 
-13.4746771 0.26623857 19.2826824 
9.98729229 -0.668475032 -9.90419197 
23.4850502 -0.260983944 3.4475584 
22.348959 0.235195428 18.8355656 
3.87506795 -0.0995786414 -9.60828209 
-17.3711452 -0.472415358 -17.6538582 
-10.6763763 -0.382463783 4.98081064 
-19.3454704 0.267415375 10.5741863 
-17.8859329 0.0145604452 -9.10173798 
-3.20689178 0.10374748 -17.8203487 
-15.5641088 -0.0431524254 -13.3755312 
16.7562313 -0.239766568 -18.3404999 
20.8071251 -0.202624664 -6.89245129 
20.5144768 0.212588251 -12.1914406 
-15.2962189 0.207183853 11.6433954 
5.01029873 0.14849408 -23.0221462 
-4.75039577 0.184400558 11.2428617 
2.8777225 -0.20869194 -11.3475208 
-0.512855887 -0.266512096 -17.8939552 
9.54563522 0.202820867 9.4605608 
-4.75906086 0.413626999 9.26741695 
20.7772617 -0.0303021148 -10.0631523 
9.13749695 0.166607752 9.77035236 
-11.3732519 0.108340621 -17.1936417 
13.0606604 0.580973029 3.39627218 
12.1190958 -0.141256437 -10.6346254 
-12.2481022 0.285007656 16.9481697 
-17.8507442 -0.410724193 -18.5436974 
-19.3995209 -0.301233858 -11.5079117 
11.5697632 0.707741618 2.91934633 
4.52257061 0.758925796 19.7425766 
20.480545 0.202101275 -14.3158617 
14.6596069 -0.477062941 -18.6511898 
24.3592148 -0.204123721 -14.6919622 
-0.0513286889 -0.241053611 -21.2658443 
0.312165439 -0.0990555659 -11.9422503 
-6.51623297 0.728191435 -12.8599634 
12.8063221 0.0248094723 -11.3819218 
0.108596444 -0.195427045 1.74236763 
-17.2873268 0.0778217614 -11.6301804 
-17.3496971 0.0621174313 -3.21961689 
-18.6863747 -0.229228482 -12.5816889 
4.12770081 0.42310518 16.7093353 
12.8033276 -0.104113609 -12.9164858 
-7.06600428 -0.428462207 19.5687447 
16.6554775 0.523797095 -6.57609892 
10.8125534 0.355610281 0.116743892 
-24.4235344 -0.140358895 14.6938581 
-3.5225451 -0.260979891 -19.8012486 
-21.5246696 -0.220618248 14.6087513 
15.0027418 0.455679595 2.08293009 
15.6600742 -0.350217968 -21.554821 
-2.68824983 0.047231067 -11.9890604 
13.1552248 0.527313352 0.77946806 
-16.8641243 0.380588412 -8.47617435 
-11.3844709 0.330098182 21.9900188 
16.8993397 -0.425821781 10.5124836 
12.3206663 0.0608940944 15.4493732 
-13.4580765 0.150968358 -8.92150116 
12.055562 -0.125569016 -20.8863831 
0.835681677 -0.477740407 -19.1468544 
-4.00496435 -0.222231656 5.18339109 
9.46373463 0.175933346 -16.1812115 
-6.64368773 -0.306181043 2.70766854 
14.993782 0.294751883 -10.5230436 
2.86182928 -0.495615095 1.63223696 
17.4977341 -0.0256020129 13.6717329 
-12.7549791 0.139676541 -6.81062984 
-24.5899677 -0.593010366 -12.5311842 
0.230667859 -0.155190185 -10.5156212 
1.68456376 -0.393194437 -14.3522272 
10.1021967 0.202552885 -15.0962744 
17.6309147 -0.178703591 15.7062006 
14.9751453 -0.33920759 -19.3028412 
-18.8708744 0.140272737 11.8257542 
-15.4422922 -0.248619393 3.40527821 
-1.9415381 0.0881516039 -11.9322405 
3.01925468 -0.127781942 -3.33932948 
6.09069538 0.146261841 13.0201197 
-1.33795488 0.253870398 11.782198 
-10.1884375 0.196974263 -11.4576302 
22.7666321 -0.239493266 1.94668996 
23.0651093 -0.485269904 10.3932171 
19.9592438 0.0722057074 -6.69548607 
-17.8423061 0.504617453 11.947072 
4.83405399 0.122558728 12.573698 
-20.3189774 -0.125874802 -7.22050476 
10.2023344 0.210196093 -14.9640131 
1.90368605 -0.387330472 -13.2043467 
9.84264755 0.19502902 11.5877542 
8.59027481 0.212264061 12.6111546 
0.978416443 -0.222431228 4.18981743 
-1.69829428 -0.126490042 -15.5359983 
2.36397028 -0.531326413 2.88559771 
-9.15063381 0.308958292 -9.89794731 
-13.2988253 0.0246290006 10.5906267 
-22.1790657 0.0530076809 -14.9612885 
12.8116579 -0.184681088 -21.5760403 
-0.187439173 -0.107118078 -9.5631218 
16.6378479 -0.13682662 5.88538694 
-17.1050262 0.215281695 -5.65126896 
4.04233599 0.0273805782 -17.5309391 
22.0928822 0.0414949842 16.2500744 
11.6427116 0.411274791 -0.5057863 
8.21809578 0.301010698 12.5252914 
7.0487237 0.193124592 4.76041508 
-16.4967957 -0.14160338 -2.45723653 
8.34773064 -0.303700328 -12.6677341 
-21.738184 -0.200484172 15.9238586 
-23.9989395 0.198764682 5.23087215 
11.0138102 -0.0824024677 13.5096893 
20.000864 -0.000347709283 -17.2083015 
-4.10271454 -0.108280338 -8.73039722 
6.45280695 0.378899872 5.47505188 
-17.3286343 -0.240413427 19.1241322 
-23.8666172 0.444894314 8.80033016 
15.4401484 0.570011258 -9.16818333 
-15.5649681 -0.0824146941 5.73960924 
-11.9984303 -0.0304275472 -13.4102621 
16.6108112 -0.367677033 12.0344448 
13.4811583 0.120213673 -5.3957696 
-15.6626291 -0.358418643 22.5270424 
4.56701756 -0.0562331565 11.7892447 
-14.1078386 0.0105472766 -11.6059017 
0.624431133 -0.0292284563 9.99202156 
-13.4303455 -0.0730653778 13.6096821 
-24.1979618 -0.576002777 -9.32552147 
4.92417288 -0.00701250462 -10.5726042 
-18.4453907 0.0559264719 17.7926636 
8.30244732 -0.376602829 -9.95779037 
5.44574213 0.252832025 13.7511568 
-17.0687695 0.181244075 6.15571499 
25.1712151 0.0568241328 12.6979284 
-8.30921364 -0.361470163 -0.918931961 
7.73321199 -0.191220373 -8.85545349 
-4.77344704 -0.0909009427 14.508975 
1.19677269 -0.423852116 6.73568583 
11.8758879 -0.0307330769 17.8500652 
-4.01173353 -0.014311498 -17.6036396 
11.7258472 -0.255799025 -9.44661045 
-5.0686388 -0.0958610699 -17.2102489 
12.9486465 0.270937949 18.8983078 
18.7590752 0.458923578 -9.52065468 
7.3843708 0.0264589824 -12.8343382 
-4.0757575 -0.115874946 -8.59677696 
7.31485605 0.0349849463 -11.8948946 
-14.5107126 -0.201864228 9.95358276 
-6.73220682 0.38455531 -10.2685919 
0.639006019 0.523021102 18.0121574 
1.71586227 -0.33844018 -13.8815508 
-7.30215025 -0.588392854 15.1095314 
-17.061306 0.364497572 -8.9237051 
-17.4348888 0.237959787 -9.03467751 
5.25022268 0.426628679 18.63134 
-12.8323517 0.343155831 16.5095997 
17.7205601 -0.237353787 -16.1171265 
-11.5525799 -0.05671582 -9.95464039 
-18.2921124 0.318742335 5.22958279 
8.07805347 0.124030694 10.6694403 
5.47762775 -0.0891452879 -12.7071447 
4.94898891 -0.189508751 0.0404293612 
-17.0215378 0.475702971 12.7045364 
6.30463076 0.380076498 11.0849485 
21.4036465 -0.244284183 -8.98950291 
-3.96902871 -0.25838393 18.5000839 
14.4195709 0.146777838 5.20837164 
9.8458519 -0.696119606 -8.72523785 
1.85091436 -0.205540851 0.0553844124 
-23.0796013 -0.168885812 16.8491306 
16.0952358 -0.29478395 -15.1273413 
17.3921814 0.458099663 -9.26999664 
-8.00019932 -0.651543915 18.2038498 
-16.6983185 0.311807573 12.7053604 
24.7866077 0.141178846 -16.4342766 
-4.44625807 -0.0409435369 13.7505465 
13.9970341 -0.0652331561 10.6294937 
6.05557728 0.277807474 -20.5317726 
-6.05204868 0.172566831 9.09550953 
15.3485708 -0.0385319293 -12.8360806 
6.68945026 0.159577861 -7.35336876 
9.79751778 0.314185679 -17.7916145 
-17.5456486 0.036009822 9.92108345 
21.8448048 0.0567166544 -16.597126 
-12.8170862 0.0221954938 -15.1594086 
3.17510247 0.0669567361 13.8466797 
10.9690962 -0.516408622 -9.26309204 
19.577528 -0.155636266 -1.13893151 
20.0722256 0.11205022 14.0659742 
2.12838864 0.0702241063 -8.43328857 
2.23787189 -0.413821071 -18.0097027 
-3.91148543 0.160694212 12.7520657 
-6.85669613 0.671698809 -11.4515085 
-13.1349096 0.00567305367 -19.4604836 
5.37278128 0.0716132447 -10.1066589 
-14.0305624 -0.12969169 9.91080379 
8.59267139 -0.0477577746 -1.38420844 
-15.523797 -0.118237913 8.42514229 
-22.9766922 0.289709121 24.212904 
-5.07660341 -0.376425862 19.2617264 
0.291573673 -0.150649518 -11.3594036 
8.5770607 -0.0981457829 -4.71974468 
-12.1944704 0.240970343 17.1973057 
-3.59065533 0.167054296 -12.957839 
22.0534363 0.031934429 -18.7034683 
9.89296341 -0.161482811 16.1954784 
-4.88752031 -0.225958228 -7.17173052 
22.5088577 -0.201423764 13.9647245 
5.11658096 -0.0380617939 -8.89036846 
3.68185782 0.0982170925 8.60537338 
-12.1046801 -0.151822329 13.3584433 
-23.4814262 0.488436878 9.08351517 
-19.8704338 -0.0778150037 -17.4585743 
-2.27189612 0.137768969 -11.4749842 
5.38689375 0.103117093 -22.3512554 
15.5930214 -0.382501155 11.8953676 
-16.2688675 0.332092136 -8.60973072 
-21.8753414 0.530804098 9.00422001 
1.96919835 0.0644346103 10.3774929 
-9.46277523 0.259934902 -18.705431 
13.4110165 -0.486421227 -19.5841312 
-23.3200264 0.489133775 8.35366535 
24.4947548 0.494385153 -17.5437469 
23.0151768 -0.341609538 6.48371983 
-1.03071821 -0.0342176259 -11.0317478 
-7.36299086 -0.437377036 -1.51930106 
11.9761982 -0.105080351 -10.8184166 
8.93711662 -0.467464805 -10.740407 
-10.6733112 -0.232275993 8.70922375 
-7.2551465 0.6404199 -13.3026161 
16.3410206 0.561917484 -10.5276155 
-6.21822405 -0.0874644741 -21.7555218 
13.2923546 0.144951984 16.759594 
-15.7668209 0.407381862 14.5765085 
-6.50686836 -0.40584147 13.9477491 
-17.5698509 0.512807012 13.7367563 
17.7934608 -0.260387003 -19.9993057 
-9.34881878 -0.299990326 -6.79624319 
6.48678207 0.0763879046 -2.58831191 
9.59559536 -0.0126899611 -21.8919697 
2.45146632 -0.223448142 -11.3718328 
-11.3976173 -0.245766923 10.353282 
0.219228476 0.545064688 20.2032986 
5.86899757 -0.101428308 -2.71612954 
-10.761117 0.441949546 -20.6937237 
9.70938492 -0.205519721 -13.5667372 
24.3174572 -0.0328806229 13.5673704 
-3.57113624 0.135915264 -0.714003801 
-11.8096924 -0.101084828 10.9442377 
15.9467001 0.174628198 -11.7715368 
15.8889799 -0.118794665 15.7435331 
4.05943203 0.39388907 17.4687691 
11.7993546 -0.0940581337 -10.540926 
24.1984882 0.241784126 -16.5818253 
-13.8355732 -0.0409354195 -16.5338306 
5.01594019 0.0456235744 -20.5609322 
22.9060688 0.153864145 -19.3883209 
7.05922413 0.156301707 13.7957287 
17.9279537 0.359843105 -12.2530251 
2.68491983 0.0485156029 8.47341061 
-16.3646984 0.164331436 9.99765873 
-19.1513557 -0.236795232 18.8310871 
2.83736897 -0.042411834 -10.6700401 
-17.8949375 -0.00272565265 -8.62175751 
13.398838 0.115701117 16.8231487 
-8.758008 0.233938977 -18.4384441 
13.829319 0.0167512111 18.257391 
-9.13550758 -0.313205987 2.71785808 
-15.0021954 -0.167395487 21.3210831 
8.29528809 0.214886054 12.0668602 
-12.8960781 0.130666211 11.1947012 
-24.490593 -0.765814066 -11.05369 
15.2525902 0.619292617 -8.60700607 
-24.3498554 0.237421975 -3.81106877 
4.27732468 -0.0687647015 11.6303558 
-0.25839138 -0.27900362 -17.6996765 
-12.4631634 0.306917369 17.4457378 
16.3799362 -0.302751869 -15.6860657 
2.56642365 -0.0531865954 -10.8355322 
-7.73010254 0.375661105 -17.5706577 
-13.2880487 0.133935004 15.1758356 
-22.553072 -0.237814844 -13.2816639 
-13.8384447 0.174042389 24.5827904 
-7.68568754 -0.736002445 17.8945293 
13.4788971 -0.436322987 -18.7847767 
-24.0187378 0.26953885 11.3809452 
-19.2892895 0.575964332 9.22972775 
1.06361926 0.16744487 9.96036625 
-22.0255775 0.598993361 8.72994041 
-10.1997633 0.0833860189 -9.0306797 
-11.8161449 -0.153630823 13.218564 
15.6842546 0.253413379 -5.30693722 
11.7102842 -0.0385994241 16.145668 
-14.6167822 0.125018403 14.5408468 
10.6829205 0.460075498 3.74055576 
-21.2784233 -0.267896414 13.9955435 
-5.56641293 0.122646898 7.02792358 
-23.6255512 0.404949337 -19.1112747 
-5.04226589 0.569996297 -11.9275837 
-11.9133749 -0.209408686 8.4339695 
-16.2668324 0.211326554 -9.68122864 
-13.5088196 0.0189895015 -20.6120586 
-17.3565121 0.220705137 -10.9686985 
5.86971998 -0.0257522892 -9.41703129 
-11.8226528 -0.109783962 -9.57512951 
-5.18751669 -0.109461918 12.6482658 
-13.7502146 0.166180268 17.8541756 
-19.4181099 0.448912978 9.82699203 
1.05004859 -0.0305346306 -5.15720129 
-9.52205753 -0.492441744 10.1975937 
-12.1807442 0.187679872 20.9732189 
23.7516575 0.181665629 -16.444294 
7.67202616 -0.301345706 -11.3638983 
-8.95761108 0.305050462 -9.89015007 
20.5675564 0.0314444192 14.0710831 
-7.55153418 0.39158684 -12.0555286 
-18.350214 0.366339505 12.742157 
24.3813877 0.327513665 -3.80409813 
22.4313717 -0.219104648 -11.2194719 
21.4366627 0.0747746974 -18.8970871 
-2.60310817 0.119517222 -13.6296453 
6.88707113 0.0855108276 0.0467620753 
13.4258204 0.128668711 9.88095856 
-14.60917 -0.0181447826 20.5211391 
17.9127026 0.405968934 -10.9011135 
-20.3603611 -0.0349881463 11.522953 
-13.9754419 0.0909977257 10.9967089 
6.22667646 -0.0125877662 -12.6774158 
-0.0909010246 -0.0206203014 -8.3919487 
8.10303211 0.410924107 8.4461031 
-15.9837723 -0.554512262 1.62302887 
-10.2782545 -0.0309936833 -8.41372967 
9.68004322 0.200568736 11.7345915 
11.3301811 0.247343928 5.00347853 
11.3277254 0.183128566 -2.13605762 
2.17979002 -0.0521309227 -10.7855692 
-1.208112 -0.0185555145 -8.64315128 
12.8442602 -0.392329395 -20.6085606 
9.67311859 0.198337495 10.0316782 
-24.5520554 -0.455117136 -8.76119518 
-5.43055534 -0.139936045 2.81629848 
4.78571939 0.0728014708 8.54887104 
10.3507528 -0.0358826593 12.9348783 
9.1512537 -0.0564964935 1.95227361 
12.7782774 -0.164968297 -5.92734528 
-18.4237938 -0.0494906828 16.8338089 
9.06604576 0.207479015 5.96242046 
-4.78756809 0.352541894 8.51386738 
-11.0165672 0.326951355 -22.2519779 
-19.6891022 -0.00270995591 -16.4403915 
-4.64967918 0.427648127 9.22211647 
15.4636803 -0.210162342 -14.0420761 
15.2794752 0.267195135 -10.5171061 
-8.6604166 0.294715255 -17.8002625 
2.05927324 -0.200794622 7.25364876 
-21.8740234 -0.0998012722 18.8589821 
21.0508099 -0.398238301 10.8559465 
-20.8356171 -0.253511667 -10.2839212 
22.2254963 0.00999275688 -21.0512314 
-5.8695159 -0.201558679 11.7658615 
-20.1533737 0.511854589 9.43010807 
-17.1655388 -0.203798294 0.531412423 
-9.73458767 0.145813614 22.2881813 
-0.434687525 -0.27060622 -17.802002 
9.05677605 -0.516893804 -11.4502163 
18.5519257 -0.144442469 16.9721985 
-13.7998438 0.230583251 -10.0110922 
21.1305199 -0.219665542 12.7322807 
-5.27409029 -0.193750203 -18.3268242 
-23.7534943 0.179613948 -16.5826206 
-18.5050411 0.0662847459 17.9200726 
11.6130552 0.291302443 -15.9554863 
-12.7274189 0.0467042923 -16.296011 
21.1681175 0.0865404978 -13.451869 
20.0785465 0.0671236366 -8.57593536 
-17.3099937 0.253191918 -5.75690794 
-13.1189156 0.0212427359 14.3314676 
-18.491127 0.328716248 11.4009352 
16.9158897 0.0558881499 -0.8248896 
-18.8129787 -0.074151732 -14.6908302 
9.84008408 -0.0140033271 -22.9261398 
-2.30709338 0.121018149 -9.75532722 
-12.3764 -0.19409667 8.79204655 
5.44603872 0.0189014636 -10.4389353 
-7.35046101 -0.624494195 18.8833389 
4.22577667 0.071631752 -17.5223026 
-10.9627581 0.0619541556 18.2817268 
2.54200029 0.0342465192 9.11130142 
1.33036208 0.121149309 12.1339283 
-3.16040492 0.0391345322 -14.7627029 
-21.6009369 -0.257505149 -10.8414593 
-16.4519291 -0.211169496 18.1550083 
-25.022728 0.570744038 -18.0543213 
4.18961954 0.397203386 17.284647 
-22.6873589 -0.417585671 -12.1750298 
2.91994619 -0.0399993621 11.14536 
16.6384411 0.698743105 -9.72451687 
2.38960147 -0.0312361252 -6.51692629 
-11.2220945 -0.267621577 15.7482319 
-12.7990141 0.149144411 -7.85965109 
-17.3896332 -0.158037275 3.76388502 
-2.33632135 0.11225456 15.3373823 
0.0057733506 0.4642331 16.9353313 
8.33815384 0.262761414 -23.118927 
-8.77473354 -0.32126838 1.03530121 
-5.14011717 0.386253208 -13.4981375 
-10.6755934 -0.214663953 8.29960728 
-12.8462353 -0.00902225263 -15.4443092 
4.39794493 -0.187774971 -1.6817323 
-5.16067171 0.0806473196 -15.4595804 
10.8848991 -0.27771166 -11.1891832 
-16.6300106 -0.034800373 -2.41985083 
13.4498758 0.493503392 1.16641974 
13.7210693 0.0536354147 8.69199276 
-3.56947017 -0.00508481218 15.3795662 
11.9876022 0.216675133 -16.6562443 
16.6597939 0.55707562 -10.7823229 
8.12330627 0.229021639 11.6137781 
-19.6712017 -0.401787937 -9.56081104 
-20.4747829 -0.270586133 21.0047264 
18.0516338 -0.281455606 -20.7091827 
-1.92695475 0.141370952 -10.3722067 
-17.6635532 0.531208098 12.4072447 
-7.75403881 0.00713691115 -19.1808815 
-22.7596607 -0.340580642 -10.4733648 
2.72267437 -0.0293580517 12.5145311 
7.87131882 -0.15323399 -12.4896908 
11.5627899 -0.231824368 24.5903969 
0.0560672209 0.118113875 13.4895105 
13.8853035 0.113301605 -10.269227 
-18.5458088 -0.205413088 -11.9174843 
-4.35904694 0.115672395 8.11681747 
23.0598831 -0.139008179 2.10362148 
-12.2003803 -0.136591837 12.9488916 
-13.392828 0.0135653829 -11.1950874 
-5.96871853 0.139242917 -16.202961 
-6.24351454 -0.224990994 24.2646656 
12.3467922 0.614444911 4.12088013 
-8.00780392 -0.183886126 6.96486664 
7.16577625 -0.0526542924 -8.52978706 
-14.0200777 0.0592708066 10.7523966 
-5.0031724 -0.00753970025 -1.07108891 
2.29078984 0.0467972197 10.3039665 
-14.3000021 -0.0877384916 -12.979928 
-7.84470129 -0.166544437 -7.06522608 
-12.0565052 -0.0915423185 -8.88358212 
18.8559017 0.353448778 -11.2760067 
-3.42813802 -0.200667784 17.5414543 
19.1348438 0.306034774 -12.2072105 
-1.15944707 0.58503741 13.7062082 
14.8359995 -0.345965624 13.7643385 
-11.2518568 0.053144522 18.279911 
5.50034809 0.174022123 -20.3236294 
8.55972576 0.210868239 -19.4127598 
-10.7405634 0.163586438 21.7463894 
19.8225498 -0.00273466762 -2.32609248 
-3.25469375 0.146110103 -11.6434927 
16.6995239 -0.416170925 10.524642 
-5.12956476 -0.131328896 1.44279516 
-12.9959688 0.163056314 20.6197453 
15.2253122 -0.239405245 11.5111065 
-16.8922882 -0.25500837 -14.6270523 
-19.9661503 0.286323458 9.99686432 
-22.1444931 -0.246983752 14.5824471 
19.1664276 -0.0100918338 13.5715542 
2.99450994 -0.267534882 -1.77240062 
2.88567877 -0.468704402 1.26197052 
4.17231846 0.582626462 18.9849281 
-1.86755383 0.170926481 -10.7008133 
23.6115074 0.384454042 -17.9857998 
-23.8085995 0.224365324 12.2030201 
4.65639162 0.0451255329 8.98905659 
-3.98209882 -0.0745615214 -18.4110775 
-14.5197306 -0.523506165 1.06459689 
-0.845008612 -0.215866804 -18.3763123 
-23.2564888 -0.374251395 -12.4873371 
8.32294846 -0.00925503206 -13.7138739 
2.72383547 0.552833855 17.9877911 
16.3213081 -0.463638753 10.917592 
11.9897957 -0.162746668 -9.776618 
-17.6105824 0.301215559 14.6924744 
-13.0918598 -0.0592138134 -15.6829128 
-14.192028 -0.153971404 -14.2938843 
7.76093006 -0.197614104 -9.92331409 
17.1449089 -0.261808366 12.3848362 
-4.18623877 0.0306085683 -3.74319172 
-23.0545006 0.00377085945 20.0571156 
18.9090233 -0.592645109 6.29598188 
21.2285824 0.172631472 15.2587538 
21.637598 0.0419440232 15.6138401 
17.8918247 -0.16169779 -15.6533384 
-3.25512242 0.0696770847 -2.15517831 
-5.12876368 0.0859435573 -9.4427948 
24.9319115 -0.393684655 -13.7774868 
20.9943504 0.099664785 -13.3768511 
-0.30143401 0.0685283765 -12.4536705 
21.8842316 0.237347022 18.676054 
2.12003493 0.0843545869 -9.46084404 
13.7142315 -0.130006537 15.1685314 
-9.89982224 -0.180303872 -13.8932686 
12.5139294 -0.184702545 20.3172264 
-11.1327171 0.0947981551 19.443182 
15.5856533 0.0655952692 -3.92874551 
-9.56788731 -0.497475028 15.9129915 
25.1269379 0.150264189 8.91053677 
8.92898941 -0.429387867 -10.0696249 
-19.1505432 -0.0739279315 -19.0575867 
-16.8814735 -0.183176398 3.6042757 
-4.56586409 0.355086803 -13.0331707 
10.7262096 0.38662523 4.67885256 
12.5153255 -0.0714622736 14.6253223 
-22.0605717 0.743177176 8.01435566 
21.7589359 0.0910495371 -18.6115417 
5.1909523 -0.0565695837 -8.05309868 
21.7791786 -0.399935126 -9.2975893 
-22.7326908 -0.232458189 -9.02040005 
9.3629961 -0.0846377909 19.6047153 
-16.2553291 -0.205998987 3.767483 
-6.42429304 0.541414559 -14.3565397 
2.53815055 0.050535284 8.57342148 
-6.04950953 0.448593974 -10.0202284 
-13.1481524 0.202360243 19.4649296 
-4.74005461 -0.297952056 -23.9445629 
8.18937874 0.318691462 -17.9571266 
11.1381311 0.195580706 -13.6727667 
18.8381996 0.370863765 -8.96732426 
19.4684544 0.0420427769 -14.2274046 
17.0770607 -0.555489898 19.8825665 
-1.14006782 -0.024497306 0.763880908 
24.6141148 0.695739746 -20.3466606 
-23.5599613 -0.112178922 18.4939308 
1.83816946 -0.00635777274 -10.6269875 
-21.5669346 0.144773737 11.2613277 
-10.4703207 -0.426590532 13.9776497 
-24.8519821 0.582236886 22.7886276 
-4.44641304 0.187412381 11.3974667 
-12.0684357 -0.0568995103 -11.8277082 
-20.5463257 -0.173605978 -13.9268112 
-13.1350956 -0.0904721618 -14.1035681 
-12.9961691 -0.00295636198 -15.0684576 
-12.0103254 0.243200064 22.3089123 
14.7522507 0.362204373 -1.11864829 
-9.79493904 0.219419032 -18.5336838 
3.97440076 -0.0174105763 -7.48406744 
18.1135921 -0.330541998 -16.4396782 
-6.46912241 0.714364827 -13.1066809 
-10.9830847 0.0779646859 -14.4004717 
-2.50244045 -0.39926061 -24.9518433 
-9.22414207 -0.473800391 13.7984905 
-10.4365292 -0.0636171848 20.9981899 
-17.8131466 0.110504359 10.3272781 
-0.375793308 0.552440107 18.3848534 
-10.2871037 -0.318057448 9.40471458 
15.7368431 -0.248908371 -14.4802227 
3.22183752 -0.504494071 2.90730333 
-1.79734302 0.0658769235 2.14572811 
18.5134487 -0.102593809 -15.1525755 
-7.02362537 0.660559535 -12.1259422 
4.79274511 0.00861559343 -16.5675793 
-4.37040281 0.00488181692 1.5376755 
5.94543076 0.487242579 22.2108765 
17.3627434 0.42937243 -4.58379793 
-8.3532238 0.314721435 -17.0905819 
17.3451385 -0.33096692 -18.1096802 
-13.3155804 -0.274867922 8.46832657 
-24.6262951 0.0762798488 12.4841862 
-2.26247215 0.123307608 -11.6257982 
8.09577465 0.386785418 8.81101131 
18.3281059 0.336215824 -12.6156683 
-7.3169632 0.204590827 -10.106945 
21.3956985 -0.184522092 -10.8965445 
-13.4271345 -0.119713865 5.48027325 
24.2562752 0.224719197 19.6391239 
-13.52285 0.195257217 -10.2080126 
5.92888212 0.291772634 -16.4346275 
-14.1711206 -0.282565266 6.39028311 
-12.9744596 0.397381574 16.5956535 
22.7832375 -0.40687409 6.78031301 
14.1792545 -0.321709841 -21.3251152 
23.5825729 0.0496634729 -15.7986107 
1.1550709 -0.185121715 -10.3940983 
13.8452587 -0.304632813 -16.4890671 
20.7296047 -0.369890541 -21.0078945 
7.78069782 -0.298801661 -10.7257223 
-18.5837307 -0.0794589818 -13.7101717 
-21.6489162 -0.0648205578 19.7094383 
-14.069808 -0.0888150856 4.95703554 
11.7059278 -0.159519821 -10.1668921 
0.862539053 -0.350295693 -16.3025913 
14.8610439 -0.309811115 12.3286905 
9.26564217 -0.627826333 -8.704916 
-5.90425825 -0.0163793564 -19.4119301 
14.5454149 -0.392440349 18.538187 
24.725132 0.395106941 -3.6405642 
-16.4661369 -0.303013831 -23.4470139 
-9.48763466 0.0457083881 -14.9349976 
14.2453604 -0.100103736 -13.2609749 
-10.5229445 -0.146192804 18.7751484 
-12.2533522 0.27138412 19.7435837 
-9.44988155 -0.502797663 13.6134977 
20.3934116 -0.0209192112 17.8399315 
-5.57850122 -0.494676501 18.5012875 
-17.5520134 0.186091959 10.6683798 
-15.8513098 -0.380180091 22.5043697 
-20.4376907 -0.0799950361 15.1179142 
12.7435455 -0.26260078 12.3512058 
8.96406078 0.211909622 -16.900938 
-0.36842522 -0.263218313 -17.9138794 
-1.10574913 0.444395781 14.9367409 
17.2738037 -0.314437181 -17.8106537 
-10.4227552 -0.380826265 14.1542025 
7.34278679 -0.200870663 -9.89390945 
-0.234960511 -0.150273621 -15.0286169 
2.43433738 -0.127869725 -11.0665026 
16.4990807 -0.190382853 -17.6283417 
-14.4742069 -0.125388876 23.6334076 
14.8786325 0.342757016 2.69829345 
25.0146923 -0.424914032 -8.75183964 
-17.3639221 0.655414879 13.2977562 
13.6667805 0.13992539 -1.14214301 
-24.1029358 0.149665028 12.108305 
-15.8901205 -0.0555814132 -12.7441044 
-6.55371714 -0.317598909 13.0896454 
-4.89535093 -0.172582015 14.647975 
-24.1660938 -0.453681767 -8.62391567 
-24.4823017 0.0204131212 3.85149527 
-0.974725723 0.0599263087 -13.0802774 
15.7199945 -0.253528625 16.3880444 
7.20070839 0.31845063 -19.7523441 
13.9736643 -0.479587227 20.7437496 
2.63375783 -0.0938257277 -0.915705502 
-12.3684006 -0.0216886885 5.14835978 
11.884675 0.587871373 3.83626533 
-6.02870035 0.559973836 -11.2970247 
-17.9405937 -0.0114559839 18.1339169 
-8.42745686 -0.648477972 12.2312517 
9.57958508 0.194408923 9.6398859 
-4.13956785 0.0212778021 -9.76766586 
-10.3573236 -0.445968986 13.2459793 
-24.0918083 0.25726378 20.9070625 
24.2160168 -0.481720597 -8.50675488 
12.4317989 -0.17407544 13.5831738 
11.4708738 0.225759909 -14.566164 
4.683218 -0.0594416708 -12.5881443 
-18.9676018 0.359701931 -3.35956216 
24.1244831 0.322351664 -17.0170403 
1.23552275 -0.203367025 -12.5286474 
-0.0948799998 -0.107195355 -10.8084898 
-24.9475994 0.896238029 25.06073 
-10.1411591 -0.278616816 3.20787287 
-15.142333 -0.13944234 4.18267059 
19.7927456 -0.30271244 -18.9540176 
-15.0917482 -0.119601607 -13.2740154 
4.00728607 0.37692821 15.7145109 
10.4640636 -0.276920646 17.7296295 
24.5015945 0.0265577212 9.60152245 
11.6665421 -0.0285004042 -18.3965244 
-7.40706301 -0.364398867 9.74965572 
15.4655457 -0.53921932 -16.5716648 
-8.38207722 -0.579591691 14.2107391 
14.3110962 -0.0793268681 -14.4911442 
-13.8648424 0.00631320663 12.9432354 
-4.54189968 0.28483513 10.2958155 
-10.0621538 -0.256593615 9.13807583 
-24.0246792 0.215773135 2.25775003 
17.8410435 0.456405401 -10.4788742 
12.119318 -0.527445555 22.79212 
2.53702259 -0.121256389 -6.02429199 
-6.73402977 -0.569022894 18.6701794 
-2.07948709 0.115139112 -11.4573259 
19.2895489 0.0354074761 17.5309086 
14.1047049 0.343967497 -5.57357788 
8.76636028 0.28681308 -19.6193409 
-16.3998547 0.423354506 13.6000195 
5.47880077 0.229664683 -17.3808079 
-3.20131469 0.0521341935 14.9542084 
-19.9517097 -0.12574102 -12.0479889 
-5.45059156 0.335538507 -10.4872046 
-18.330307 -0.24762556 -19.3121548 
-13.6809435 -0.421449393 -2.14373851 
0.333775759 -0.174368113 -11.0024719 
9.59725952 -0.499828726 -6.27575302 
0.966452539 0.133414358 12.7251358 
5.6908927 0.14649114 -14.787118 
3.54981399 0.0344873555 11.230855 
-21.5464954 0.475780368 9.58042908 
2.71545792 0.782102287 21.9436893 
24.8703365 0.0550175272 18.606638 
22.7712288 -0.12616019 12.6062784 
-10.0840178 -0.472531766 9.98685741 
8.03317261 -0.106626585 -12.926568 
-0.0475675911 0.0424494855 10.580101 
18.2650375 -0.0702612475 15.6336088 
-1.51638317 0.0900061727 -10.0704765 
1.07292867 -0.372900128 -0.180353254 
-0.170224011 -0.109532014 -9.09339046 
-11.7205391 -0.28345409 -2.74770737 
-25.0122299 -0.0898187533 18.0304356 
3.07175851 -0.328089267 -16.3351192 
14.3016777 0.0780092329 -11.069088 
13.8582363 0.196058467 -8.2294693 
21.3953686 -0.288854867 -22.3459301 
18.3553982 -0.534555018 5.8563509 
-13.7393064 0.168915614 11.0235519 
7.04864073 -0.0487628505 -8.29998875 
13.3091402 -0.415475428 -18.8586159 
1.37214935 0.0531233065 14.6838179 
24.7742767 0.0648024082 3.02379656 
12.4549294 -0.0478450991 11.6931524 
-3.15046525 0.150371775 -9.71438026 
-23.5414295 -0.262053668 -13.8593149 
19.3743629 -0.341796786 10.6658583 
2.13688445 0.0249486696 10.591774 
15.4927378 0.558732271 -9.33907604 
5.86502171 -0.0241116062 -8.69602203 
18.6650925 0.00639273319 -2.16717291 
8.12387276 0.105430573 -16.1549625 
-14.2729893 -0.0216161422 10.4053926 
-22.6543674 0.244150147 11.7696905 
-7.03298092 0.527644813 -14.5358582 
15.2392635 -0.566223443 23.7938862 
23.6302795 -0.367835462 10.1365166 
-3.1645596 0.175909489 -16.6092224 
14.4669228 -0.323082238 -21.5790081 
-4.91933727 0.515699804 -11.6478128 
5.91482782 -0.0102559663 -11.8881445 
-1.26020026 -0.319673717 -20.656971 
14.4635038 0.485929281 -8.29520607 
4.33193779 -0.310142696 -0.269314945 
5.05854416 0.133934438 -21.7202148 
-17.2412472 0.29812178 -9.07917023 
-16.5303764 -0.189583719 -1.15951276 
-15.7059364 0.131555915 16.5463352 
9.25155258 -0.527673721 -9.93102455 
17.0735779 0.270467788 -12.6357965 
-17.8793812 0.581544399 12.8686199 
1.77990723 0.121019758 -8.96332455 
24.5928364 0.0279501993 10.0990343 
9.51873302 -0.420995921 -11.7771711 
18.9516602 -0.670463562 4.14807701 
-24.3152084 -0.374376684 -13.5109463 
0.169550657 -0.277763188 8.09102726 
13.5656328 0.164969042 4.96452618 
20.972147 -0.164634436 13.3391762 
24.2763939 0.154709101 18.7274609 
15.6331196 0.649854124 -8.96403217 
2.5683279 -0.420295089 4.74937677 
-21.6250305 0.60111165 2.90057278 
6.32331896 0.450763255 8.46820354 
4.64410877 0.0795646757 -20.5486069 
5.16521692 0.132840633 -16.3352184 
-0.364744157 0.468324304 17.5835838 
-23.7702198 0.326962829 11.4281759 
-24.3396893 0.266405731 10.6053715 
-0.256761283 -0.116477005 -14.84869 
-21.4401627 -0.242044851 18.5056553 
-7.15557957 0.0119544156 -8.83412933 
-16.6223431 0.462303609 -8.97665882 
14.1200838 -0.211467698 13.8204556 
14.5026522 -0.435727924 -18.8564568 
-9.19613647 -0.638884962 11.6698627 
-3.95398974 0.213537753 -12.4108706 
7.15861559 0.0612981841 -12.5565605 
20.7353077 0.0083700968 -10.6332722 
11.0026121 -0.0513241366 -22.895256 
-5.49265528 0.626351714 -12.9720774 
-17.3873844 0.348451883 11.3081503 
15.8080168 -0.350925416 9.29244041 
-9.41296482 0.220424339 -12.0890427 
-17.0168076 0.550317824 14.5839939 
8.4045229 -0.143555179 -13.2936096 
-5.03798008 -0.315671593 15.4681292 
0.606644213 0.335618556 15.6793108 
2.57170463 -0.326305866 -13.4691544 
-10.807703 0.0466758907 -14.9078045 
-20.4294453 -0.191463247 16.234024 
-18.7712574 -0.0769961849 16.4558277 
-7.50650597 -0.28388381 11.8415794 
-6.32675314 0.503005087 -10.2406301 
-14.4674063 0.0458634123 20.0835285 
1.89540625 0.101368591 -9.43862247 
-13.9044838 -0.0395410731 22.8987656 
19.8129063 -0.390723854 -21.9267845 
-3.33402634 0.160965785 -14.0269318 
-20.6689987 0.250886887 10.5424738 
-19.7012177 -0.259522051 -11.2866354 
3.64554238 0.156483114 8.88279247 
6.86704826 0.40600583 9.43134212 
-14.6337233 0.0979630277 -9.7877779 
-11.9427929 -0.023268126 10.7124729 
-6.36916351 0.173077643 -17.201498 
-23.341917 -0.164136276 17.4367504 
-10.683301 -0.0976295546 18.9968376 
10.7772951 -0.528596461 -9.48539066 
17.7648373 0.380948633 -12.3073158 
9.1910944 -0.0453329496 15.4451647 
5.65819883 0.0872057155 -9.67638302 
-19.2391911 0.572093844 8.94269848 
-14.4867821 0.069247894 13.7276573 
-18.88241 -0.150623083 -18.4918327 
13.203023 0.536902964 1.77654171 
-5.00217247 -0.367941737 17.5319576 
24.1698074 0.0708401948 5.88294125 
8.53643608 0.382642627 -17.9380245 
9.39735985 0.0806716681 -15.0908833 
17.4458332 -0.0414962731 14.3879433 
-17.0764751 0.132945329 -11.3704224 
-2.74774027 0.110666588 -11.109148 
11.9906712 -0.0602989905 7.51150322 
24.6059647 0.150259256 -16.2700787 
1.68779516 0.472897053 23.9227695 
12.7320642 -0.0494088419 -12.5709791 
23.7060623 -0.258014917 3.9216609 
-16.8393669 -0.265303433 18.3952923 
-5.5585537 0.123401351 10.7884016 
7.04139471 0.237832665 -16.8081894 
17.5629005 0.41648826 -5.50836515 
18.4859562 -0.192225084 -15.5431194 
-6.58181334 -0.285101265 12.7240705 
-5.2428174 0.396418035 9.70481682 
17.1744633 -0.368266553 16.2628021 
-17.211731 0.194070771 6.16189146 
0.212918609 0.105157435 -7.33538198 
-9.13003349 -0.305362016 8.4972353 
-7.64456844 -0.13067466 6.29475021 
23.6752148 -0.25820893 4.33127975 
14.6409979 0.217773557 -10.7574883 
-23.1665497 0.234555975 -17.4624062 
-10.5166836 -0.274403065 8.93827629 
-5.9817605 -0.181837767 11.5478086 
21.281641 -0.298117012 11.2855186 
-16.5223598 0.379410535 16.0036316 
18.5800819 0.297020197 -12.6756926 
-15.6560507 0.0594043881 -11.4567356 
-17.8538342 0.0858279616 3.94331408 
-16.1135063 0.114239037 11.6957207 
7.2032547 0.341968626 10.2599754 
-12.6091108 -0.160911813 6.33455086 
13.8613472 0.0217738189 16.7034321 
-5.30259228 -0.0395982265 11.3307943 
11.4493971 0.220406458 -13.3534842 
3.72988629 0.278651834 15.073801 
13.8455429 0.081416741 -9.0137701 
-23.2788792 0.435152084 -1.09892595 
12.7277346 0.256947517 19.137989 
1.07159877 0.474568188 17.20257 
-1.03361499 0.205649212 17.0588951 
-20.6259613 0.685205698 6.08435392 
-11.7538319 0.290808916 23.0472889 
-18.5033894 0.304804653 8.71793842 
18.7936153 0.474134445 -10.2053757 
-19.7873344 0.0232632086 15.048213 
17.8790054 0.425767809 -11.55235 
-0.430657148 0.104137138 -12.5200405 
13.4032822 -0.0829817504 -14.4613981 
0.293639481 -0.144120917 -10.6612473 
9.83220196 -0.307898194 -12.6467218 
10.8881187 0.233455479 -17.6227283 
-16.2848663 0.175397784 -10.2725477 
-7.79745007 -0.810482562 16.9049206 
13.9900312 0.0901142284 -9.99754906 
17.1389503 0.505335331 -9.8066206 
2.4543097 -0.417620569 1.86334896 
9.15090847 0.192205563 7.46565008 
-2.71880126 0.259726375 -8.66773415 
-2.42812347 -0.0538532659 17.4271221 
19.3408489 -0.407146901 -20.3413544 
5.6771965 0.183420107 13.8684444 
8.16100883 0.456651121 -24.0217705 
-22.5150032 -0.292420626 -10.8426075 
15.5868006 0.114756659 -11.8624926 
14.3098631 -0.271609992 13.2668028 
25.0313129 0.132039651 10.0358725 
2.64269924 -0.10765925 -10.9753628 
10.8954325 -0.00879680179 11.3053064 
6.50122976 0.141206503 12.687542 
-17.2259941 0.256323904 -9.34494305 
22.7742386 0.116869889 -19.2193813 
-1.45437241 -0.285995722 -18.5954151 
-1.67976344 0.118636832 -11.3082705 
-23.6804352 0.208012104 20.6987858 
5.43250847 0.122760184 -9.80795193 
6.86227989 0.378366709 -24.9704971 
24.4049721 0.23841542 -16.477951 
16.6170864 0.700874209 -9.01532173 
17.8908272 -0.476814091 7.78315687 
-17.4421978 0.204435647 10.8353853 
4.55131912 0.290096045 14.6106424 
18.6106148 -0.561983883 5.41806793 
4.40450811 -0.0353600457 -16.7995853 
6.23451042 -0.00371006108 -8.23432827 
-7.28708458 0.471554756 -16.5657768 
17.3049984 0.0640540347 -14.1344376 
18.5702381 0.50063324 -10.2650604 
6.76905727 -0.150238797 -9.75490379 
-19.1429787 -0.0786249489 -16.5614872 
-18.4706306 0.412525415 7.36595821 
-22.6559544 0.00037066589 20.5078716 
-22.5468788 -0.0217051134 18.6990013 
-9.4935894 -0.315362006 8.23655224 
-12.5939636 0.0450711511 12.1783609 
21.3792534 -0.219166875 -21.7018604 
9.32462597 -0.0210266188 22.2234058 
-15.4634638 0.146997541 11.5899334 
-15.2699146 0.194453686 13.0621376 
17.0480785 0.00622701319 14.4992847 
-3.86022043 0.165658906 -12.7478056 
11.2101364 0.0889896899 12.8206348 
8.25211716 0.154912725 3.60831642 
-17.7555237 0.42677775 11.6965027 
10.6624994 -0.253363311 -12.2504129 
19.5810413 -0.524163187 -23.3043747 
10.3343763 0.138569236 -1.24145567 
22.225729 0.0812906995 -18.2690125 
-11.2953129 -0.338805109 9.66228104 
1.32683706 0.100733951 13.3526173 
23.8465443 -0.060958758 13.4271193 
-7.85008144 -0.52845192 -2.2197926 
-24.3757534 -0.71386975 -11.397851 
-6.29942417 -0.151772931 10.7698183 
11.859726 -0.208333209 -9.50509262 
-5.97947741 -0.479174048 14.935051 
-21.7857742 -0.107215799 19.0049324 
23.8619766 0.203438878 -16.5800133 
19.5702496 -0.202250212 13.1451302 
17.2422218 0.337270349 -12.4360428 
11.2397518 0.495778441 1.13246953 
0.786968648 0.707893729 19.1448402 
3.43710756 -0.164848447 -10.2494755 
22.2060337 0.117861211 17.8473415 
5.54163218 -0.101722419 -0.838628948 
-3.81446767 0.109899454 13.758296 
-2.5287168 -0.116016142 -15.131402 
-18.7244034 -0.101650015 -13.5878553 
-9.86268139 -0.281198531 19.8472157 
7.4310751 0.281671315 14.6036587 
-7.35861683 -0.658342302 18.5235271 
8.98755741 0.168119118 9.65917015 
23.6591053 -0.249718234 -7.10362053 
7.07273865 0.137761876 13.6354084 
-22.0352612 0.571576774 -0.93799603 
-6.10822582 0.620867789 -11.8604298 
15.6966896 -0.579318464 17.6014442 
12.3487625 -0.0664506853 -17.8681812 
-0.875714839 0.442413002 13.2179432 
-23.2750874 -0.362255991 -12.7975922 
5.35933018 0.137405664 -14.6819382 
21.6543503 0.0142932991 15.3107262 
14.072051 -0.0799943656 9.8064537 
-15.2284403 -0.441817552 -18.4534245 
-17.7620773 0.0752448961 -8.25141048 
3.2237165 -0.0232494231 10.750926 
24.798708 0.0604850538 13.1211138 
18.3716679 -0.336541981 -16.2182636 
-5.67163706 -0.0814125165 -4.6246295 
5.70516968 -0.221710026 0.981393337 
15.6327629 -0.55838573 -23.9797268 
24.811758 0.0488837324 12.7680025 
-0.263663501 0.403191775 15.6431217 
14.5234632 -0.417869776 -19.1728363 
-10.3544645 -0.275681585 1.87788379 
7.02391863 0.202099904 -3.3704381 
-3.11400676 0.0389963984 3.11175394 
-11.0337229 0.271029115 22.2446556 
12.1483459 0.0447672419 16.2786369 
11.5536661 -0.321392328 -9.42866039 
-9.66869545 -0.576436877 10.5671291 
-8.74185658 0.290463179 -17.9134541 
6.67470407 0.268078715 -24.3059254 
4.89629364 0.0506602377 12.2764482 
0.91224581 0.126281515 11.7129374 
13.7062464 0.122599885 -8.24354553 
23.4519615 0.375677913 -17.6895962 
-24.281805 -0.454603791 -12.9379816 
24.094595 -0.118734494 4.25098515 
21.0646381 -0.0733682215 -16.034811 
4.47106647 0.0200760141 -9.022048 
13.9478016 -0.0708159581 -12.87502 
17.8390884 -0.75393945 -24.1728764 
-6.38596487 -0.252904743 12.7615671 
-23.2708721 0.404170245 -1.6498158 
-10.9186983 0.0690739006 -12.0197506 
24.2164097 0.400616884 -18.4103184 
-20.1159668 -0.214810938 22.5065365 
24.6900272 0.757155836 -19.7337189 
6.12060165 0.293632746 15.1205969 
19.4972858 0.194010511 -9.52879333 
-15.0173512 -0.0752136558 -12.331089 
-4.17344522 0.255799294 -12.0359049 
21.4888668 0.20130834 17.565094 
2.91349554 -0.0441554002 12.2323666 
-2.63545203 -0.159957647 17.262352 
1.73758864 -0.219008401 -3.58380961 
12.4623928 -0.16246666 10.2356205 
10.6553373 -0.068147555 -24.71768 
13.0794001 -0.074988693 -16.70434 
-24.555027 -0.203815594 16.3827419 
7.95630932 0.264152408 9.47124672 
14.5781937 0.231509089 -9.51589298 
20.3879414 -0.2983675 -0.8468889 
-17.1363773 0.136979401 -7.31977129 
12.6723785 -0.366855681 -18.9815998 
0.924084008 0.125634387 13.4226456 
-3.64643478 0.172302291 12.8337765 
-4.61719418 0.0135500375 -0.0802194104 
-23.2217941 0.128560975 13.183423 
24.4335995 0.659859776 -23.8280449 
-9.43737316 0.39926824 -20.6166706 
-2.35961175 0.217093244 -0.495759964 
-18.01758 0.39660427 13.4784184 
-17.9441261 -0.016598247 -9.46927738 
-11.9021721 0.23924318 -20.0444546 
19.3196545 -0.247904122 9.64342213 
-18.7421665 0.357133657 9.19379139 
8.7984457 -0.177193269 -13.3912363 
4.9365592 -0.0360940918 -8.45684338 
9.00054646 -0.573782027 -8.5444355 
-4.40445137 0.184913263 -10.7580252 
-12.3575964 0.029203862 -8.62939072 
-10.4728765 -0.061317943 -13.4341145 
-3.05961347 0.00824540202 -5.51799965 
9.13589287 -0.400975674 -12.8639154 
20.0133896 -0.0825232863 -17.8757458 
-3.06899881 -0.127814978 3.73440289 
-2.70964622 -0.0499716401 -15.7423277 
17.7583656 0.013051427 13.6627254 
19.6371937 -0.44347629 1.2731787 
12.4345436 0.245537296 17.6288967 
19.9259644 -0.382090271 -25.0095692 
-8.12834167 0.365320355 -13.4671001 
-13.2205219 0.154123932 -9.44792461 
18.8476868 -0.460553646 6.99772072 
23.7981529 0.154138073 -4.0793581 
-1.47889161 -0.0456426218 19.5129242 
13.1760664 -0.227275565 -17.4129486 
-19.1042061 -0.376335591 21.910902 
-17.142067 0.425853938 12.3336296 
-24.4341621 0.115540691 -15.729064 
-8.96656227 0.30095461 -16.9137344 
0.976681173 -0.441544771 -15.3697081 
14.0406313 -0.428748757 -24.4204617 
4.17309761 0.117460877 -18.0887089 
-6.9952383 0.307491392 -18.1831284 
-3.71954393 0.278045475 -13.4570007 
24.3033524 -0.281612664 -7.47835398 
11.3969975 -0.269808769 -9.98448658 
11.4105301 -0.177579388 16.8688545 
-3.45239401 0.0372336544 -18.1842785 
-13.1201048 -0.311295986 1.96768284 
-1.12996757 -0.00708241388 -11.6294146 
-4.05411386 0.206989586 10.8373327 
-5.96815825 0.00671116635 10.2156744 
-12.0597248 0.298259586 23.9914036 
-23.919281 -0.419411212 -12.9626141 
-4.66035891 -0.00484895613 4.24169779 
16.9046021 -0.155111015 -14.7181911 
5.81678295 -0.0342824683 -13.4648314 
3.56172967 -0.0488060601 -19.3283463 
-11.0021439 -0.336096078 8.89736366 
5.55250835 0.211560458 -16.1301918 
6.95392323 0.343980789 19.3092098 
16.709362 -0.467673898 9.24243641 
-22.2429142 -0.0308617204 20.3624496 
18.1662102 -0.267003119 16.4821949 
-15.9531422 0.135140866 -9.48603153 
21.5525837 0.0270063896 -15.4523716 
-14.1245003 0.138261646 14.8793621 
13.262845 -0.128566459 -14.2109032 
-6.63203907 0.653716505 -13.7671251 
-9.94998264 0.124826342 21.9929028 
-10.4408875 -0.433081418 13.8227358 
-3.16871929 0.156763643 -10.1492014 
-14.7184477 0.125853866 17.9762936 
8.26475143 -0.292648077 -12.5568371 
7.31186247 0.329517722 -20.9605427 
8.70370197 -0.13065736 -13.5361185 
-9.76235199 -0.638543546 10.9479151 
-23.5633068 -0.163781017 17.1416988 
-18.6175842 0.318558931 9.52335167 
-5.96294069 -0.206167936 12.8818378 
17.5157204 0.462256521 -9.16073608 
-24.3440037 0.261040419 6.84135962 
-10.2486801 0.076855354 -17.3658142 
-22.7219925 -0.119920753 17.5625877 
1.58142698 -0.0625151768 -9.94929314 
-13.7808018 -0.240043968 9.55250549 
10.6062183 -0.0782055259 10.3189917 
14.1458158 -0.137942418 10.9405766 
-24.661335 0.0958888456 18.8827839 
12.4411573 -0.226954445 12.7907219 
-3.98092866 0.0676980317 9.59295464 
-23.1520824 -0.269685477 -8.73848057 
-14.8004007 -0.0343642421 -11.7409372 
11.5108528 -0.198331833 -10.2121735 
7.80584002 -0.356502622 -11.2864571 
-17.3190632 0.0797774866 -1.74490273 
-22.2639961 -0.0242788754 19.0314922 
-24.5605049 0.117786065 11.9725618 
-3.72424173 0.206237167 -11.8323431 
-20.5264397 -0.348218083 -10.2233725 
-3.67560887 -0.302566767 -21.7345829 
-13.4396515 0.1682574 -9.25043106 
14.2612352 0.13838765 -10.0652485 
-6.42178059 -0.0302923974 -21.2271442 
-15.928031 0.362738997 -7.81974459 
-18.3145199 -0.0728821158 -13.8013659 
-11.1016722 -0.0703458041 16.7837257 
-23.7765274 -0.219424218 -13.7430325 
-2.04856682 -0.118328869 2.9844687 
18.0680046 -0.0485588126 12.1654615 
-5.30248976 0.359924972 9.84405136 
5.05277824 -0.0938635468 -8.01733875 
-9.2657423 0.329986006 -9.78132629 
-15.3858566 -0.106690452 18.0096989 
11.4681177 0.0415515415 7.20000553 
-20.9383545 -0.000841309316 11.3609324 
-19.7622414 -0.146724537 -12.7042084 
19.3259792 -0.449478626 -20.8222828 
18.0554943 0.228848845 -13.4689293 
-17.1724701 0.226052269 -10.8439827 
-13.0681047 -0.109827042 -13.7742615 
18.7095451 -0.489397138 6.62664652 
-23.2308254 -0.480428129 -10.4657698 
-23.9689884 -0.476929396 -8.7421627 
-11.3800983 -0.219203919 3.94127274 
-11.1020842 0.0591802038 17.7551575 
14.5102644 0.262017995 -9.34896564 
-24.0710163 0.117364772 3.63890457 
20.4743614 0.133786067 -10.5848389 
0.376040071 0.555862129 20.5266781 
3.25863624 -0.00609473977 10.565033 
-15.3595591 -0.39282608 2.89018083 
17.7509232 0.109511875 -0.0887076557 
16.6963387 0.49879548 -11.2770767 
-9.75346088 0.229813576 -11.3067484 
-7.46358919 -0.259229183 22.191555 
-17.8675652 0.332510293 13.8624296 
14.0279779 -0.190896198 -22.1676254 
7.83156443 -0.291110128 -10.3391142 
12.0580549 -0.127671003 -21.1652336 
14.874692 0.240613088 -6.0398221 
-6.46489143 0.583170474 -10.9013958 
17.3982754 -0.352187276 -20.3891525 
-24.0344086 -0.0416452587 14.1682682 
-5.26007557 0.19252561 -9.7190094 
16.9724274 -0.256271333 -17.7840767 
15.2990789 0.238899961 -5.17607212 
4.25510788 0.422463745 16.4277763 
-0.313893676 -0.125967503 -24.4232788 
11.6375685 0.00599787384 19.1744881 
-24.8964329 -0.659181476 -9.79302979 
15.134922 -0.320480138 -20.7425289 
13.1392717 -0.388123661 -18.6150284 
6.22478819 0.281641006 11.8633642 
8.83890152 -0.389912844 -12.7219467 
23.9540081 -0.184038728 -14.9150143 
1.4729979 -0.334196061 -0.220887661 
1.39372838 0.21078299 9.1319418 
-6.84380531 0.650027514 -13.814353 
10.6515436 -0.0289982837 9.03648281 
20.2150574 -0.196000025 18.6283131 
10.5296564 0.0820914134 -14.2124567 
-0.716142893 0.115590058 -12.8161249 
12.3429871 -0.132203519 -18.222517 
18.8083668 -0.35322383 -17.987278 
-5.17142296 0.448170215 -12.9653101 
7.74272203 0.235691726 11.7342176 
-7.17709208 0.561163664 -11.8065605 
