ply
format ascii 1.0
comment created by gply, a Houdini tool.
comment converted from .[b]geo
comment for more information about Houdini, try:
comment www.sidefx.com
element vertex 1267
property float x
property float y
property float z
element face 0
property list uchar int vertex_indices
end_header
-20.7598343 0.6556499 -0.475141436 
-0.0993077755 -0.0469509773 -22.6664143 
-20.0450001 -0.124741703 -13.4650345 
-13.1446667 0.128394753 10.1995144 
4.16436195 -0.252361625 4.71417999 
15.7860851 0.15336442 -7.13000727 
-7.80495882 -0.504064023 -1.82083464 
17.4611301 0.0541454814 -3.91521716 
19.2229366 0.0762212723 3.02267861 
-8.1781292 -0.34319967 3.06392145 
1.72222745 0.123170033 -10.7557297 
8.21707916 0.283696711 -3.13587856 
19.7977238 0.242061019 -15.0693197 
-15.5302925 0.0549942032 -9.18739128 
11.0163202 -0.0955956802 -1.81286013 
-15.3912611 0.060457889 -7.57690668 
4.00710201 -0.231675267 0.0938192531 
-11.1536283 0.0694831237 12.1927404 
15.7065363 -0.122100264 -10.8394518 
-18.0991077 -0.164253891 11.4848614 
-12.8868132 0.153791532 -5.60786581 
22.5208549 -0.490033597 1.07054675 
-15.9413023 0.164461344 -5.47729397 
-20.8482914 0.473008931 0.983115435 
16.9726868 -0.0295024589 -3.92648077 
-18.6293755 0.422725528 6.26917648 
16.0351028 0.127842054 5.70121288 
4.94887877 0.0938502774 -13.1606598 
-1.11160564 0.140593112 -8.77726555 
-19.2183342 0.630517483 1.63125503 
-14.2702017 0.0626188889 10.6543846 
8.18630886 0.30260843 -2.337466 
-14.4593849 -0.356786698 -0.628130376 
-5.24091244 -0.238269612 -7.22427273 
-22.5538864 -0.152220801 4.67082214 
7.48532724 0.041407343 -18.2859192 
-14.937562 -0.398734331 -11.2622204 
-2.03269911 -0.331124306 -1.71725285 
14.2787628 0.442725599 4.41737556 
15.8582916 0.0895006135 6.37408829 
-20.3936176 -0.333725452 17.0080795 
6.43233395 0.315857172 -11.849844 
-10.9656963 0.0358828157 -7.55072069 
20.7670765 -0.234734461 7.89314461 
-19.1012554 0.478338063 -3.30241013 
-9.35571957 -0.324771494 1.57224977 
7.91796017 0.529693723 8.29247284 
18.3664646 0.00532778213 -13.8493137 
-9.68326664 0.234599546 18.2672749 
-23.6619053 0.117258519 -13.1515923 
1.26536274 -0.0576693416 -6.55960846 
10.6797857 -0.45093289 -5.92467737 
-2.57765269 -0.276890635 -4.34716225 
-3.42501926 -0.281239003 3.33184147 
-17.4099216 0.208429232 -5.53848124 
12.3727083 0.0116345184 -0.226762608 
-24.7287636 -0.159525216 -9.97763252 
16.7987919 -0.119934395 -2.85715842 
18.0841866 -0.240067929 -18.5091591 
-18.7698116 -0.294263035 12.116003 
19.6217823 0.239307463 -8.72731018 
2.32574224 -0.471912295 6.86309242 
16.9668636 0.0363967977 -0.400338858 
24.0233154 -0.0120352646 12.2683506 
6.70986748 0.0768167675 0.308939099 
22.906889 0.380623043 -7.05587435 
-3.22840357 -0.261924028 -1.91911018 
9.20168972 0.0908250809 -3.35850954 
10.2334328 0.129681155 -17.0826416 
-21.7669773 -0.178681359 9.99733734 
-3.53203225 -0.196821645 5.81633854 
2.49303818 0.154796869 -12.748538 
-20.4261875 0.0158547834 21.4350471 
0.357832491 0.200057417 15.2769432 
-4.2895565 0.223282784 -11.0632696 
20.9311676 0.0957755893 -4.2553525 
-18.9236298 -0.0557575338 20.5426731 
-9.7752409 -0.180648789 -3.86531377 
-19.2695522 0.322018832 7.35414553 
-0.0768959075 0.19837454 -13.5386772 
7.16103506 0.163346887 0.116176613 
-9.26943588 -0.332481235 2.63071346 
-14.7374306 -0.233380154 -1.29953873 
-14.3824854 -0.0344774947 4.53351545 
-15.0017071 -0.209661499 2.19068336 
-13.585887 -0.427247077 -13.2220402 
-15.5680552 -0.187738642 1.18930471 
-14.8938618 -0.0227664057 5.61147261 
-5.12526274 -0.133572221 2.35737729 
-20.4783268 0.29209438 -3.41326785 
-1.99575698 -0.0551529489 -9.51307392 
-17.7290916 -0.238346949 -14.8402939 
-17.4893799 0.0660546422 -6.48493814 
-7.01392651 -0.197264835 3.44768953 
5.14877176 0.229658052 -5.70314217 
18.6276627 -0.184837982 5.57749796 
8.99052048 0.230157211 -1.51484239 
-18.8825092 -0.153460637 -6.87383461 
14.3203535 0.290074408 0.57209003 
3.59019971 -0.149739981 -1.82547128 
-16.5502129 0.371022582 -1.70546556 
14.213953 0.511666 2.89184451 
-4.02908659 0.0717653185 8.5475769 
-0.932262003 0.143236473 0.0558711439 
19.8918781 -0.34599784 -17.2463894 
21.0142574 0.281149536 -7.17192745 
-9.48372364 -0.193115205 -8.3745327 
23.0973949 -0.0882347375 13.2123222 
-11.0058012 0.51761198 18.2765808 
-19.0286522 0.598891914 2.24439025 
10.1409092 -0.660971045 -7.61395121 
12.2886114 -0.559916973 -11.8458042 
3.82557726 0.315945894 -8.0856657 
-14.6380024 -0.0366317704 -2.88524342 
-14.7931595 -0.358228594 24.4256477 
-10.1600113 0.190063655 -5.53036833 
12.7528858 -0.359084219 -4.37529564 
0.759940803 -0.0322343856 -7.50727606 
-14.2901373 -0.271680355 -1.44669092 
7.06023979 0.354041308 -1.52271402 
-23.5012054 0.134528473 -0.594268203 
-5.43314457 -0.260209143 11.6166945 
8.62081337 -0.150362194 -9.17043018 
-10.5673227 -0.00182330306 -7.57583523 
21.1217918 0.0744928941 12.2425518 
19.7522545 -0.209667072 7.80212116 
-16.2328758 0.188624367 9.48609829 
-20.8827057 0.0849577338 8.00115204 
-11.0350246 0.0845771506 11.297863 
-21.1218739 0.0506943092 -4.01640987 
-9.43117905 -0.119390309 3.76023746 
-23.2629738 -0.0797675997 6.23656797 
22.8000469 0.492153078 -7.96777916 
1.53940117 -0.555767655 8.48563957 
1.47717452 -0.394656003 4.51126957 
-2.67844725 -0.320025235 5.74858952 
-5.03670454 0.630781531 -19.0065575 
9.47467995 0.451596409 9.19898796 
-3.64586663 -0.10556078 -0.0242400765 
-17.9481468 -0.406894207 -8.79777241 
-14.7654562 0.0983089432 -8.38408089 
19.9319286 0.505227029 -11.8047552 
-20.1333447 0.263157517 6.7051692 
-9.81465626 -0.172408164 -8.2636919 
9.63610554 0.0790865347 4.04381418 
-19.7347641 -0.100592367 -7.12454319 
24.3940754 -0.379413128 5.03523684 
9.52029228 -0.0726062506 15.7488747 
-17.0373688 0.483196199 2.33224583 
0.800071537 -0.0613975823 -0.859757602 
-19.6538124 0.753199995 0.415714383 
14.6395664 -0.0815147907 -3.30359912 
-17.7294254 -0.302519619 -8.11784935 
-19.4637489 0.314024806 7.21546793 
24.6660061 -0.389135331 7.92686653 
-21.8424549 0.48487559 -18.3575954 
-0.380355924 -0.0936523527 10.8605089 
-5.25149488 -0.734512746 16.3121052 
7.42149305 0.273371905 -10.9520588 
0.4708772 -0.00350847817 24.9998875 
-5.8493042 -0.574103296 13.3793602 
-23.9339008 -0.201233566 -8.13184261 
18.4345112 -0.047223065 10.9646912 
-17.6731033 0.569223642 1.61272705 
23.1101818 -0.428174019 0.38891995 
24.2736931 0.0952885449 -1.59145761 
20.7219391 0.517118812 -10.6643553 
-20.2557144 0.339701951 -17.8537178 
9.40296078 -0.190739706 -5.59902906 
-20.7199497 0.515782893 -2.2575829 
4.07725143 0.28685528 -7.69621754 
3.91073847 0.392343104 -8.71030426 
-22.1665764 0.231775224 0.212940067 
-16.3575077 0.218191281 -5.73032379 
-23.6319218 0.191847324 -5.58733082 
-14.673254 -0.591000021 22.5215816 
-7.94244194 -0.289763063 4.64650488 
-9.93550205 -0.146267354 -3.02761316 
11.8868132 -0.522775412 -12.002058 
2.35240507 0.293924153 -7.8770175 
-11.1536579 0.185528859 -5.85373545 
-24.4680614 -0.202059686 11.4052048 
15.2953854 -0.0222538095 -6.73642349 
13.0036602 0.191822022 1.29715645 
-20.0999832 -0.0486618727 -14.0541811 
11.471446 -0.25379622 -14.0239172 
-24.3114891 -0.0624583401 0.168439925 
17.5066929 0.228462413 -10.7276306 
20.122551 0.0655640364 0.922522008 
-17.8152962 0.587854862 1.78938401 
7.08388758 0.198703229 -5.23687458 
-10.0202436 0.12784934 -5.97185469 
-17.722332 0.392364204 -0.468407363 
22.6090336 -0.300519437 -1.37752497 
20.0903797 0.38138026 -12.7870026 
-8.70616913 -0.24128814 5.08396006 
15.426609 0.143716723 -6.55953312 
6.56963921 0.258688033 -17.3189011 
17.671133 -0.146563575 -17.525053 
-5.84457731 -0.0393714756 6.95274782 
9.31062508 0.539309621 6.38733673 
16.5010872 -0.393816799 -14.8067408 
5.51430893 -0.23396185 0.907178283 
-4.35518026 -0.257142633 -4.19289589 
-0.484719723 -0.223461419 -4.12996292 
-17.7346497 -0.366836667 -8.60929298 
6.65301704 -0.0595390014 2.59328198 
-1.18472171 0.0301532913 -20.5256462 
-9.93397808 -0.0991455093 6.16170359 
-19.0245171 0.891750038 -1.69197869 
-23.4873085 0.318944067 -3.6709981 
-11.316206 0.0272081718 2.26580071 
-1.09950984 -0.102590419 -3.38499761 
-20.2313118 -0.000444820151 -5.59913588 
8.92827511 0.228092968 3.37822509 
-23.7581654 -0.495461464 14.7824678 
10.3413572 0.054399211 -0.757053375 
-12.6725283 0.482354283 19.1492901 
20.6842346 -0.0574102029 0.406170428 
24.6975441 -0.229810596 0.721294463 
-7.5155468 -0.654702663 -4.40590143 
-16.4556103 0.454975843 12.6371756 
-14.1868343 0.0133278677 5.94019794 
-4.38839817 -0.411174953 -5.67169189 
14.691309 0.481390297 2.80623603 
3.34251785 -0.24502261 2.55164099 
-19.275528 0.311262995 6.97656822 
-24.1732903 0.366687179 -15.9416695 
-8.28388882 -0.288571507 15.3633118 
-15.5944977 0.237989232 11.5923986 
15.545702 0.102279201 -7.21959543 
-12.4854717 -0.225590885 -0.730454683 
-5.58435154 -0.14867714 1.00847149 
-11.7620535 0.410535216 15.3996973 
1.04356992 -0.0366782844 -5.47282076 
24.4026699 -0.0118845105 -2.65623379 
15.3342066 -0.153719336 -9.82586956 
12.3751221 0.285238743 2.97931075 
5.94678783 0.3204059 10.973074 
14.7851954 -0.38602221 -9.2671051 
22.6367435 0.269286782 17.962513 
-8.11667156 0.428714901 -22.2052898 
0.387204975 -0.558209181 8.35955048 
22.9821835 0.371683568 -7.17512798 
-14.280139 -0.255630404 -1.81260216 
-12.8945436 0.481343746 16.2030144 
2.75183749 0.173995763 -9.17388153 
18.2504196 -0.0166932698 12.0396404 
-17.4686832 0.461996764 -4.31335497 
17.5540485 -0.185858697 -20.0955582 
-10.140049 0.0329112783 -3.47941637 
-23.3498287 -0.0398541167 -6.3443408 
18.4202385 0.395299375 -8.49198723 
15.6001186 0.226462647 3.39349723 
20.2665768 0.220109016 -5.93756151 
-6.05294037 -0.504746318 -5.83178043 
-16.3313713 -0.508221269 -17.5130501 
-14.2439213 0.0795552954 4.14861155 
2.41924524 -0.318429232 4.43166971 
-24.6926765 -0.271252871 13.912262 
-11.2353859 -0.0648263022 1.62461388 
-9.98621845 -0.238378704 -0.490846038 
-6.23787451 -0.0935622156 -8.98529625 
0.590746582 0.203170106 -12.0259285 
-1.40085769 -0.375578523 7.20493174 
14.5513601 -0.0627208799 -2.18543172 
0.680098534 0.313635379 14.9183683 
9.42749977 0.0609895065 1.71363902 
8.28836536 -0.0905414969 -18.2193642 
10.0817776 0.0687693134 -16.861887 
5.47027493 -0.246596321 2.94845748 
-22.5483208 -0.191531852 4.34859514 
14.4090633 -0.354491234 -6.33548117 
-20.3364334 0.309804469 7.93165016 
21.4013042 0.0950088501 -16.1777878 
23.3180866 0.168413267 -8.51711464 
11.3661137 0.056699805 -18.5829334 
5.37778616 0.243656203 -12.6241865 
0.299715936 -0.479288876 9.04082584 
-6.51613998 -0.252938539 4.6488595 
-9.16102219 -0.292136461 10.635479 
9.10590839 -0.320649683 -7.71173906 
-15.9250565 0.330593705 -1.4201647 
3.73799348 -0.248781696 3.07657528 
23.0256958 -0.0465307198 -18.9605141 
7.44728279 0.0905488282 -18.7829857 
-20.8822842 -0.0821982697 -6.63983011 
-3.61361408 -0.142902628 12.5561037 
5.19073582 -0.319056958 0.950045884 
-7.80084991 0.36771071 -22.8117809 
-3.8318572 -0.465688497 19.915802 
18.3162098 -0.0688444003 1.55769992 
18.7448864 0.203176185 -9.80178452 
-12.1932688 0.0568618923 -4.55726051 
9.45588875 -0.0991713181 -4.63980246 
0.888533831 0.0409581512 -3.59464216 
7.6139493 0.25295037 -6.13025856 
13.4267139 0.131542221 0.625920951 
-8.23897362 -0.513427317 -1.24943638 
22.4611702 -0.42637673 6.99373484 
-16.5629635 0.276461035 4.44611216 
-9.08373737 -0.331124097 13.4368725 
18.8617096 0.340640128 -7.09631872 
-23.1732311 0.565537453 -17.6510315 
-4.16457987 -0.309354514 -2.52934766 
-12.0016928 0.103842355 7.01840067 
18.5102406 -0.0220514219 -2.66597629 
-0.987570047 0.343794644 -11.2225742 
-15.4643173 -0.570506096 -15.5235023 
7.9837966 0.149746448 -12.0998173 
-4.42133856 -0.0535270274 -8.53127384 
-4.3906765 -0.166242212 -7.9823904 
-15.744626 0.165715978 -1.18008447 
7.4983182 0.335829735 -2.03566408 
2.79701757 -0.000349114183 -5.3715539 
4.88451958 -0.333175778 2.27841091 
-4.77072811 -0.290276736 -2.90926456 
7.06428432 0.035937164 2.56035399 
21.7443752 0.158080295 -6.30304289 
-3.13582373 -0.132700846 -10.1968918 
-2.25632596 -0.338220775 -2.69381166 
13.3230753 0.173974887 -17.267149 
-3.32857943 -0.0192971081 11.6950188 
-19.3005695 -0.203642443 16.1827698 
9.53411674 0.0831248164 2.89921761 
-16.8732071 0.400062948 12.265727 
9.43793488 0.172085091 0.738111019 
-5.41946936 -0.568039596 14.6463804 
-7.13571405 -0.547151804 -2.9014225 
-4.90380001 -0.269962162 4.79507065 
17.5221939 -0.0343915932 6.373281 
3.92804217 -0.175404429 2.32665443 
12.5029278 0.0334655754 -14.6839485 
-4.98579359 0.186166584 -9.84938908 
9.34354877 -0.219834059 -13.2084818 
-14.0424042 -0.708997548 -16.2805061 
14.1319304 0.514483571 3.72849512 
-20.4830151 0.696584702 -0.499125421 
-7.12497807 0.207012102 23.1897259 
-2.31125784 0.237856254 -18.4779224 
15.2889051 0.0975367948 -5.96823978 
-4.99247122 -0.0100758877 8.32418919 
10.1801939 -0.132344455 -3.30672193 
12.9984417 -0.174069107 -23.3337765 
-6.0996623 0.313597023 -14.4729519 
-0.998477101 0.205552474 -17.5780029 
17.6751442 0.193872228 -11.0581198 
12.1504679 -0.0313407555 -14.9682274 
-10.4578447 0.174178585 -4.6077404 
-3.50656819 0.00274468632 7.36272621 
22.1926823 0.458222032 -10.1918631 
0.853805721 0.0571403429 11.8928452 
10.7322474 -0.694247127 -8.51217175 
9.87483311 0.118060969 -1.98075914 
-13.9168215 -0.239074349 22.2925968 
-24.9290123 -0.185372904 10.7672901 
-14.2169132 0.218557894 13.0797729 
-10.2838383 -0.154277116 -18.1873913 
11.0483532 0.0509506948 -18.6929951 
-2.49143791 -0.200079888 -6.5303297 
4.84136534 0.455107123 -8.09492683 
14.1666946 0.0387190282 -0.40994966 
-11.0107193 0.268032163 4.50012207 
21.3347874 0.414747238 16.8017273 
20.8156834 0.27348423 -7.51457071 
-0.917700529 0.0524200276 -8.23270893 
-20.1991749 0.222468004 4.35266542 
-10.7666025 0.00154380489 -7.57410002 
-18.1929264 0.558711946 3.58365655 
11.7263842 -0.449379414 -6.15826273 
-9.94274712 0.108738951 -5.70724535 
8.50141907 0.0578243844 13.08074 
-13.6724949 0.331335902 17.0108986 
-15.7484674 0.0175936185 -0.364217103 
16.5848122 0.296644032 -7.93772984 
-24.0824337 0.156392217 -2.79709244 
18.6574688 -0.102792047 4.77279854 
6.95812035 0.26048553 -3.08520627 
-14.3550186 0.148405835 11.7992353 
-3.56819868 -0.259445459 -1.9128685 
6.41221905 0.167328104 -1.75693583 
-2.36307669 -0.251999587 -8.3458519 
-13.7738113 0.157951638 8.08525181 
19.0112667 -0.16026403 -3.21203113 
14.2162237 -0.199506044 -3.8548553 
19.6038685 -0.19001846 7.77584219 
-21.2215118 0.026756309 -7.78935766 
3.38666248 -0.262029439 3.42325377 
6.99581289 0.408942252 17.6147575 
-3.81490493 -0.200461835 2.29779363 
-2.944381 -0.38919422 -8.34231281 
15.0470791 -0.258087575 13.3591156 
18.4692841 0.188710883 -3.79490638 
21.3547211 -0.0996644348 -1.3311851 
-12.9673796 -0.312710553 -11.4224167 
22.22612 -0.0153687764 -18.3775864 
19.3018093 -0.0141958473 16.8036442 
-0.186192393 -0.212909862 10.3006639 
-12.6698713 -0.152287558 -23.9489193 
-10.8430605 0.0377591588 2.57205725 
-11.0860157 0.485404283 18.0289288 
-25.0407429 0.242305666 -6.48785496 
5.62588882 -0.121767446 0.479862183 
-8.70149994 -0.252989352 -14.3784208 
2.63247633 0.0644536391 15.0108805 
-5.28112555 0.219696268 -10.4183741 
17.2747841 0.21815373 -7.09751463 
13.837162 0.287023664 17.9516411 
-16.7379475 0.418087333 -0.304326952 
15.7560177 -0.175095052 16.1425533 
20.5575638 0.434022874 16.6672516 
-15.4559803 0.174372196 -2.18619061 
-9.63027954 -0.332793802 1.65116251 
-14.5456095 0.304911643 9.27025223 
-14.2669649 0.199482381 8.94169044 
-3.99500632 -0.257725239 -2.26543188 
5.63990641 0.294817686 9.30986881 
15.3825111 -0.0677175447 -5.27796745 
-16.592041 0.436367273 6.76316309 
-1.98298419 -0.136365756 3.51682186 
16.9374847 -0.501059532 -17.078001 
-15.9426975 0.167433843 -4.27038193 
19.3058853 0.31762588 -7.71688461 
-0.422270387 -0.0969062448 0.596393824 
-11.1014271 0.245351493 5.81238794 
6.4092021 0.49224329 6.33813286 
-19.1505394 -0.244372189 -8.83658314 
-3.74898362 -0.509067416 15.909749 
-20.7370834 0.398127556 1.54795551 
-5.16147709 0.219351768 -9.82194805 
14.2065115 0.231753796 6.73757362 
5.79920626 0.535118461 -7.92665577 
-12.3463612 0.616984963 18.8070107 
-14.0295982 -0.341515869 -10.5751476 
-13.6953268 0.420530885 15.9873304 
-2.33336949 -0.113692351 8.23151112 
4.46879339 -0.190564945 3.87748384 
23.5197849 -0.477939576 4.55226564 
20.6327076 -0.0594795384 0.256671339 
-15.5473433 0.103575446 16.8965549 
-1.15912163 0.0200210251 -8.31148815 
-19.8821239 0.630944073 -1.93918347 
-12.9149551 0.184670895 7.89255476 
-3.74533558 -0.0770617574 0.0162348077 
-22.9421234 -0.025585996 1.27996051 
22.3817406 -0.465459764 7.82925463 
-11.701211 0.115056068 2.96095181 
-9.3142786 -0.417621106 -13.1518707 
-3.88238668 -0.0972997248 11.9204798 
0.296563953 -0.125096276 10.7637711 
-6.32255745 -0.631251335 15.871788 
12.429492 0.255392402 3.58492589 
-21.4404335 -0.094965674 -6.27138472 
-1.11555648 -0.508521736 5.64592266 
8.83921051 -0.049649708 -15.465704 
5.19791508 0.279675663 -3.99387288 
5.293046 -0.174638718 3.97961187 
11.9291353 0.190943703 -17.6186352 
20.1817265 0.169840381 -7.94067478 
-4.47597694 0.0767886862 9.62735653 
-12.2059774 0.304128736 5.04061747 
7.5991869 0.236828119 -0.257172883 
5.3628068 0.0872163475 -13.469821 
-18.2862587 -0.0348061994 10.6154747 
25.2312603 0.38854 -17.4467869 
-4.91819525 0.423155397 -12.7284994 
-20.2191544 0.600494504 1.23890555 
7.53364611 0.0261417832 -19.1016636 
1.39553356 -0.0164168756 -4.41957712 
-8.04679775 -0.356676936 9.04150581 
-24.2462788 -0.170864269 2.85037112 
-12.3901911 0.121780358 7.15390444 
12.7026234 -0.238087118 -2.40046644 
-4.75516987 0.0804218203 6.75546026 
-4.128407 0.133594602 9.95830727 
-9.56043243 0.0505220108 -18.8402233 
25.1415253 -0.023021359 -1.54368281 
-23.8657475 0.37782681 -18.7490234 
13.3230791 -0.217712805 13.083539 
9.58781433 0.0130708897 -18.423893 
23.5147686 0.00344012911 -3.27785182 
-17.7812366 -0.242249727 -12.5750418 
-23.2990341 0.0864946321 0.686425447 
20.4021225 0.569970548 16.1661701 
-2.38148761 0.342370838 -16.520113 
-22.6567001 -0.248843655 10.0053959 
-18.1956711 0.39189449 -0.0293689054 
15.2765055 -0.204651177 -24.9437027 
-21.1712513 -0.00762116211 -7.96051836 
8.24633312 0.0962130204 -4.63482523 
0.428465456 -0.605924904 7.88204813 
12.7057838 -0.0883329511 18.4726849 
18.9660931 -0.61225462 -23.7788582 
-12.5381393 -0.231742695 -0.355141789 
15.6682682 -0.00459350413 -2.98370028 
-16.996254 0.30584538 -5.10401726 
-20.0371399 0.356745601 7.50846577 
-17.625946 0.183542863 -5.59017181 
24.9848289 0.40946421 -15.2869797 
9.84958649 -0.0100870831 -0.169282272 
-3.82356095 0.275544196 -11.9375944 
-22.6198254 0.158416495 -1.61062253 
9.88245583 0.0167573579 1.63493443 
2.01924562 0.112671658 -7.04730177 
-5.74438095 0.524298489 -17.8872223 
-22.9682217 0.638749361 -19.1539192 
-8.06652069 -0.547889352 -4.03859472 
-14.4675913 -0.125476152 -2.93954968 
1.93761182 -0.12292131 2.70404434 
-0.362903386 -0.499291837 5.69663095 
21.3821373 0.145093083 -6.11541128 
-16.7906075 0.445688218 2.81308842 
9.66726017 0.0472594835 17.7627392 
-17.9468899 0.513585985 -3.98549938 
7.29034662 0.0976367146 0.687564552 
0.196147367 -0.602992833 8.13319969 
-8.20462132 -0.360948503 2.71551275 
21.8581009 -0.199853748 10.0885344 
-16.5177307 0.33619836 7.81887817 
11.0564861 -0.713009298 -8.41901207 
-13.2581549 0.127593935 7.07286453 
-4.64909887 0.523424327 -13.1003618 
-24.020237 -0.217165947 4.44023228 
4.28378248 0.371527106 -8.96768379 
3.55390763 0.210679665 13.522028 
-16.9050198 0.486069888 0.850962877 
17.9996052 0.070870243 -4.7823019 
3.60336328 -0.368638009 5.99440241 
5.43301249 0.0849042386 -13.6042957 
-12.9993286 0.0424527563 4.16256189 
-18.5832405 0.54392612 2.76665354 
16.1442394 0.173849046 1.39088428 
-3.4084096 -0.115826324 2.0400629 
10.9088535 -0.130917996 12.2803488 
20.0744038 -0.332410753 -17.9080715 
1.48808742 -0.179323792 3.81747627 
0.292466402 0.00655237865 -1.90931165 
9.21115398 0.186826721 0.505751431 
-9.43778896 -0.17223382 -8.25274372 
-20.9856529 0.347410232 -2.84003711 
22.3337593 -0.497547835 2.12972307 
9.7451725 -0.0548656099 -3.60651064 
-15.1872044 0.056536153 -5.94972992 
5.61382198 0.64035207 -8.84771252 
15.2578697 -0.010036936 -6.563869 
16.3492413 0.1360953 4.43954086 
15.867115 -0.0979671404 -11.3539438 
10.8779726 -0.458886176 -13.5409927 
-10.7204599 -0.135233641 -9.0582428 
10.3299179 -0.442536116 -6.46335459 
-13.1718102 0.132942483 -5.13386488 
-23.0896225 0.16177991 -13.1840324 
-20.3865185 0.658135235 0.190252215 
20.7626572 -0.454823852 6.72594976 
19.4340153 0.11776571 2.84172893 
24.74263 -0.199166879 4.98513746 
15.2771101 0.033754684 -0.444499254 
-19.6063347 -0.241991416 11.6286345 
9.09148407 0.186250672 2.96893525 
21.2760773 0.562691033 -10.6730881 
-12.8207655 0.174838349 -5.25810385 
-3.84930468 0.0503034666 7.48365831 
-6.40562725 0.339422703 -18.7225857 
18.9618263 -0.176965773 -2.75690818 
-14.0308914 0.0894187391 -8.00852489 
-16.8927898 0.145625055 10.4428596 
2.94778419 -0.335855961 -17.0482788 
22.5164356 0.276024252 -13.5274601 
23.9979401 -0.100628018 -0.32097429 
6.65672398 0.233466446 -4.72824717 
1.12583256 0.133779779 12.0771341 
-20.8578548 0.609206319 -0.268593848 
-1.11817455 -0.204986989 3.88628531 
-16.9092484 0.324134707 -5.03110552 
15.5491304 -0.0683738217 -3.62103343 
6.60704517 -0.0869005099 -24.5916767 
22.7620811 0.229572728 -14.7314768 
3.98201203 0.143049806 -3.77345943 
1.04953539 0.135842204 14.2624245 
7.80281496 0.243137568 -7.92979813 
14.7494278 -0.126077518 -3.576231 
-9.49849606 -0.31512934 -11.5972118 
10.8510857 -0.36943391 -5.36496305 
3.68538952 0.269521654 -10.8059092 
7.44279623 0.356274426 -6.79640961 
-13.1591311 0.210901648 6.22360468 
15.4614334 0.261423349 1.31996024 
10.7297001 0.0743759647 4.18822098 
2.26685977 0.0876112431 -13.3910694 
20.0014801 0.179939777 -8.02235889 
17.3349762 0.167157501 3.25150681 
-5.5237174 -0.246163175 3.48151827 
23.7759209 0.269601405 -6.09141064 
15.9843855 0.112647079 -8.39653778 
17.3277607 -0.273186713 17.5403061 
-0.839514136 -0.03579133 3.11921668 
22.1057587 0.150381252 13.6870003 
14.0234671 0.255169988 6.28593874 
17.4941368 0.110404693 -6.44519711 
-17.9270954 0.374206245 -0.841292381 
-7.20481491 -0.530459702 9.79728222 
23.2399387 -0.459301025 2.94444299 
-21.9914398 -0.0970367566 6.88791513 
-22.3063488 -0.258980155 13.4024029 
19.2855377 -0.287922919 4.82371187 
7.36476278 0.15754047 -10.1719503 
-16.7124825 0.434829563 7.06763744 
-18.7662449 0.657190502 -0.845914304 
-21.5345898 0.447902471 -2.47523212 
-13.7732162 -0.0658274591 -7.00335312 
8.36664677 -0.178602353 -10.2387686 
14.0855875 -0.0609392449 -2.191329 
11.7665262 -0.678279698 -8.58149242 
18.7562675 -0.361764193 19.6255245 
-23.2433739 0.284504265 -3.5247004 
-23.6583939 0.305268437 21.0576267 
-7.34463263 -0.173820421 5.12404108 
-13.4213161 0.386478573 16.2811794 
18.2883911 0.278264612 -6.8972168 
15.9510717 -0.0522287413 -3.32272911 
24.8011074 -0.341784298 8.17853451 
-23.5875416 -0.173189521 5.11982441 
-11.159668 0.0538784638 2.54888773 
-23.9358311 -0.0844885558 18.1026478 
5.69522953 -0.28674233 2.33258843 
-6.72314787 -0.409472972 -6.58454418 
-18.0317745 -0.142189413 15.8376837 
22.828722 -0.120773457 -19.39118 
-19.8341885 -0.151385263 -7.42573023 
-5.11972523 -0.0487518124 -0.0564583391 
-2.60456276 -0.106093191 14.5962763 
-13.8264179 0.21156469 11.8716269 
-23.7663479 0.175541267 -5.71655464 
14.8079929 -0.573165894 -19.7829914 
14.1381245 -0.464743853 -19.0605698 
-18.5721397 0.532213628 2.89475775 
-18.2536545 0.278066844 -19.1607094 
1.25618887 -0.165513024 3.14994478 
14.035203 -0.632387459 -7.15272427 
-12.3513756 0.267674506 4.84641409 
12.6641293 -0.295092672 -5.35767412 
-22.0718594 -0.0973662138 6.98936892 
-11.5726576 -0.0194732714 2.08982038 
-8.86958313 -0.394533783 0.445798218 
-24.4460373 -0.224406764 2.26858974 
15.3353729 -0.0309417527 9.18551064 
2.97436595 -0.261964202 8.11641788 
21.4028206 0.547622561 -10.4246607 
-24.7305317 -0.251697004 5.0881815 
14.2166471 -0.252292633 -23.7518539 
9.72412968 -0.0523719117 16.89884 
-2.23043489 -0.244682416 -8.53175735 
-17.1704426 0.439120591 2.07188725 
-12.4834862 0.564921796 18.0962734 
16.1050854 0.0509837121 -1.47046292 
-14.8931084 0.167426124 12.6529999 
-18.9774036 -0.240141064 -11.3547754 
-18.1512833 0.461372882 6.0517602 
-14.8217707 -0.311167359 1.71884489 
-6.26748991 -0.481118888 -5.64083147 
14.6943645 -0.219005063 -12.908308 
-20.5271549 0.474109918 -2.52133942 
24.3956318 -0.258960277 1.56874156 
4.09449291 0.381948084 -10.5222464 
-11.1409111 0.305467606 4.66230726 
11.0913725 0.135558113 7.29575682 
2.91033697 0.375738412 19.1028004 
-10.6385984 0.244806543 17.716835 
5.1417346 -0.110179469 -0.445330739 
-2.68367124 -0.184562445 -6.38106823 
-17.6147537 0.178076565 7.41364765 
-15.6568127 0.0526461527 -8.16601944 
-17.9052544 0.430623978 0.524698257 
-17.9378605 0.333259135 -4.97434378 
23.6352215 -0.481077969 9.12024021 
-2.9414804 0.239505202 -19.2390404 
-16.1575298 0.534977674 13.182229 
-18.4330902 -0.301216006 -12.4690924 
1.11351442 0.0127536533 -8.00730324 
25.0604649 -0.0498134866 -0.19422327 
6.5495224 0.129567161 -18.7256775 
2.62556148 -0.242536649 3.32693028 
24.0087681 -0.277341336 1.641994 
8.35311699 0.210573182 3.41814351 
-16.5234547 0.426933855 7.29011297 
10.7346001 -0.00176133099 2.23293614 
-19.7420807 0.238976941 4.96360207 
-13.4150333 0.409731954 13.3619204 
-16.2943287 0.423799127 -1.73731363 
-1.70156026 -0.196291283 8.08180141 
9.97214603 0.132593319 -1.86850071 
7.63263607 0.189979643 0.98681587 
-0.0765108764 -0.114006594 -7.87348127 
-0.0395356938 0.228427932 -12.597394 
-0.797712505 -0.511775136 6.50686979 
-18.4095955 0.642039597 -1.94018519 
-20.4751396 0.600190282 -1.60542369 
23.6938725 0.0360937938 -3.32936335 
-24.8939514 0.341341019 -4.98749161 
-12.4985743 -0.208095595 -3.65017891 
-6.07048178 -0.341694504 8.19961166 
1.70767999 -0.0355591811 24.6987381 
12.5191364 -0.110728174 16.0517597 
-14.8531284 -0.040848732 5.16179752 
6.57959127 0.210418925 -13.7821398 
-23.635273 0.388037622 -15.0978756 
-12.8306284 -0.183198139 -1.29836929 
-12.1931486 -0.249024928 -1.28074408 
-16.8464222 0.353614628 7.56413889 
-9.17851734 -0.215814665 5.13018942 
17.7549362 0.175849453 -11.1768761 
-0.0446820259 -0.142811745 -7.53621674 
-3.41244149 -0.135874897 -6.44151163 
-14.0699625 0.00547823729 -6.00048447 
12.5548735 -0.499487251 -6.68961048 
-8.60657978 -0.209572077 -12.7140512 
21.1213551 -0.347906739 3.24910975 
23.9322491 -0.427136362 3.51952863 
16.9600029 -0.394810736 -19.1955528 
2.08261561 -0.194725186 2.11417651 
-15.104435 0.308544517 13.3809147 
13.8461781 -0.112939075 8.93071938 
14.5396681 0.463286728 5.23308992 
-7.59613562 -0.499214947 -2.63133073 
-6.12650871 -0.270823389 -7.98264933 
12.2546492 -0.343566895 -5.56894541 
7.04958487 0.154563293 -4.54062986 
2.90494013 -0.26269868 -16.2574005 
4.80561876 0.357836604 -6.79229927 
16.2922497 -0.43251285 -15.2598124 
17.8894806 -0.140937656 -16.7197895 
-9.08315563 -0.218561366 10.1632624 
22.9372044 0.0946041942 -16.7741451 
0.0790998489 -0.282767147 9.62432671 
-16.5857372 -0.472123057 -17.7865582 
-9.9918375 -0.139866322 3.22635221 
-9.72734928 -0.118033871 3.83982849 
-7.19242048 -0.414776504 -6.43002129 
23.5967197 0.157842427 -16.4588604 
-23.6158504 -0.162196904 9.46696472 
-6.32091665 -0.207349405 2.29599404 
18.5622654 -0.298716545 -17.2068691 
1.1607511 -0.42470789 4.83625984 
-19.2261677 0.549758911 -2.95090508 
-5.59521246 -0.213047251 11.7322311 
-11.6371479 0.0840160251 -4.52539825 
14.1599312 0.309293211 0.60059309 
-17.4959412 0.548834562 1.20344114 
-23.2457104 0.0960334465 -1.53085005 
4.15185261 0.125200078 8.37334728 
-21.9980717 -0.215762258 7.82679224 
-19.5989685 0.188736752 5.30285597 
-1.37259698 0.168003216 -18.6369591 
-12.0796347 -0.259115547 -2.25656986 
-18.5938034 -0.179414213 13.477129 
-0.453129143 0.0798218846 -8.35885048 
-20.8049297 -0.128674358 -11.2587881 
19.654108 -0.18052046 -2.6818347 
18.0696049 -0.0350073986 -0.21192129 
-14.4221144 -0.449291795 -13.5509577 
-5.82160664 -0.424873948 -3.48328686 
14.5527754 -0.142890885 -5.77585173 
15.9567642 -0.000639329548 -5.87910366 
-13.1245174 0.0797317922 4.92669773 
-10.8820648 -0.174015447 -1.32734501 
5.26274586 0.283547789 -12.1523333 
-15.829648 0.0634807423 2.87289262 
11.4434109 0.0397232957 0.619232953 
2.34412408 -0.285793215 -2.18179655 
5.93026638 0.547884703 -8.83598423 
-16.6782703 -0.0488561541 16.4118786 
-3.89585185 -0.130067363 5.87080336 
20.5114689 0.0992095917 -2.72320962 
-20.2640057 -0.234587997 -12.0765448 
-24.5807667 -0.0248610117 -12.9338245 
-8.54913044 -0.156764433 -8.63389397 
-11.7286158 0.142340064 -8.33143711 
19.0558453 -0.311216474 5.53089046 
-20.3391094 0.153235808 -14.9729433 
-18.4606895 0.515631199 1.46342397 
-21.8362751 0.491351932 -16.6305199 
4.41449785 -0.0301567819 -19.5304585 
-23.7909279 -0.389940739 13.2173882 
17.2830563 -0.017027989 -5.03804398 
-8.01710129 -0.280983448 6.8806591 
-23.9431438 -0.2499789 10.9143181 
-12.4486399 0.183096036 3.67877102 
17.4108505 -0.0564901382 -2.86239672 
-5.87833548 -0.152352557 0.523276329 
-1.57035029 -0.0217886753 -8.17032146 
-5.11230421 -0.104172871 0.989519298 
-18.3178844 0.521427691 1.41633368 
-17.5166225 -0.0558527261 18.5360413 
7.52671194 0.564284265 5.1676712 
-22.2524834 0.224915788 0.112412512 
-13.5489092 -0.535668194 -13.6980658 
-2.95050836 -0.138463929 1.87591994 
12.0461664 0.0928350836 -18.7671967 
16.9358788 -0.000305276946 -4.84540606 
-16.3219357 0.224804252 8.96950626 
-8.55509186 -0.334563464 3.532619 
22.4314594 -0.271674424 -1.88693643 
22.3580856 -0.119216733 -2.45170593 
5.91032839 0.149545431 -3.15455914 
-9.23406696 -0.330154568 -2.27432084 
-22.462986 0.268046051 -3.35850406 
-0.110827155 0.00726225507 1.90550327 
7.69016933 0.264723957 -7.23211765 
-21.4203243 -0.123956062 8.70183563 
18.9481182 -0.243802577 17.4103813 
14.2125769 0.470654309 1.92347538 
8.37476063 0.0477862544 -12.3138714 
24.9900265 0.0348733924 -2.48609996 
21.0308514 -0.0400724821 10.628685 
-6.58153391 -0.223021954 1.25127935 
13.88025 -0.649847627 -8.38309002 
23.9904499 -0.418129265 4.29954863 
9.30787563 0.0682923496 -3.4852643 
22.31493 0.333651543 -13.1199389 
-21.6969109 -0.0605737083 11.8085899 
-19.2628613 0.194841295 -18.3341312 
-6.54654932 -0.11843241 -9.23298359 
13.1784925 -0.273197919 -3.58982444 
4.18326426 0.182585239 -4.87764025 
11.8421173 -0.0154492855 -16.2582817 
-12.7452488 -0.182489216 -1.6164943 
-20.9952316 0.583428144 -0.353039831 
8.05683041 0.170244291 -7.70823526 
3.48479962 0.266279221 -9.49819851 
25.2082062 -0.30446291 7.08795357 
8.5645752 0.165533364 -20.7668591 
23.8413124 0.19050546 -6.91987801 
23.0040474 0.360695451 -6.47191763 
9.37171459 9.69865578e-05 14.2493572 
-6.60300016 -0.539465427 9.4596262 
11.7925024 0.142886847 6.30216455 
12.6509562 -0.200716019 -12.7427216 
-12.294219 -0.452505499 -13.3312273 
0.212063566 -0.155763134 -6.51927137 
9.57725525 -0.231007472 -6.17691517 
-9.91269112 -0.35529241 -13.6853571 
-4.17815113 -0.138841853 11.4875603 
-14.1215172 0.388677865 14.4261894 
-12.9274664 0.154641733 4.93413544 
-6.30969 -0.133185342 1.47914124 
-20.1999607 -0.20899412 -11.6903906 
15.5048866 -0.0942538977 -4.64051771 
15.9361753 -0.653647363 -15.828599 
20.4729557 0.390177578 -9.50050163 
-8.04376221 -0.110078804 -12.1787157 
6.33026075 0.0826224908 -16.0250225 
8.68125343 -0.0897404179 -13.9161062 
-5.15707254 -0.260693878 -1.18833101 
-14.2452974 -0.224243134 2.82505059 
-0.365422189 -0.205808327 3.9125731 
-22.8416958 -0.179934964 3.13682342 
-2.84587288 0.185911715 -18.8357639 
-10.1294994 -0.0887333378 -7.89282799 
-21.4512787 -0.528987527 16.7007427 
-13.1783581 0.0809186101 7.90641022 
-17.8704987 0.619082153 -3.41928077 
17.2528934 0.452579528 -9.40098 
10.5055218 0.240460873 5.7186861 
-16.5473175 0.204580843 10.4511404 
5.69007015 0.270343006 -12.8333645 
5.42956924 0.245199978 -4.65820265 
-17.6246777 -0.388509482 -8.76022625 
7.59621429 0.0269877817 -17.1675072 
-15.9322023 -0.133677363 17.6160278 
-12.6775007 0.155164018 9.82286644 
-24.3581257 -0.152154759 -8.94160938 
-0.920644522 -0.051132679 -7.90087557 
1.81101966 0.142619506 14.2673836 
22.8971577 -0.0146220829 -4.06001616 
-20.8924732 -0.0373854563 -5.70391607 
-0.26792267 -0.583619177 7.25916195 
-23.1506729 -0.0732507408 6.37032509 
-11.7571316 -0.474995166 -13.5143099 
-20.9180317 0.047434859 8.74365997 
17.9369583 -0.136644661 10.988369 
23.5979271 -0.257491231 10.9165993 
4.85099077 0.0895286649 -2.71567202 
6.88049746 0.304094166 14.8435469 
16.641861 0.171838954 1.89965594 
-24.7006035 -0.209000036 4.13551092 
19.6208935 0.282928288 -6.61147833 
7.25299263 0.215025023 -5.42711353 
5.60289669 -0.0307644401 -14.5304003 
-7.74463081 -0.372419626 -6.0263896 
15.395689 -0.0218318235 -7.11582327 
0.930649221 0.231583953 17.6323395 
16.5750389 -0.386550277 -15.1172762 
9.81366444 0.545050204 7.64696455 
24.3488636 0.342691392 -13.8068991 
6.74405241 0.527405739 10.2669096 
13.0049257 -0.320326567 -4.19382477 
12.0306473 -0.146692887 -13.2567902 
-9.6330719 0.00869580451 -6.3943429 
6.13643694 0.134296 -1.93109822 
-2.39557028 -0.308271587 18.3868198 
22.8020859 -0.243694216 -1.77793634 
10.433919 -0.394392133 -13.4517965 
25.1406822 -0.242386982 5.69847536 
-18.1643429 -0.0651760921 22.4360123 
-6.24170828 -0.261392236 11.8628521 
6.86866188 0.389441073 16.6617985 
17.7990742 0.529800534 -9.70291138 
16.0363445 -0.0576596186 10.1139431 
4.54646254 0.186794981 -3.87992644 
17.7610149 -0.0200012028 -12.3667078 
9.79538155 0.093282491 -0.981132507 
-20.1513023 0.341342121 7.59197474 
-9.00095844 -0.309184372 2.01013923 
-19.8640079 -0.0937606469 -6.61639214 
-12.8300743 0.256727099 12.4016113 
-7.04443979 -0.206503585 4.21453905 
-11.4539061 0.183926955 14.2920666 
18.3427773 0.0854332969 -5.51064777 
9.82862282 0.0435194969 -22.1364288 
-17.0261574 -0.328934729 -16.9935093 
-0.203872681 -0.209438071 4.15852261 
11.6547985 0.123559214 4.96506739 
6.71687126 0.520132363 8.45913601 
3.24886703 -0.00150366663 -13.3108797 
-21.3615074 0.358244985 1.3604728 
3.82842135 0.103825301 -3.37307286 
-11.6316109 0.12781778 13.5982399 
6.26632118 0.115854584 -18.9019966 
23.4472218 0.051835496 -10.0983763 
-4.00499487 -0.0522280596 1.27435744 
1.72437406 -0.435997248 7.96758223 
2.30072474 0.21032986 11.9337673 
13.7692823 0.455900818 5.34755993 
-18.1771679 0.501164913 4.80027103 
-5.16704416 0.198055327 -9.63424969 
-9.23504639 -0.314932078 -2.45236349 
6.29832983 -0.0977446958 3.18151474 
-21.8419933 0.172153488 -3.78108716 
12.8838797 -0.508579314 -7.57352877 
-23.3870087 0.0815361515 -0.507038236 
18.6303864 0.15206033 3.58165598 
-25.2441578 -0.239787325 16.0373802 
4.14037657 -0.279029638 -15.1743612 
10.3012762 0.286783338 6.16600657 
-17.9449959 0.51210016 2.71583271 
-22.2447891 0.25943774 25.0159931 
16.1555138 -0.0166673604 -2.72358942 
3.00436115 0.223615542 -11.416997 
-16.9921684 0.194762811 9.60885334 
18.513279 -0.0415836163 -1.98293591 
10.1148672 -0.00127204834 -0.973334074 
-4.62252092 0.495042503 -12.9434309 
-18.8824081 0.315680742 7.02240467 
14.96731 -0.361423373 -9.10633755 
-11.2726383 -0.480752498 -16.3515167 
-16.8646774 -0.243532315 -15.4872007 
-1.34943199 -0.190149277 3.59280634 
23.5354023 0.334828913 -11.1869297 
-10.330739 0.0275439844 6.40208101 
24.4422665 0.0406057723 -12.0964718 
10.8567343 -0.691584229 -9.17497826 
-1.96794343 -0.0946074575 8.3047266 
-17.3126316 0.412797064 -4.12315416 
-3.386765 -0.157360837 -5.83859825 
-2.12892342 -0.347876996 6.07142687 
-15.5759459 -0.2842125 -10.9570818 
-19.0836887 -0.212070331 10.8857803 
6.7023654 0.255128682 4.6445632 
-3.62767243 -0.267806798 -6.28144264 
23.3104668 0.150108233 21.209734 
16.4300156 -0.0552961081 -4.90685415 
-11.4899998 -0.113891535 -2.34795952 
18.0636787 0.210607275 -6.78921652 
18.9893074 0.105663881 10.4359112 
-2.1076467 -0.104240566 -7.75752068 
15.3523836 -0.164718449 -9.45824718 
-16.4528999 0.400724798 13.1973991 
-21.2732887 0.325665683 1.45271695 
-18.3495064 -0.0296661276 15.6012783 
-23.6430492 0.452759624 23.162159 
6.1902585 -0.109280117 0.357695699 
-12.2667704 -0.272717655 -0.138460919 
11.8393297 -0.135942936 13.2964897 
6.9239316 0.176156476 -14.165926 
-24.2928658 0.366550952 -4.91815758 
21.6863174 0.119596221 18.2929668 
-15.3639851 0.238769472 9.85357094 
7.95510149 0.561009109 7.09625053 
14.0926409 0.470481962 1.70599723 
-6.27095175 -0.527211308 -3.88153529 
5.71951962 -0.228518963 1.47606373 
19.9597816 -0.0658155233 9.01544952 
-13.0701046 0.0241475031 2.28765082 
1.54846728 -0.203330547 1.33180356 
9.33331108 0.0198316351 13.9057732 
4.35110998 0.0842282474 10.1060448 
5.04765415 0.380674422 -7.02487516 
10.5977478 -0.708954751 -9.48837471 
-0.378595948 -0.615862846 6.67616796 
17.6505661 0.0895335004 2.07129431 
3.5228436 -0.211205631 2.05816555 
-22.7324753 0.453837603 -17.7474957 
24.2211399 -0.452012926 7.66884947 
-16.1143837 0.0897460133 0.221506342 
7.57086039 0.458757341 10.8051634 
9.41477108 -0.448194742 -10.7836027 
18.0671463 -0.228748098 -18.6914272 
-0.595765889 -0.112169534 3.36241436 
23.3176498 -0.412613004 9.72498035 
9.33819866 0.12512666 2.24945474 
22.1321659 0.0316328332 -5.05361986 
9.97875977 0.0366284885 12.3802252 
-9.2310915 -0.309753537 1.48233855 
-21.9254436 -0.234354943 10.1564264 
-22.955183 0.23174648 -3.16559315 
-12.515255 -0.183946386 -0.927627385 
1.29886055 -0.0445232391 -6.4314065 
17.4313507 -0.0487312637 6.81102848 
24.2093697 0.289274156 -18.3072414 
17.4174347 -0.208593383 10.9530535 
8.05466175 0.296697646 4.02328777 
-13.5029278 0.295946926 18.448019 
19.5053444 0.264420331 -7.77107382 
18.3877754 0.329684675 -11.2103519 
11.9243383 -0.67370832 -7.23626089 
-3.3293426 -0.411804616 17.720068 
-2.12270141 0.354783684 -12.9915695 
2.87113595 0.216034487 24.1851044 
3.7215178 -0.132785037 -1.15314722 
-9.53213501 -0.255660802 10.6752453 
3.09040833 -0.138388932 -3.71571565 
-2.56243253 -0.193448991 -6.90642166 
-10.530961 -0.203775302 0.657198012 
-19.3112049 0.309837312 7.1580615 
24.8662052 -0.127899542 12.4338694 
2.65370393 0.00654079206 -5.41821384 
1.22454643 -0.0466579944 -4.72443438 
21.6251774 -0.39142561 5.64676094 
-18.3622017 0.176206052 9.73640537 
-22.9076653 -0.307350636 13.4554472 
-14.9512243 0.0355929583 17.4712124 
-24.149292 -0.469926536 14.680645 
1.6581583 -0.330928832 4.26635933 
0.277352601 -0.0590238497 -5.34834909 
14.6264791 -0.313357174 12.5805874 
-24.3097305 0.427404791 23.0332451 
2.49259043 -0.548942029 5.65618229 
-9.33640957 -0.392557293 -12.7048674 
-4.97216702 -0.636767805 15.8181734 
-13.6052723 -0.248243555 0.179775536 
4.38787508 -0.27238822 2.24499965 
24.7972183 -0.169838682 0.151648968 
-0.0281056128 -0.200648353 10.387434 
4.43479872 0.139130041 8.19682693 
-10.0334578 -0.139700145 2.83103776 
6.86077023 0.291502744 -1.50510824 
12.92272 0.217835173 6.91765738 
1.08051467 -0.0336459838 -0.422393382 
-13.0653172 0.134214923 -5.22817039 
-16.1398163 0.149163097 -5.945014 
23.5529556 -0.45929864 3.3825748 
4.6514492 -0.0992036909 -19.9998665 
2.10372472 -0.435680121 7.32156038 
-0.695261061 -0.308709651 -5.46954346 
5.55712938 0.318973899 8.13335705 
-21.2344761 0.298207611 -15.0898094 
-0.0196401775 0.0173633639 -0.937716186 
9.16284943 -0.177987024 -5.4732995 
21.5727081 -0.407793462 1.39702559 
2.32071447 -0.0446180962 -13.9557934 
10.3359032 -0.0628016591 -23.8812771 
20.6551533 -0.132225335 8.24023724 
-2.01580811 -0.0947343335 -7.2602849 
5.3229146 0.207292765 -2.83027196 
6.02829647 0.0747741014 -15.5248375 
-10.0647459 0.192187354 17.3932552 
-10.4151888 0.0808770657 4.97271585 
6.06772184 0.161864594 -18.0507526 
16.8906498 -0.066449903 -1.81011522 
5.90797901 0.452183217 -7.29399538 
19.4029598 0.0798161924 -4.57784748 
-9.26748848 -0.356535524 -12.2303677 
24.3059883 -0.35933882 3.86451864 
-19.3014908 -0.172266603 -13.2074633 
21.9138718 -0.0718625784 -3.45045543 
-13.7647514 -0.188237265 2.45835853 
-10.7226171 -0.161008641 1.03104198 
-23.8579693 0.280823022 19.7282639 
0.140085131 -0.0511645637 -4.70070744 
0.724214554 0.0774208531 -22.6025982 
25.0488415 0.0399710946 -22.5830212 
-22.6957207 -0.116257384 2.21844506 
20.3186722 0.0301461518 1.96474326 
5.97777653 0.491104722 7.06616449 
-12.7622538 0.155576557 11.0956249 
8.34283352 0.273122817 -1.31566036 
13.9212704 -0.17254141 -17.027216 
-1.73377597 -0.0938275456 3.22741604 
-12.3509436 0.398535371 -6.80822515 
-1.858392 -0.215535685 4.00373268 
-3.92915034 -0.465659887 19.2699375 
-0.371001244 -0.400658906 4.69964457 
16.9460297 0.256341994 -10.0207081 
8.85164356 0.302954406 11.8251667 
19.1524143 0.427872747 -12.6533728 
-22.179863 -0.279592633 -9.37203884 
-5.56871748 -0.238922179 4.57074165 
7.10658312 0.0585510917 -17.827507 
19.9968834 0.18384704 -8.24033165 
-19.4020615 0.327888131 3.76707101 
13.2627726 -0.524927557 -10.4367476 
0.471444339 -0.229949251 3.98592877 
-21.1821003 -0.07495974 5.67505598 
-15.7935429 0.115594201 5.45977736 
-22.3656902 -0.153355524 5.06743765 
-16.8085384 0.224024415 -5.60239601 
4.12202644 -0.163017094 6.03141356 
6.45307159 0.332900763 14.5163317 
21.559473 -0.349033296 0.929574192 
22.8616238 0.0545796379 -4.39740658 
9.50792122 -0.200881943 -14.967288 
2.2806282 -0.446988046 -0.403496742 
13.4947443 -0.16054526 12.2017593 
-5.23072433 -0.576922059 15.0477018 
8.46338558 0.303720027 -0.332819641 
10.1285934 -0.0324450023 -22.321909 
-19.8144855 0.290346116 -3.65720654 
8.58992577 -0.0666544363 -17.3294811 
-8.08128738 -0.397598088 -7.13292074 
-19.4357471 0.778013647 -0.543888032 
-4.37329769 -0.179349035 5.27241945 
4.60474825 0.203431979 -4.78614664 
-7.2595973 -0.535644531 12.7226954 
-3.21681452 0.322806716 -14.5183649 
-5.61274004 -0.0419132672 -8.31444263 
-16.7531166 0.355078518 -3.14368582 
-11.5342093 0.0397971608 -4.05123854 
-10.8360624 0.0301359762 2.38029099 
11.6847754 -0.380617321 -5.55180311 
24.580328 -0.331212282 3.81434321 
-9.80751705 -0.103619918 16.1569691 
18.6903763 0.212662861 -4.57702875 
11.2553911 -0.0570282526 -16.0979729 
-23.9907398 0.286333948 -5.26097536 
15.0305643 -0.0929142013 -3.49133539 
-10.4257765 -0.0724767298 -8.1948595 
7.00517273 0.588825047 11.0417099 
11.7730932 -0.333681077 -4.65884495 
-4.12880564 -0.163985565 2.21333003 
11.8960791 -0.0413344689 -0.357972383 
-19.2725201 0.697283506 0.90437305 
-19.4413452 0.754730701 0.37475884 
3.57095361 -0.266433656 0.854445636 
0.684786797 -0.23128745 4.26800013 
17.3582726 0.0327031724 -3.65247464 
-23.2668037 -0.155772537 2.02889776 
-13.159297 -0.2688829 0.576757669 
-6.0451808 0.224393189 -24.3142796 
10.2010832 -0.0128633371 2.08650541 
9.85591888 0.0839162767 3.8734901 
16.6200485 -0.38384828 14.0651808 
-8.24347782 -0.54962939 11.735074 
7.48618507 0.0682892203 -20.1667233 
13.2373028 -0.24816674 -3.30445671 
20.3986301 0.376665682 -9.15491676 
-4.56103373 -0.214008942 4.34148502 
-7.96188068 0.153290823 -17.5698662 
4.90297127 0.269932359 -4.57228184 
-1.59332526 0.252336353 -18.0602093 
16.7407532 -0.0568017624 -4.64117002 
9.93252277 -0.156174779 -5.52590609 
21.1174183 -0.346874386 1.6865108 
-10.1342907 -0.0850864649 4.39179897 
-15.1697884 0.0575576499 10.672966 
24.2564507 0.212989286 -6.06971264 
15.1420221 0.262227476 0.972367823 
20.6889668 -0.490678281 -22.479681 
10.0223646 0.000953907205 1.90840316 
-11.6743374 -0.44399032 -13.2464666 
21.253685 0.315216601 -8.23705578 
-5.97608042 -0.135518581 -8.73468113 
23.6088219 0.333414644 -13.6901093 
10.5389519 -0.116625428 -4.04461288 
-17.3496628 0.518042386 2.16985345 
-16.9733162 0.128479972 10.2634277 
19.7591076 0.244308859 -6.04169178 
7.45016909 0.167333409 3.09651852 
-0.730673909 0.144243494 13.9398298 
17.8877831 0.0911911502 -5.65410185 
-19.1688881 0.657686234 0.980146527 
-9.53823662 -0.275235474 -0.00180499256 
6.73737335 0.200217471 -17.1978359 
9.68529892 0.116500609 4.20599842 
-12.6125364 0.200153783 5.80641603 
-14.3025293 -0.229711503 19.3856544 
13.499464 0.117020123 0.0489733219 
6.03131485 0.640192866 21.4105892 
-0.28463164 0.0673141927 -8.41742134 
23.5912514 -0.070064202 -2.56055474 
21.319931 -0.488925636 4.36924458 
-21.0113392 -0.0253242534 10.5777473 
-21.481823 0.356892377 1.22057307 
-9.62969398 -0.136918232 5.13412237 
-14.1993771 0.378960699 13.9935656 
5.17996693 0.249854088 13.949008 
-1.87461734 -0.245499924 -2.83671165 
24.7889671 -0.072939977 -11.7393379 
11.7671223 -0.171022356 12.9755516 
20.3031063 0.201456234 -7.38609934 
-14.5942726 -0.845114589 -16.9235039 
6.94867659 0.268935651 -8.40272331 
-2.87466431 -0.38630861 -3.67005897 
-8.05683231 -0.462086707 -5.43598175 
11.06073 -0.750065148 -8.22413445 
13.179512 -0.253649116 -4.63265085 
1.50101399 -0.469913393 5.50245237 
5.92249203 0.548235476 6.85159922 
-22.9913769 -0.402845144 14.5153418 
20.0498352 -0.0461351126 -3.58049059 
-21.0333309 0.555984676 -2.00162792 
5.08487892 0.255483806 8.63543224 
-10.5066566 0.171552315 5.18196964 
3.67749023 0.270103663 -6.94906569 
2.51520276 -0.56329155 6.24387407 
18.4857731 0.26066187 -12.1821518 
13.9072504 -0.43848902 -9.57613373 
21.9362755 -0.0838238224 -18.9327202 
-6.35851908 0.238077193 -15.3131266 
6.75572252 0.331058204 -7.85195017 
-4.68969107 0.0844283104 7.00188875 
8.25079441 0.0853694379 -12.8931799 
-14.2423124 -0.202663392 -2.79593205 
18.157156 0.353055388 -9.62849808 
4.92549992 -0.263042212 -16.7320557 
18.0565872 0.277045697 -11.357193 
-20.8503532 0.542906642 0.244886726 
10.3638716 0.253131986 10.243907 
-24.6933308 -0.22221522 4.47588062 
10.8942242 -0.648702085 -8.50135422 
11.5137796 -0.401689559 -5.43228388 
-24.7674255 -0.0241020676 -7.73529291 
12.7174578 -0.268487394 -21.0686665 
13.8566761 -0.175199062 -2.96119118 
25.0267735 -0.30621922 9.79280567 
-24.817482 0.414602757 -16.7864532 
-11.1360521 -0.451979667 -12.2375116 
-21.0016766 0.0505878218 4.76076984 
-7.68269539 0.405540854 -21.4598961 
-11.4478617 0.507527411 18.5568161 
1.62784159 -0.243690297 -0.899640381 
8.25799084 0.106874011 -6.80593443 
-21.1875191 -0.0562334806 5.2284646 
-2.48449612 -0.00573687069 10.9135056 
-19.4872761 -0.23327063 -9.36465168 
-9.83332062 -0.00562515995 -5.15679932 
-18.9126263 0.652867496 -0.0539663881 
5.72708368 0.0909573138 4.82919121 
24.0140362 0.284045249 -13.6505995 
-18.145834 0.116002135 -17.1110783 
-9.87564754 -0.364124447 -11.8102674 
23.1368942 0.161586136 -4.97125196 
-21.6188736 0.102451868 -4.06429625 
19.6168118 0.221523941 1.05065596 
16.552887 0.0579941645 1.03723228 
-17.1792583 0.0677088872 13.388011 
-2.78370047 -0.131810993 24.4427738 
-20.5243359 0.3889395 1.93102646 
