ply
format ascii 1.0
comment created by gply, a Houdini tool.
comment converted from .[b]geo
comment for more information about Houdini, try:
comment www.sidefx.com
element vertex 1270
property float x
property float y
property float z
element face 0
property list uchar int vertex_indices
end_header
9.79170132 0.129638642 7.04387903 
-23.0958118 -0.221910685 17.3619766 
6.52471209 0.263843209 13.3341503 
25.2808571 0.00868834741 2.7119205 
-24.5227623 -0.269366443 -7.67093134 
-2.46495914 -0.0887654126 10.490922 
-11.0029545 0.160984397 17.5867786 
24.5243244 0.243394509 -3.27113247 
-12.8424578 0.0416307747 22.4412632 
24.124321 0.149942368 -15.5597277 
-9.77791595 0.049586758 -9.76931763 
-17.945549 0.353038609 6.3589735 
10.6772842 0.178219587 6.60535622 
9.6388073 0.103282489 -19.1087914 
-17.2289429 -0.319215298 24.9269447 
6.46953821 0.0659346208 -4.80846357 
1.24768639 0.158317506 -7.35798168 
2.8308115 -0.117649466 -11.6700058 
23.2951202 0.129433155 -4.33894873 
-20.4302883 0.625329852 2.30046797 
0.956041098 -0.387907654 -17.8447037 
3.20946074 -0.227563187 -12.7189751 
-19.8676147 -0.175882459 14.6055717 
15.9060793 0.0411915034 -11.5268011 
24.3733063 0.00204990641 12.2232313 
-5.60932922 0.104587108 9.26604652 
11.4110537 -0.0770312771 13.4231958 
23.3951359 0.15753825 -6.08170843 
-11.4228783 0.162904352 16.9152985 
6.64853954 0.397222698 9.40433025 
7.08141375 0.0156272203 1.75919235 
7.33536959 0.289529085 4.51977205 
-12.9936886 0.0358845964 -9.53028965 
-20.2441368 0.0588338599 -6.00829935 
23.0566044 -0.133809626 13.2330713 
-12.814806 0.116508119 4.36932802 
24.0477829 -0.113968574 -13.3151884 
-3.17222762 -0.163117245 8.83455181 
-20.4760056 0.711092949 0.0121305333 
-3.01828647 0.0926166996 -0.128759578 
-14.4999924 -0.473298132 0.818542898 
-2.08898377 0.0439949296 1.98609209 
-21.3699665 0.307286978 3.20664787 
10.9686623 0.299586803 5.0376749 
0.367002815 0.0102627724 -7.44052935 
1.19982231 0.0706212446 10.2130737 
-5.11420488 -0.168074429 -4.93591595 
-3.01495838 -0.291325241 24.7929192 
23.2632847 -0.211067811 16.0989418 
11.5831366 0.0344590507 13.0531054 
2.01259375 0.267788231 -7.8210392 
21.6507893 -0.143526644 -5.2656002 
1.95105636 0.183373258 -7.17912292 
12.6641121 -0.310088903 -7.67512798 
6.43926191 0.168681249 -13.6444769 
-2.06662107 -0.154648364 3.15860724 
1.37705708 -0.0900209844 -5.0131278 
4.789855 0.0561164953 -12.1777859 
-17.5213699 0.159111083 3.98029423 
-23.9497929 0.671776831 -18.8134098 
8.49096203 0.0151365828 1.88757026 
23.6194592 0.130692035 -5.17118406 
-17.3124733 -0.0226362664 -8.09487152 
-21.9666481 0.248100489 9.81631088 
9.85522079 0.327550977 4.98728561 
-24.2377396 0.170261562 -0.696216106 
-18.3425102 -0.101217702 -6.77186728 
-2.12340736 -0.416595429 6.41170168 
3.04007006 -0.179876491 -12.3609333 
4.64961481 0.179720148 -9.8598814 
16.5794697 0.00113982009 -2.95797706 
22.0429134 -0.0783975199 -9.11562729 
15.4528322 -0.451166213 -14.7330942 
-15.2417479 0.0307907164 8.74751472 
18.4423046 0.465473711 -7.63286686 
8.47387028 -0.0756519958 -14.3207684 
-21.5352859 0.130160958 -15.7585297 
23.3792496 -0.363283783 -9.77776051 
-24.5113602 0.00835523754 18.3034363 
20.0779915 -0.167669967 12.2912903 
-14.2125931 0.280065984 12.5929747 
-6.71233511 -0.665796101 15.01653 
15.6195002 0.507898629 -7.53270531 
-8.14183712 -0.33327508 -6.01683474 
-1.21607816 -0.352951676 22.20751 
19.063221 -0.203795046 9.77046871 
-7.96672249 -0.565084398 12.2703276 
-18.7373829 0.311308503 -4.49974585 
22.7263241 -0.291544586 -9.17797947 
-5.69914961 -0.231693998 0.579291165 
4.19062805 0.0743336529 -8.87848091 
-10.5051594 -0.0437404066 -11.3154068 
-8.56935978 0.124852702 -12.2445488 
-5.40651131 -0.728841901 17.7728291 
6.25915051 0.508201003 8.23348808 
-11.9060459 -0.0358795933 -18.0669327 
8.18588638 0.225014016 14.0367155 
4.97512007 0.262330502 -8.86314487 
6.43737984 0.131833881 4.28654337 
10.2412958 -0.095284991 -4.57793903 
10.743391 0.334843963 -0.404784083 
18.0344505 -0.262171805 10.4634562 
-0.630877614 0.0725946575 -8.9715271 
-17.5832157 0.113887846 15.1687479 
-7.58993721 -0.499474704 -2.10785484 
10.4254942 0.14912346 -16.6309929 
-5.62430668 -0.682661712 16.2378845 
22.2058239 0.122452959 -17.0872078 
17.9064674 0.0151277473 14.7730064 
24.1066914 0.489820302 24.4845848 
-23.5873699 -0.0174212586 4.75682211 
-4.38631248 -0.356759787 15.432622 
19.8373756 0.245389625 -9.57630348 
23.8296757 0.221055046 -16.0333805 
-1.44082689 -0.563379824 8.03792191 
23.3531456 -0.291462034 2.32480669 
-1.70894527 0.00937200151 -2.92049289 
-22.4655933 0.465322942 0.558045506 
6.20987034 0.225438014 4.51804733 
10.8435249 -0.0228640176 12.1486311 
1.62954509 0.206387743 -7.01972485 
3.72211576 0.0505650863 -6.52813768 
-1.99641085 0.0209266767 -18.3242168 
3.34600949 -0.0956464186 -11.5668983 
-13.8653555 -0.0540342331 6.25596237 
-19.4088364 -0.199709043 12.6491041 
-19.2652588 -0.548724771 -10.5823927 
8.30016994 0.217668965 -20.6735172 
7.2942853 0.595388234 7.39497232 
19.5237274 -0.140473008 -0.548933446 
16.7162151 -0.164231613 6.84786797 
12.346139 -0.116418466 13.7366314 
11.7457581 -0.50200808 -8.30501938 
-19.3057327 -0.420474261 -8.85270596 
-18.4806061 0.343173802 0.36665377 
-3.59481096 -0.101825431 14.5234737 
22.791193 -0.0551085696 -2.89426446 
-22.0410347 0.35216859 1.05556107 
14.2226067 0.0221806709 7.10447264 
-3.23221493 0.210356489 -15.9391384 
-10.4507627 -0.239754066 0.0906448141 
-15.7476358 -0.072717607 -11.2338982 
-23.4815083 0.160475791 6.37830734 
20.4588184 0.0705068558 -7.8368063 
-24.1342583 0.261128694 -3.48133469 
6.54145336 0.523754776 16.3287621 
22.9520302 -0.2329593 0.67157495 
-20.1820774 0.43587935 5.23125887 
-9.78547192 -0.446628243 -4.71470785 
14.5000381 -0.0393448137 8.36984539 
19.4117775 0.278531909 -7.08037519 
-0.983555317 -0.10311617 -4.84449673 
-18.8847771 0.53742218 2.78406048 
-3.0676651 0.165836975 -16.3516598 
-4.48961306 -0.0483031571 4.93425369 
21.8747044 -0.221978128 10.9520493 
-23.8850002 0.163320258 -2.23263121 
-23.8605728 0.208295852 -1.37468362 
20.8015118 -0.227167279 10.7653351 
-3.95260119 -0.230217233 -7.92042732 
-22.9973335 -0.175004244 13.8344221 
-5.12885857 0.115397096 6.16607904 
22.6690884 -0.189447805 11.4272718 
20.312006 -0.170223698 10.9248466 
-17.5645294 0.263830036 11.2022715 
-2.67564106 -0.120110013 10.3434982 
-23.0890617 0.279254615 -16.6841469 
-4.85967398 -0.0601418391 1.64549065 
16.0780964 0.144612253 -11.0638256 
10.8197002 -0.256611615 -12.7192812 
2.49200058 0.209638208 -7.83615923 
-4.27531147 -0.152773663 -6.25301123 
17.2842178 -0.223338291 -19.3441238 
4.78740025 -0.331007391 3.5232935 
15.4827156 0.475444108 -7.30625296 
12.2676449 -0.125376299 12.8202353 
12.0124388 0.414535463 1.19594955 
16.1896782 0.0547135621 -11.5800962 
11.5140018 0.0137901455 8.04869366 
-2.62723279 -0.244464204 4.00622892 
-22.5402546 0.343460917 2.12020397 
0.916520536 0.0911113694 13.2590179 
16.0714855 0.294460863 -10.3855076 
4.55646801 0.548452318 23.5276203 
-6.67916632 0.449187964 -10.7522564 
9.88190746 0.290180832 4.40369749 
17.932476 0.411899388 -6.35490227 
-1.6796205 -0.242090911 9.06893921 
15.1823587 0.163777992 6.01439095 
-8.85475254 -0.530875444 -2.26019216 
-16.0681038 -0.0184600819 5.85062408 
-7.08697557 -0.354642868 10.874259 
3.57982087 -0.103655748 -2.63033819 
-17.6617203 0.299700946 -5.406672 
-24.2824917 0.406680405 -16.9157219 
10.0843105 -0.0686316863 -3.09775329 
11.3306961 0.373521775 0.376182288 
6.10609531 0.251194865 12.7415133 
11.3024511 -0.00465927646 12.4359035 
-13.4739084 0.105580702 -9.48839569 
2.83663225 0.184547082 -6.89280462 
20.1550827 0.130366132 -4.27921343 
-3.18799257 -0.307613313 6.79559374 
-11.6321106 -0.121993057 -10.4859619 
-0.627823055 0.177898034 -12.4533548 
19.1799374 0.210375443 14.5565557 
5.14123774 0.176376909 -8.26278687 
4.16858053 -0.146616638 5.54700136 
-18.7408905 0.0146332243 15.3823366 
-10.6587362 -0.347342044 11.8435497 
12.5960035 -0.0659865364 7.82471943 
13.3652306 -0.348509967 -8.14341831 
22.1358242 -0.265185475 10.8749962 
-24.7096901 -0.160050318 17.3304005 
-7.46668482 -0.296574801 20.5198421 
2.8278029 0.120640449 -7.33941507 
-7.74921131 0.139587775 -13.2701292 
21.7723522 -0.312610656 10.6342068 
-17.4158554 0.440418512 13.4484329 
-0.698032081 -0.0210057814 -8.0385294 
-5.60463476 0.41517213 -10.6206484 
-24.1337585 0.021313969 2.43232608 
3.5341711 -0.155416131 -12.6109028 
-5.77165127 0.672972977 -13.9369459 
-23.3490753 0.0978288949 12.0046062 
3.61461663 0.101640046 13.5031147 
-3.53541541 -0.0883252919 -2.82376027 
-1.63724458 0.145054951 -12.3337708 
11.5658474 0.0662613362 -15.5112619 
-5.93708897 0.26522398 -9.15475082 
-17.7685547 0.14840813 -3.17718101 
25.1041985 -0.0298004802 7.67884922 
13.5669718 -0.0362122208 19.5830364 
-2.35234809 -0.0936891735 -5.53779221 
19.9560299 -0.151766822 9.17108822 
-22.3225803 0.541487038 -1.51911032 
7.31673336 0.148711905 21.092289 
-0.664344132 0.0177569333 -15.0814075 
22.0053902 0.276265293 17.6929741 
11.608613 0.403860569 1.14844847 
5.12029362 -0.0553258881 4.78831911 
19.0300064 -0.0332011841 0.904307723 
-24.2449017 0.126848578 0.576306283 
16.9210339 0.449030876 -6.71172285 
-15.1026735 0.0835818648 -8.05022049 
-20.5590458 -0.250354648 19.8773823 
-18.7268009 0.707067728 3.59907031 
6.70976877 0.276263475 -6.83370399 
10.0570259 0.00742724724 0.257995486 
-21.5231667 0.228214294 10.6593914 
-6.91969061 -0.218422979 -6.85482311 
-22.6743927 0.195934713 2.66612077 
8.98874474 0.224734232 -18.3136425 
23.7699509 0.0385902859 -3.51054502 
-11.8711634 0.137543067 5.97352219 
11.4737005 0.0945513397 -1.59118271 
-7.60135603 -0.642521501 -5.03430605 
-4.88338947 -0.144899502 11.691926 
10.6712713 -0.0573717244 12.2241039 
-15.6218195 -0.111608483 6.52210617 
-6.7367568 -0.599092603 14.2336655 
-2.99231911 0.225042701 -12.7438211 
0.711852014 -0.20084323 -1.99587262 
14.0664921 0.461311698 3.9575386 
21.515089 -0.0700749904 -2.81004858 
-7.3088727 -0.617061317 14.0329714 
14.0356159 -0.0859177634 -11.4241581 
-17.9342995 0.176363155 1.5015502 
-24.425951 -0.0430862792 4.90452957 
8.00632095 -0.106928416 -12.3477097 
-10.1029997 -0.311792314 2.95197487 
-24.3755493 -0.0294137187 1.63794029 
-21.9637909 0.362707376 7.51693726 
-0.520204902 -0.325479448 9.41069412 
-8.26112652 -0.717458844 -3.34826851 
0.851139903 -0.442781895 5.24701309 
-7.09242535 0.333944768 -11.4600391 
0.915128171 0.54617548 18.4441967 
-7.64144325 -0.287125081 -7.37550735 
16.2515602 0.193727881 -5.64133549 
-1.22434378 -0.0920639709 -7.62211561 
8.93874836 -0.0715059415 -3.59590793 
13.926343 -0.0534657687 -11.1598339 
-14.4139595 0.212004751 14.2592354 
-3.04637742 -0.130097941 15.6287203 
10.3651657 0.321983904 4.47468328 
-4.60918331 -0.193365008 14.2290688 
-21.7242699 -0.138145447 -7.80569792 
12.6853123 -0.232270375 -5.51365709 
-13.9625645 -0.182361871 -4.22911692 
-5.2351985 -0.219544157 12.0871344 
7.67850256 0.22764875 1.40152228 
16.7758007 -0.231677234 -17.2746029 
18.4950771 -0.370508909 -16.9117928 
-13.2523994 0.171364188 11.1137648 
7.13369513 0.167453349 -17.9895592 
-12.3570786 -0.407124043 -0.0921161026 
8.18281841 -0.254084498 -7.0774622 
-18.9152927 0.031369254 -17.488512 
-15.7043114 -0.0219535958 -10.2275419 
11.9258165 0.600066543 3.5715425 
9.79532814 -0.0529727638 -4.19475269 
3.06050754 0.0332420357 -10.6372309 
15.3717566 0.285925359 0.211847141 
-14.000843 -0.140668914 -12.4567204 
-22.0868568 -0.302164316 -11.6837616 
7.92544174 -0.144276097 -6.36794853 
22.822052 0.0370965824 -18.8329182 
8.90085411 0.0343063138 17.9479675 
16.6920147 -0.149021178 6.63135958 
19.8459091 0.202235758 17.1658039 
7.63527203 0.19775562 -2.65089607 
17.5034695 -0.203055292 4.41273642 
6.87127829 0.0760925189 0.304579347 
-23.7201042 0.000543253962 3.29263687 
6.75127411 0.22763744 -6.53244781 
-4.20029783 -0.23236157 -5.39345455 
-19.8594627 -0.245868757 -13.4854021 
-12.6059675 -0.20876357 -3.49150825 
22.9552021 -0.120283805 -0.619666338 
-15.1623993 0.0527899526 10.4023533 
1.06932127 -0.260836244 0.142413035 
-14.8806801 -0.0229278523 7.15687323 
14.7528782 0.0395448469 -4.05344391 
17.7768841 -0.226377621 -19.2660408 
-8.78125095 -0.406001598 0.00521823764 
-17.4514503 -0.188491926 -13.7772264 
19.4599457 -0.324509561 3.05588794 
-17.7802544 -0.0856283605 -8.00213051 
-2.4032197 0.277445406 12.357173 
24.0557156 0.0969316736 -2.96031022 
-20.3081608 0.574122608 6.15587139 
1.92330325 -0.270223469 -4.37910938 
-16.40308 -0.245562002 2.02296281 
17.7843342 -0.360352933 10.3410101 
-21.437149 0.457471579 0.953340054 
-18.066473 0.354983211 0.696562886 
-21.5383797 0.129942998 -16.9007225 
-17.654644 0.255050391 8.19239712 
-13.106431 -0.101662382 6.48515415 
-21.1881866 0.489930332 -1.91364193 
-0.678996921 0.109619446 -12.0956583 
-9.10355759 0.194914013 -10.491437 
-12.4738054 -0.539752781 -1.61962187 
-3.82494521 0.0481677726 9.14991474 
18.7222767 0.0384618193 -4.7042737 
-13.1758661 0.0887201279 4.78403091 
10.8337984 -0.296954483 -12.5779648 
21.9886742 -0.207367599 10.9352264 
16.0559864 0.291617155 -6.46930361 
17.8718319 0.253955215 -12.9348145 
22.9598103 0.0741193965 -3.44965911 
-20.0357342 0.693883479 1.90629673 
-13.4769402 0.319025964 16.6613274 
21.62216 0.0587782636 -10.7659302 
4.68505001 0.0898406878 9.25982666 
15.6398163 -0.0337479897 6.98330832 
0.604341209 0.219273254 12.2083092 
-15.8163414 0.171001986 8.22997856 
-16.3241673 0.267612725 -9.25997353 
21.0525227 -0.0495027006 13.3261127 
-24.5300961 -0.0324845351 2.31267691 
-17.4263 -0.00210139714 -9.71490097 
-21.5513649 0.309674293 3.14172077 
6.66478062 0.572747529 7.96393538 
-4.94096136 0.0725433752 6.48403168 
-7.12462854 -0.293935388 8.03240681 
-10.1467323 -0.342976272 -4.69706154 
-2.56941986 -0.00469941692 -7.3352809 
13.8745289 0.212513626 5.94145441 
-4.85347033 0.06153927 -9.19656944 
12.8145981 -0.0527414158 -3.66763926 
6.7844739 0.321497828 15.257699 
-8.66336823 0.206072018 -11.1356812 
17.4807453 -0.163726985 -16.4652576 
-24.6121788 0.0535733178 7.6300745 
-16.2125092 0.2484833 10.8914165 
23.6687889 0.116393723 -4.30833006 
-12.513092 -0.0911812931 -11.203043 
11.4182138 0.27387023 -16.5921593 
10.1460037 -0.757741034 -7.48020697 
21.637928 -0.0032136729 -9.94461918 
-20.5499249 -0.313975662 17.0932331 
20.3956013 -0.177775487 12.3318634 
-21.0804424 0.121463075 -17.6046581 
14.2580013 0.195414677 -3.75300503 
15.1051331 0.0576336309 -4.44766569 
-22.7403297 -0.1537323 -5.22535133 
9.63909435 -0.405868679 -12.8497791 
-1.17375147 -0.0525715947 2.60479069 
-15.8260803 0.117094472 16.7495899 
5.25687885 0.780955911 20.7808285 
-6.2469697 -0.0811120346 6.52981043 
23.4438763 -0.409822613 5.46635914 
-19.1993294 0.427256346 6.41390562 
-4.37519503 -0.122292958 3.45547795 
-16.0032749 -0.434587866 18.9380379 
19.0905056 -0.0141095296 0.738927722 
-13.7404203 -0.319597334 -3.4523325 
5.45450783 0.212985009 5.5303998 
-6.20052338 0.606926799 -11.9499092 
-9.35120583 -0.407031536 -2.01281643 
-15.3741016 0.0140537452 -5.6689024 
-2.28125715 0.10413789 -15.543581 
6.47129631 0.0961203277 4.07339001 
14.4974737 0.19090353 -1.84334457 
8.65185356 0.181829751 13.3096085 
-2.83573103 -0.375612706 4.54548645 
-18.577486 0.0177405756 14.9219036 
-17.1919994 0.146945313 4.7872982 
17.3549747 -0.51883322 8.54776001 
0.643716276 -0.335831106 9.34279633 
-20.6705017 -0.0296921488 -6.47718668 
8.11860561 -0.405173689 -10.4277611 
1.55357695 0.221517444 16.1849594 
19.2381496 -0.516514659 5.69547701 
-18.5386047 0.642548203 3.4644978 
-11.6223469 -0.0714031458 -9.98311806 
-3.34502411 0.204909429 -17.3354721 
14.7808657 0.201485991 -4.98435402 
-10.1328363 -0.393095851 -1.38046157 
17.6276093 -0.525678694 17.8759232 
23.3355598 -0.399763882 3.745157 
-18.5562534 0.623354673 3.97096276 
0.107450128 -0.303500652 -19.2358131 
-19.9975777 0.492399246 6.24844646 
-9.06646061 -0.570992947 12.1773405 
18.0410213 0.0164863318 -0.905169785 
-13.0657511 -0.0592823699 6.05638838 
-9.10122871 -0.166244209 6.15767193 
24.8818054 0.191915542 -5.74820757 
-24.0021362 0.0410716087 -14.815691 
0.503857136 0.0185113531 -7.65497971 
-16.8789272 0.362832397 8.07277393 
16.8782196 -0.245700404 -16.1325378 
19.4283619 -0.0719461888 -1.64953089 
1.54841566 -0.357725054 4.71972466 
-1.35210204 0.273052543 -10.4110594 
-4.3397913 -0.0634503514 2.72804523 
17.4298248 0.302465022 -3.80436921 
-2.08848381 0.208560228 13.3511219 
-21.8814545 0.344030291 2.25942922 
-2.83204174 -0.141925022 10.2207174 
11.3514595 -0.13407366 13.5654316 
19.1779881 -0.529393196 5.21647692 
20.1108036 0.340857685 -13.1136494 
0.603038132 0.0929638371 13.7367048 
-3.03045249 -0.313720554 19.3929729 
13.1833401 -0.193514481 -9.74594975 
10.919178 -0.0115018673 -2.79477739 
6.68724346 0.405143261 9.94400024 
-2.20429087 0.182546496 -11.8675547 
-13.6832457 0.0997143313 -5.22574329 
-19.3197098 -0.187996984 -14.9610214 
23.156702 0.040581435 -3.41201186 
16.3118458 -0.457116663 -24.7955475 
-11.3209391 -0.0618048683 3.54128647 
5.63416576 0.426960975 7.91550779 
-12.5393515 0.0691523254 3.78355646 
21.9798241 -0.414317667 5.40520477 
-23.9595737 0.215124696 -1.4644202 
10.5698671 0.315466493 2.04532743 
-6.56624889 0.372514606 -10.4594288 
7.44512749 0.0713306218 -5.33527756 
-10.5903978 -0.186514556 8.76561737 
-4.6354928 -0.324497014 22.8197174 
-21.9620266 0.427707702 1.50003386 
21.652462 -0.111313917 -4.25060987 
-22.4763813 0.190602243 9.17513275 
6.40904474 0.22031343 -17.8683853 
-22.8836021 0.363738775 -1.90555966 
4.44955015 0.116364866 -8.18874931 
-15.5151711 0.22920683 16.2794037 
-6.99001694 0.415515929 -13.4654179 
2.71171808 -0.344168484 -18.0764141 
8.8006773 0.162904978 12.5983448 
-9.94537544 -0.213244051 7.23128033 
-5.56320333 -0.150730729 -1.20055175 
-16.2519035 -0.0389327779 -0.919407606 
14.6375408 0.206159145 6.0799675 
-19.5765247 0.565105498 1.10730863 
18.9257221 -0.543579936 5.10517502 
-22.3968391 0.479424417 1.18165421 
15.3229179 -0.28298074 11.099205 
8.72865582 0.168977305 5.1316247 
24.0816307 -0.525897801 -11.1861191 
16.2660923 0.176591873 2.80816913 
-18.2750683 0.152993754 13.4000931 
13.4732389 -0.181349963 -17.2490044 
-5.85256433 -0.0282934755 -7.83671904 
-18.2962418 0.283481777 -3.09924197 
10.1258936 -0.0714601204 -3.4962039 
16.9139309 -0.214839339 -20.4978104 
24.8459492 0.125521988 18.9279213 
-14.3483763 -0.402900517 -15.3418493 
-12.5986166 0.0782010481 13.8888979 
-2.50857353 -0.047043629 -4.422472 
16.3070297 0.155579954 4.52671337 
-1.24964583 -0.317956984 4.86532736 
12.9243183 -0.260756373 -6.01853275 
1.595173 -0.198185533 8.19202137 
8.46106052 -0.375756145 -8.49564743 
10.7795963 0.346558779 -0.0617451966 
-13.1046524 0.137297422 10.8892155 
19.4665356 0.371983767 -12.3609352 
18.9968548 0.356638551 -10.0823193 
3.62766099 -0.525255024 4.00542164 
10.3406878 -0.118280753 -4.7604475 
19.6035957 0.373567283 -12.4305954 
10.3047218 0.166330412 -16.3634071 
19.1306725 0.189712793 15.912632 
16.2178574 -0.340816915 13.3028803 
0.508210301 -0.287978321 7.40709019 
-21.309 0.486102194 7.64706326 
-11.9044809 0.202502981 5.31330204 
-3.84557581 -0.233221918 -5.27137375 
-20.8163013 0.266960531 -4.53329659 
-2.39520431 -0.0583076105 -7.12825823 
11.1097441 -0.117085114 -3.24414039 
2.06523633 -0.32034868 -2.92081404 
-20.1126232 0.848419249 -2.05459714 
-4.10679197 0.434580505 -12.4911194 
-8.91389465 -0.308596343 8.6354599 
4.73333693 0.0318195149 -11.3561726 
15.9862318 -0.219856277 15.6692076 
10.0504217 -0.2590307 -13.4808311 
2.48786736 0.00756635098 -23.9919376 
-19.5741463 0.609682262 2.15617847 
-14.5559282 0.109545067 13.1404877 
0.527264118 0.405941904 15.9467115 
12.4609823 0.339862227 0.117943943 
-1.96500218 0.393135339 12.0116682 
-22.5507202 -0.416016132 14.9650011 
7.06657982 0.203703448 20.8762264 
-7.88672829 -0.141115174 4.53951836 
6.90416193 0.15897043 -12.06423 
4.33278561 0.0815485418 -7.72689915 
13.0442705 0.00977428071 -14.2470913 
10.2083912 -0.725131214 -8.90731621 
5.67327785 0.123104475 -8.18890381 
-18.1682224 0.177871197 9.9750948 
-0.332028925 -0.454012394 6.15726089 
14.2157679 0.481569558 3.55056715 
9.13927078 0.407018632 6.84714031 
-2.42856669 -0.0993595198 2.901402 
-20.4867115 -0.221289635 19.6028156 
-18.3225956 -0.27076593 -11.9264851 
-21.1512737 0.489296883 6.6194191 
9.09406948 -0.141728476 -4.26154232 
-17.6400032 0.162087396 -0.579693794 
-0.685833097 0.0306467395 -4.33077621 
17.6187057 -0.335612267 -20.7484398 
-11.6944265 -0.0564005189 -4.07960844 
13.7707224 0.10778109 -3.88416934 
22.3243179 0.146051705 -16.9846249 
1.95732999 0.268072367 16.8267841 
-8.65209103 -0.183550656 5.29964781 
-22.8845387 -0.0972947478 -4.41254473 
21.3434429 -0.106248766 -2.91432142 
11.8984632 0.624588847 3.12967753 
4.3952589 -0.467595488 2.87615609 
-24.5667152 0.11413464 10.1487846 
0.124475956 0.187181845 13.1803732 
19.9794884 0.240410879 -7.092556 
-9.00957394 -0.56242919 -4.35998869 
1.50421298 -0.320494741 3.53910041 
-2.40738869 -0.136604026 9.84097672 
-22.2530899 0.483607382 -0.719098508 
-7.37695551 -0.438765943 12.3502951 
22.0895348 -0.351881355 -25.0638027 
14.4607592 -0.319298953 11.6742277 
-8.59793377 -0.438253641 12.8864927 
11.6915207 0.109796509 -15.0103493 
18.5162315 0.413102865 -6.93824768 
-11.3607006 0.0411981978 -18.56814 
-20.691721 0.103631638 -5.89538574 
-23.0104141 -0.13028954 -13.5876818 
16.7685966 -0.0541394092 4.47611761 
0.345653236 0.442168355 15.5325089 
5.86674023 0.070875451 -12.0776672 
-7.4210639 -0.230888397 -6.86950302 
-10.0134249 -0.126605809 18.7913074 
-5.01387739 -0.194686919 12.0564041 
-19.7060509 -0.264003187 -7.51639509 
-5.63606405 -0.279908925 11.7684221 
6.91772985 0.343784511 -22.5472088 
23.7534256 -0.422644615 -11.6770172 
-19.1866932 0.484745711 1.0490098 
-23.9605331 0.736064911 -19.4377651 
-11.1490002 -0.0293086376 2.87200046 
23.7430363 0.333195418 -24.0269146 
6.03377867 -0.0586907528 -3.33342409 
19.9088554 -0.254739314 0.876592278 
-11.9483023 0.0701699033 -6.76883793 
22.9388218 -0.249943972 -8.07562351 
2.02747464 -0.176761821 -14.1611357 
-4.85687351 -0.0865788236 -4.61692476 
13.8620186 0.510581255 2.24181533 
-9.4883194 -0.187240243 -12.8040123 
1.22087502 0.0365814567 -12.0202761 
-20.2337723 -0.266741723 17.7131023 
9.37589931 -0.094566673 16.3217773 
-15.3534164 0.102252483 8.96262264 
-22.3190384 0.263017237 5.8753438 
3.01153541 0.0406144075 -9.03824139 
20.7965603 -0.382781029 7.49745083 
19.3385143 -0.109323725 -0.0339102447 
-13.5587969 0.307352811 15.0835123 
12.1505346 0.00770885311 18.4442425 
-21.4275208 -0.170370504 -8.56848049 
12.5465908 -0.157829031 11.1413746 
20.8167591 -0.509786725 2.47391295 
-21.0974674 0.638789594 -0.67538631 
15.3088284 0.280941337 -1.59962928 
-0.264945269 -0.0389724411 -4.88339806 
-8.86225414 0.2319002 23.3964329 
-8.0948143 -0.542842448 12.0643759 
16.2130661 0.00323174475 5.54678535 
-17.2624454 0.0413714759 -9.78713894 
-11.2224169 -0.185440481 13.3839006 
-21.3664322 -0.35032782 14.6702023 
-4.33559847 -0.118198164 4.27577066 
3.21034622 -0.322152436 -16.7644463 
-22.0815659 -0.183440983 13.5969877 
-3.54448581 -0.176795259 -5.65355778 
19.8099651 -0.454515845 -22.2664814 
8.13037682 0.572421789 7.35028791 
-13.8539066 0.184116885 -7.51475573 
11.530653 0.0916918144 -14.9520502 
-3.63143015 0.200341791 -12.0358934 
-6.67079258 -0.207777217 1.63732255 
-20.1824188 -0.251970291 12.1133518 
11.6530962 -0.478333771 -8.08892059 
5.19473839 0.438421577 18.7814579 
5.34261274 0.028499363 -22.6125603 
-21.5469036 0.202434123 -17.780592 
-9.24689007 -0.557347417 13.035491 
7.11627769 0.244548067 16.8051453 
15.8597975 -0.0487424098 7.02845907 
-19.6006584 -0.183035791 -12.3459721 
18.3137493 -0.473780304 7.43108416 
2.2416997 0.0703618079 -24.5891838 
-9.09414291 -0.569160283 12.6091318 
-9.79851913 0.0494094044 -18.0857563 
-15.7671204 0.114293456 10.4214973 
-17.7270908 0.0795930177 15.1811457 
7.60447073 0.189661518 0.990660906 
-0.946306705 -0.151732251 -18.022459 
3.47903562 -0.212207541 -18.0496311 
5.85767603 -0.0689269975 -2.56490612 
-24.7720337 0.146437451 -1.72832632 
11.0544901 -0.557237148 -6.51438999 
12.386795 -0.225144953 -6.44435883 
-9.45095921 0.277561814 22.3664627 
19.8863049 0.208302379 -9.07034874 
5.97062302 0.207074791 5.30249023 
-17.8080196 -0.239174217 20.2111835 
-0.486301363 -0.0303696617 -5.06336784 
-24.7654419 -0.0709607005 4.36029387 
-10.0515728 -0.235308364 0.790885985 
15.6462765 -0.31616345 11.0476913 
13.358758 -0.16730395 -5.81893349 
-22.8138676 0.386535674 0.128268257 
13.7947168 -0.12390621 -14.9540405 
-18.3943844 -0.330818921 -9.55754089 
-7.91810322 -0.36125803 -6.2142868 
-21.1973953 -0.0716572106 11.5450449 
13.6557283 0.642441511 3.07652617 
-18.1473255 0.0858569592 14.5172176 
5.43111086 0.443628848 16.8470306 
17.1694431 0.375245631 -6.48087263 
18.3923416 0.350385904 -8.95675468 
-9.85141754 0.0849229172 -11.2752705 
-17.2669048 0.0604814105 3.57572794 
8.98744965 0.384298623 7.64828491 
-2.67919517 0.233427554 -17.4850082 
12.4116211 -0.00977534894 -2.53266597 
-6.95304203 0.0488432683 -22.6320629 
-6.02495766 -0.307875454 3.52883935 
16.6461372 -0.00519767497 -1.49903738 
17.9983978 -0.172509268 3.21470356 
23.9022274 -0.407218188 7.48281479 
2.96337771 -0.163249746 -2.9254024 
10.2759857 -0.299363285 16.7782249 
11.1223221 -0.137123287 -13.1005192 
-20.5762119 0.424946398 8.58119774 
4.13918352 0.0774994791 -6.98787308 
-23.3384762 -0.471941441 -11.0387278 
19.4287472 0.402009934 -10.8640537 
21.3019409 -0.495295286 1.09981453 
-5.67224073 0.153237894 -18.557518 
19.7689877 -0.246961042 -17.5599003 
20.2724857 0.412831843 -11.3243599 
18.9509678 -0.297506124 8.34160614 
10.2892733 0.189752415 -17.0175228 
-4.26702642 0.034934774 11.928031 
2.72019506 -0.416536659 -17.201992 
-15.3031416 0.078801617 -6.72846174 
15.7270403 -0.294202805 15.288023 
22.7478771 0.0644257665 -11.9686136 
-11.7909164 -0.128877342 -2.92812085 
21.1150627 -0.158855334 -4.83935595 
-7.43473387 0.273921251 -13.675992 
-6.25822163 0.0621511973 -7.87231493 
-13.5623436 0.158727691 -8.32123184 
-11.0418301 -0.132696465 3.8248713 
5.38992453 0.172516748 -24.8094769 
-7.03527355 -0.306883544 4.83943892 
-7.01881504 -0.320543677 -0.0309109353 
21.7526321 -0.556104362 2.04423928 
-11.2972565 -0.173277885 -12.0283642 
0.167699561 0.0402731337 -3.39507794 
-3.60492206 -0.084936209 8.95633221 
23.5453911 0.0468874015 0.514661789 
-5.0098505 0.0346972123 5.62515783 
2.10456657 0.0212019533 -6.3571229 
-23.7131557 0.218329132 -1.28541183 
-15.5922327 -0.0346889161 6.99034929 
-22.8712826 -0.274864674 14.3554649 
-17.4270897 0.137379408 -0.469801724 
-1.34828913 -0.00713720545 -3.06043625 
8.3917675 -0.1273368 -5.14085245 
-11.1627302 -0.166861266 -16.5782795 
-13.6419182 -0.00504186749 -10.9065399 
12.450943 -0.207525536 -3.88205123 
-6.33355331 -0.633427382 19.2019863 
-18.7968235 0.125215203 -19.3579063 
-24.4414616 -0.0386482589 5.39802837 
-20.6670628 0.521883488 7.24375534 
2.44918704 -0.206727564 -12.548377 
17.2626457 -0.470366746 9.78320408 
-10.573596 -0.145905554 6.03764343 
24.6260433 0.320369631 -5.40761137 
-20.4899597 0.172302559 -17.5981865 
-5.49783373 0.463924587 -10.8854876 
-18.5702114 0.329146355 0.519207358 
16.2109547 -0.30530265 -14.8001709 
-22.1614151 -0.200545996 19.0219498 
11.6309509 -0.047821641 10.0421038 
-1.90546227 -0.0547649041 -3.14214015 
-23.475668 0.169062138 5.79163885 
7.39741135 0.28111738 -3.75492263 
15.6889095 0.0750857219 -5.11063719 
11.5873995 -0.111419924 -12.7395229 
24.2932987 0.450312316 -18.2355118 
-0.874799967 -0.117558658 -5.80111504 
5.36257792 -0.0349578746 -5.24929285 
10.7773743 -0.521690845 -10.7781324 
9.05438995 -0.00495502399 0.0394192114 
22.7493267 0.0716967285 -11.1944656 
-4.7896471 0.312054932 7.86422396 
-12.1143904 -0.133916855 -3.83912277 
-20.7573586 -0.129091054 11.6123152 
-4.29581451 -0.0928642601 13.243454 
0.641285717 -0.107595474 3.92772865 
1.25899458 -0.3420856 -17.2323914 
-0.707623601 0.0172434114 -15.407733 
-11.4623137 0.157666251 -5.77917194 
14.7050972 0.21547842 -6.89310503 
-0.943678677 -0.33437109 5.00861311 
-1.19860876 0.12005683 -14.8657312 
7.6738162 0.200288072 -4.29828167 
14.1287231 0.0534357168 17.3072033 
16.805624 0.282778382 -4.77795124 
13.2395124 -0.182931721 -18.1700993 
-6.67550182 -0.355926722 12.4190474 
14.2135344 -0.0561913587 -8.35513878 
21.9664936 -0.0401186533 -4.2996254 
-15.4032183 0.11981447 -6.93158674 
-23.9093475 -0.204049528 14.837904 
-15.0970545 0.0305232313 -9.38764286 
17.2172222 -0.18268089 -16.1548309 
6.40201139 -0.0459223427 -0.0351753682 
-8.02169323 -0.317304105 7.80050039 
-21.6253738 -0.0550494641 -5.13390017 
-17.6058178 0.378850877 7.73011971 
24.3852253 -0.140821263 14.2659473 
3.86766267 -0.0995263085 -1.58066165 
6.35443068 0.53036958 17.6811638 
17.0906563 -0.00126506807 1.3577199 
12.3283329 -0.268009603 -9.41921329 
-21.8492832 0.265973479 10.1596956 
6.38914108 0.570404351 6.46568823 
1.42390478 -0.355128318 7.72877073 
-12.6005678 0.515009999 17.5588932 
5.97019529 0.22253415 23.5268688 
7.97919083 0.148715988 15.5190725 
19.4036617 -0.584508836 -24.3589497 
-17.3419933 0.0956810564 4.15878963 
-24.596735 0.246044248 -2.38385916 
-2.74579048 -0.00425529853 -4.94436836 
-12.879693 -0.316936642 -3.13926506 
-1.41887474 -0.53426975 6.66845036 
-24.3461857 0.19122301 -1.8078773 
-11.4452286 -0.132240728 8.06347847 
17.3170357 0.251251996 -3.86739755 
-21.7264481 -0.384929359 14.674592 
-22.5729465 -0.187416613 -6.79560947 
-1.95352817 0.0730848536 -14.92871 
4.59647083 -0.0485561676 -4.36154032 
-12.9302378 0.101749532 10.710763 
3.66703367 0.427450448 17.600174 
12.5232925 0.434032381 4.62110043 
-23.3253632 0.166266963 9.87791824 
-23.4097862 0.103954002 -4.18321705 
20.7009926 0.0798285455 -7.8471384 
0.72943902 -0.212220743 -1.42477131 
0.742630363 -0.0371107869 -9.11866093 
5.16500664 0.2138993 7.98050499 
-23.0970116 -0.0747823417 13.5766821 
21.8046951 -0.497320056 1.68985105 
5.41663837 0.528384805 19.4801083 
-22.7418346 0.398706555 -0.128721938 
22.5491333 -0.129646793 12.3590822 
-6.07427168 -0.224720985 -5.96563482 
-19.2018318 0.38781321 6.87381887 
-16.6958885 0.405590236 11.1873722 
3.86543632 0.182382494 9.38843441 
9.76211166 -0.0669403821 -4.0431509 
-17.7800312 0.282722533 13.6239548 
-23.0017872 0.320746481 -2.06302404 
17.1963043 -0.442314595 10.428854 
18.9022751 -0.366031855 -21.054327 
7.56118393 -0.0532344766 -6.12203026 
19.1596775 0.339395165 -6.7708807 
16.3452435 0.119617283 -3.69427133 
-19.6061745 0.478183478 8.70907593 
-4.28011703 0.0802182257 -15.7737436 
-14.1132584 0.0897220224 -5.47182846 
-21.2467194 0.552681506 -0.281787813 
24.5587902 -0.452608556 -10.185586 
-15.5401745 -0.0330167413 -4.8944006 
22.9065285 -0.443379283 3.58057809 
5.79992199 0.121110037 -11.5757942 
22.2841644 0.0644607618 -5.31422281 
1.46821117 0.22094804 -8.14749908 
-18.0216827 -0.0239754338 17.9119396 
8.60712147 0.234055474 4.14882898 
-16.0753822 0.178628623 -9.12746906 
4.19450188 -0.0587645583 6.4704566 
8.90234947 0.256945342 -20.0177689 
3.87895298 0.158958182 9.54803181 
-9.92744732 -0.387658656 -5.66802502 
-20.9253674 -0.196256831 -8.58862686 
6.27506495 0.313850641 13.0798073 
-18.1152878 0.245941997 -3.5912683 
23.0096512 -0.0894798487 -12.0277472 
-6.99722624 -0.206646159 5.75523806 
-9.76398849 -0.210795939 3.55570245 
17.2827187 0.174872637 -3.21252179 
19.1721668 0.214799017 14.6585035 
4.32681513 0.113950118 8.48153019 
8.05005264 0.0812593624 16.4821777 
22.3230782 -0.495712221 3.02507067 
-13.07409 0.0326749273 12.5722179 
11.7743664 0.128523588 -13.7692022 
18.3944988 -0.234725386 16.7910118 
-24.0072041 0.203440443 -0.0720748007 
18.2665939 -0.445465952 6.04243183 
0.271776944 -0.0441195965 2.9123776 
2.30787158 -0.0615973845 -21.0851269 
-11.0578527 -0.116453126 -8.77207088 
5.42947006 0.457354456 17.4852371 
-22.5816212 0.262623429 6.53388166 
1.65169084 -0.323596478 1.42291713 
22.1074696 -0.0256706476 -4.42513514 
-6.80310345 -0.301532388 4.04423285 
-1.98163831 0.0711055323 -17.3802795 
-13.965847 0.0826811492 -8.5791235 
24.3804073 0.260044813 19.6563816 
-21.7933273 0.528923213 -1.34482157 
7.29696274 0.249461055 -2.88169765 
-16.5642624 0.127320528 -3.58414888 
-14.2941637 -0.187643006 -12.3627663 
18.6130562 0.27358371 -6.07741308 
0.582040131 -0.121497236 4.0190506 
-2.53087831 -0.234227195 16.686758 
16.5966492 0.00364212622 -0.326554865 
-23.1516323 0.0334873982 -4.31334448 
-4.67826843 -0.410571903 15.9382782 
-13.0476017 0.516361594 17.1575222 
11.3382587 -0.231119737 -3.63011289 
20.625946 -0.427512974 6.81742668 
9.61149693 -0.681845069 -8.53910065 
-6.7500658 -0.261539787 8.83560085 
23.0756721 -0.0602057129 -1.76375556 
-1.43642354 -0.52701062 6.30397081 
-11.4309845 -0.153973848 -9.32827377 
16.7086678 0.701104641 -8.37054157 
-19.1357861 -0.156892732 13.6214924 
22.2993431 -0.193237975 -10.0901995 
-7.17713594 -0.593620658 14.5524521 
19.1528511 0.18715626 -5.03031731 
19.4019241 -0.353244901 3.21200943 
-14.3727427 -0.0642908663 -9.7646122 
23.3343582 0.184950128 -14.747777 
-5.71581316 -0.21754384 23.6907063 
-19.8128109 -0.243936554 16.219202 
17.5215454 -0.234496802 4.76181507 
-10.0052013 0.178269923 21.5150433 
-3.99111414 0.0175899379 -0.617430091 
-11.7925625 0.174322575 -5.63872242 
1.01531172 0.289927423 21.7380924 
2.31537294 -0.266644567 -3.95555139 
6.95358276 0.445739895 10.9561434 
17.3743382 0.516874611 -7.54005814 
4.00674486 -0.0410589054 -10.7303171 
6.11833477 0.238901988 9.96684456 
-13.5330648 0.0687891245 -23.617918 
-24.4891586 -0.00558297103 -6.14138126 
22.8989887 -0.0913471058 12.7349157 
1.2738353 -0.177959323 -4.09842253 
18.6913548 -0.582869411 5.30050468 
17.252327 0.414139539 -6.64972782 
3.76232982 0.0177087095 -4.31899929 
-23.6283894 0.338864654 0.554127216 
-24.7711067 0.139402032 -0.340446621 
-17.6354046 0.0404393561 -7.03013182 
-3.63782334 -0.294246554 19.2334557 
-14.1491785 0.0788369849 -5.17453384 
14.2917986 -0.0551193468 9.28817081 
12.1715469 -0.218817055 -3.52779269 
-11.6207829 0.128330439 5.8295269 
6.00281525 0.0307968333 -4.95757103 
-20.4535427 0.507004797 3.96408105 
-24.8592892 0.282812566 -4.8962431 
24.6498108 0.0630770177 -1.33702636 
-12.7866001 -0.119846545 -4.25533485 
3.33074188 -0.0816647187 -4.43084955 
13.8824224 -0.10542468 -7.96841383 
11.694128 -0.371725291 -7.08773804 
-3.22211647 -0.13101624 15.5261822 
-14.8095045 0.0434593037 -7.97783327 
24.534893 0.302399158 -5.33655739 
-20.4866924 0.42945838 -3.03325009 
-11.864255 -0.121238664 -18.9751396 
-24.4374752 0.336353093 -3.79857111 
11.610261 0.109105483 -13.5723848 
19.330431 -0.0777819008 -1.85282207 
22.7750092 -0.118678793 14.225235 
21.737175 -0.0388847329 -9.47079372 
17.4568329 0.546870172 -10.0794191 
13.4941149 -0.0420272686 10.5946321 
-6.31411409 0.621531069 -12.1366663 
-19.5440483 0.446693867 7.92247105 
-18.9355412 0.0549607798 -22.7456112 
2.37480664 0.16816172 -7.02137136 
-15.9508791 -0.164562926 -0.883402348 
-6.79344893 -0.26118049 3.38603139 
-4.86619377 0.0165641569 5.60181904 
12.6130342 -0.110684529 11.3351965 
4.31770325 -0.377218693 4.21303225 
7.80892944 0.24811174 14.3840389 
19.8158569 0.183503643 -6.14716005 
-13.6581831 -0.216872588 -12.8942823 
13.8260288 0.0533013605 -0.299337804 
-7.9486475 -0.557244837 12.1153479 
15.3503428 0.21274662 -6.33526611 
-9.29799557 -0.239596322 9.29100323 
-24.1226025 -0.0528274924 3.03397441 
25.3077297 -0.0230851918 0.744469643 
-17.5251293 0.486761689 12.7690477 
16.8146439 0.646568 -7.99692774 
16.8971081 0.648223996 -8.60290432 
10.8964586 0.132194042 -1.74217856 
-10.7722731 -0.0409434512 -17.3063984 
0.202631816 -0.0210882258 -2.74763465 
-7.35026598 -0.578596056 12.8531771 
15.983367 -0.452202588 11.1785908 
0.811056137 -0.254009217 0.293976843 
15.6603851 0.0711012334 -3.54615045 
8.60846138 -0.142289922 -5.39944935 
17.7248535 -0.33988589 6.29894638 
-21.0227566 -0.328447759 -12.4788294 
10.6734285 0.293837428 0.479094088 
-23.5009022 0.15705362 5.94114256 
-12.4094238 -0.211514533 -14.2168093 
14.3254814 0.0340426452 -7.98800516 
18.749464 -0.124287583 -3.13968325 
-12.8663101 -0.109932005 -4.46121311 
7.69681358 0.170881525 -2.54433584 
-10.7302828 -0.0953355655 3.2503109 
-13.1900015 0.0610136949 -5.62615442 
-13.5962496 0.0841508284 20.4526653 
23.1866493 0.15374203 -5.09426212 
7.16034842 0.467541575 10.8615303 
0.819748342 -0.127072155 3.23744893 
24.0654316 -0.214594632 17.4762058 
-13.050271 0.0543051586 24.2425289 
-14.1760826 -0.345165014 -18.1758957 
20.9474945 -0.139300138 -1.69813275 
-0.31959182 0.030337505 -5.87597036 
1.34554935 -0.343596905 4.92408037 
17.3683758 -0.0823010355 15.0918331 
13.143878 0.536096394 2.0581708 
-23.5969162 -0.132842124 18.2833042 
-23.6182137 0.313839734 0.787306845 
18.9457493 -0.274562955 -16.1396446 
16.1304054 -0.577522516 -17.3803921 
-3.39780784 0.00802045874 -18.7712574 
2.67469573 -0.011874564 -6.21230173 
15.7067842 -0.403109282 -21.3081951 
6.29390192 0.103520989 -12.9728489 
-5.36453485 -0.310867846 -6.83218241 
8.18927097 0.244466588 3.33637667 
21.271822 -0.184359238 -2.21291471 
-4.24727821 -0.115660258 4.95987892 
18.8404789 0.405399382 -6.83026743 
20.341507 0.32758075 -12.7373304 
15.8899784 -0.631997168 -17.1170177 
7.2820034 0.513208091 8.83179188 
-6.68428087 0.0421761274 -8.2354393 
0.366429299 -0.0362182222 3.35979176 
5.35069036 0.243403569 -9.60474014 
14.7117949 -0.00970636867 7.73450804 
4.67280865 0.129740775 -7.94850016 
-15.9662209 -0.0549963117 3.85141253 
11.4250154 -0.216042265 -5.42799616 
20.9275017 -0.111190625 -6.39616871 
18.3818493 0.282348067 -13.3104591 
-0.545043468 0.10477975 -11.4319067 
-16.0575333 0.0340052769 -3.3973043 
6.94445133 0.175071791 -3.76153469 
14.7414513 0.0820583627 -3.74139237 
19.8320217 -0.442634434 -20.3110714 
-22.0324764 0.315711707 10.3587246 
22.3560658 0.0470523946 -4.56337214 
-15.9214153 0.00476648472 -5.48498011 
-6.4535985 -0.276704103 1.75464988 
7.17951202 0.165337935 -7.60984039 
5.10488605 0.151575819 -24.1467934 
15.3068495 0.292240649 1.36377072 
-17.515028 -0.154345095 -11.4307194 
10.6406345 0.32009083 5.03299141 
-11.4670496 -0.129032657 -13.0184889 
-23.7505569 0.334531397 7.79505491 
-14.032032 0.15168111 18.1277981 
-8.79247952 -0.371671885 14.926301 
21.1559753 0.420594096 -12.0346956 
11.1448736 0.0118880123 12.1429129 
19.5078182 -0.0167278517 -2.07553434 
3.83751702 0.329862922 24.3061981 
-18.4786282 0.58627516 3.19160581 
15.1415005 0.46987918 -8.21154594 
-10.3842402 -0.0163502954 18.1765175 
-20.3307304 0.452956527 4.5281682 
-13.8410378 0.129398614 13.6957207 
14.1668453 0.0123008545 7.28539705 
14.7720938 0.0106162773 -10.2371359 
-7.42216158 0.230078667 -12.9591961 
-14.1359568 0.114649594 -8.09832096 
19.512125 0.261037052 -8.82298183 
21.867157 -0.426147759 5.01510191 
20.1089783 0.087242946 -4.81540442 
7.36433649 0.556728244 7.18108511 
19.4515972 0.422418058 -10.5359993 
3.70255303 -0.105748184 -20.9288502 
17.9083118 -0.172294408 3.48600459 
-21.6886883 0.404818207 7.26056385 
14.5642624 0.238334537 -5.80930185 
-21.4803505 0.124438897 -4.22690678 
3.97251725 -0.0410784855 -12.4538031 
-0.716400862 0.146314129 -10.2927103 
-13.9268112 -0.0506158471 4.82936811 
6.67870522 0.504211605 5.49297428 
3.17938685 -0.0986667871 -5.36227369 
21.2291489 -0.409433961 -23.7249222 
8.93004036 -0.602256238 -7.78016806 
-5.92814207 0.706400275 -13.816 
20.0205364 -0.57413584 5.42730379 
2.7627635 -0.302727461 6.99039125 
-2.48948121 -0.203849211 8.63281822 
23.9694176 0.0582416169 -1.36918557 
-21.9367828 -0.346250027 14.4437084 
-9.09264374 -0.318850577 17.6428909 
-18.3201218 -0.182206184 -7.79562712 
-11.7074594 -0.114087552 -12.5057383 
2.66414261 0.041263368 9.88093281 
10.9146271 0.342235893 1.29601896 
-22.995985 0.00940679386 13.01647 
24.531271 -0.0381695442 9.32477093 
-6.22933769 0.501973808 -15.7443552 
18.224369 0.281829804 -13.1316309 
12.7139034 -0.0305760279 -2.20812297 
20.1706104 -0.0752638653 -17.4528942 
13.039341 0.102791101 19.6775093 
20.3285675 -0.399776757 -20.1790371 
-5.87969446 0.693340361 -12.6591311 
3.3941772 0.18446891 15.5922356 
22.8302479 0.0108928513 -7.26549435 
9.38790035 -0.529523253 -10.0512629 
-23.4113693 -0.111691989 14.3594913 
-16.5039539 0.458506972 12.0367126 
20.5840816 0.297146142 16.6475925 
9.89555836 0.20915471 3.52846265 
12.2691488 -0.196761787 -5.31172037 
-14.8524666 -0.325040251 2.81018138 
-20.0717049 0.731985092 -0.628360868 
-1.85168254 -0.439961582 7.18092203 
0.355575264 0.022414159 -7.16511345 
17.9402122 -0.380074203 9.74431324 
-1.77888227 0.168522522 -1.72420537 
16.8793354 0.5820629 -10.3022652 
5.69083738 0.0110822646 -12.7621756 
3.46622825 0.134498551 13.7541828 
-19.4441395 -0.23729676 -12.1096087 
19.5895138 -0.597497582 -24.3205795 
-14.6771069 -0.157944232 4.6488533 
-6.07629728 -0.278564841 -3.03052139 
-14.4201469 -0.520098865 -17.2545319 
-20.7860756 -0.218951374 -8.08762074 
-22.6648521 0.375073344 -2.30613661 
13.3987226 -0.376210511 -7.24052668 
10.3970976 0.0387552381 9.8680048 
21.5609074 0.0496909507 -17.4944897 
-21.579731 0.321430534 4.67326593 
11.6594219 0.199695528 -17.1397209 
8.63558102 0.523483932 6.96504593 
-5.18694115 -0.0236592684 -8.08774471 
-16.7054424 -0.054236304 0.796839118 
-14.3321238 0.27391398 15.342267 
-14.8646269 -0.0157798808 17.4770832 
11.6349134 0.273474693 -16.1949921 
-1.0023334 -0.0328307711 -3.30063128 
12.1025906 -0.277469099 -7.6254673 
14.2848034 0.0208089333 -7.33090448 
-12.568779 0.0742506906 12.3267212 
-22.7776089 -0.205652282 -6.48188496 
5.42171955 0.306378782 -9.05934429 
16.3988686 0.345362544 -6.40634632 
-12.1495161 0.14185518 4.22487926 
5.24935198 -0.162529066 4.12376022 
-1.13292575 0.502312779 13.1800165 
23.9436512 0.117124595 -4.09136343 
-0.784193337 -0.0732573271 10.2026215 
9.70298004 -0.257570177 -5.55840778 
22.2087574 -0.510783553 6.93281364 
-1.6665976 -0.114519551 -7.42703867 
-21.4099598 -0.148823202 -8.9014101 
18.7979431 -0.347836256 7.34603691 
23.3991146 -0.0248620026 1.39580905 
17.7142754 0.47403428 -7.53252363 
-12.6895218 0.0534751676 5.35808229 
-20.3119812 0.287958533 9.70539951 
7.47224188 0.0145285977 -14.1708727 
21.6856575 -0.444157541 7.35094118 
23.662674 0.028507974 0.87970221 
6.52289867 0.41736868 15.6508999 
6.65779161 0.471660316 18.2853985 
-2.39114332 0.119903512 13.4650393 
16.9070625 -0.0804184005 3.53836608 
2.32300854 0.122854076 -6.42833996 
-8.36103821 -0.34713617 3.91786981 
-22.3459473 -0.243856177 -12.2541761 
5.9802227 0.165304765 9.74823093 
1.69009674 -0.342574388 4.12136126 
0.403921306 0.489119887 17.6287861 
-18.1772175 -0.119476482 19.6445503 
-18.1392574 0.460512489 4.43024111 
13.0014486 -0.0879938081 -11.6051388 
-7.29115534 0.309820235 -13.5910254 
10.7907133 0.452941835 2.89940763 
-24.2180271 -0.357512236 -12.8079414 
14.6365614 0.171200365 -7.88289118 
-15.5485201 0.223463371 -7.86037111 
-17.0031643 -0.225732699 -13.651536 
-3.3155551 0.200837433 -17.0549393 
6.35956764 -0.076036647 -3.97894573 
7.09749126 0.607959926 7.2372551 
7.98717833 0.215501428 -2.98595166 
6.35316801 -0.108491436 2.41042376 
-23.613121 0.616023183 25.1403904 
24.4693298 -0.0628589839 0.251430333 
17.7951794 -0.126542076 12.2748394 
-7.68070984 -0.162103668 -8.51968575 
4.8766098 -0.0201665908 -3.65773916 
8.13548183 0.104616366 -4.08027601 
10.5272732 -0.304986298 -13.1329832 
-9.32246876 0.220357418 -10.2158976 
-14.5569706 0.182904124 13.8626165 
-15.5896015 0.127277792 12.2200871 
21.8522511 -0.518666863 7.64072943 
11.4585409 -0.29449895 -4.94694138 
-18.7124519 -0.439155042 -10.5404119 
10.1391354 0.245993465 -17.7740402 
17.1768036 0.36102733 -5.65501642 
4.47757721 -0.393103361 0.600934386 
9.4524498 0.299668223 5.96382093 
10.6299973 0.30006215 0.344948143 
24.0431633 0.214825675 -4.63189554 
-4.60143852 -0.0429451503 -9.0493269 
4.60177374 -0.0676585883 6.05869532 
19.4118176 0.0394426733 -14.8083611 
23.6927414 -0.273460716 15.2033424 
-8.18252659 -0.17436631 4.69104004 
-23.4741039 0.300472379 1.66002703 
-20.5768948 0.410462856 8.89134789 
19.680521 -0.544389606 4.19789457 
1.70133901 -0.45544979 4.99682283 
17.2388306 -0.341481179 17.0705452 
-3.56626773 0.0773198232 10.2423658 
4.65294647 0.309849173 -9.34656048 
-23.2533665 -0.38253063 -9.02610588 
10.7675762 0.28940925 1.46935809 
22.8683643 0.149386361 -6.00793028 
15.0039682 0.0645141676 6.94472075 
0.14149496 -0.00961793214 -9.49541378 
-13.4481897 -0.0366222151 5.78595829 
-23.045433 0.102580823 20.7503109 
16.9179192 -0.303997755 7.78629684 
-9.16005039 -0.102724798 -7.71719408 
13.5060291 -0.0100597646 -15.1711254 
9.92536259 0.24188301 9.65515709 
-13.0890369 -0.0546372868 -11.0652409 
24.4505234 -0.305078447 -7.80963707 
18.3317623 -0.329024523 3.74177837 
10.7329016 -0.647853792 -9.92845821 
-21.5788631 -0.209613845 12.6567478 
-3.27823758 0.0286770333 -18.838728 
-10.7133064 -0.157137036 5.40264654 
10.0523739 -0.622514904 -10.8292265 
-4.74131155 -0.0614864342 -3.83305335 
18.0620232 -0.285951853 -18.8616638 
-19.8300247 0.41709578 7.33983231 
-16.4997082 -0.0434439406 -11.4675436 
-10.8074408 -0.11022608 16.0162144 
12.277895 0.0176387299 -12.5740738 
25.0471859 -0.16860792 1.03208947 
5.94975996 0.0778541341 -6.54751062 
6.4173131 0.203543141 -6.88358212 
-12.5246487 0.126545578 -8.40235519 
-22.2616367 -0.122081466 -4.16501951 
6.5223527 0.120414019 -11.3320541 
5.85062504 0.177800879 -19.1261082 
-5.07941914 0.389123082 8.93111229 
-12.713438 -0.195540369 8.37996197 
-13.2753811 0.108307369 -22.7286663 
-17.2417469 -0.110984705 -11.9480152 
-6.17533684 0.633759379 -12.6005926 
-17.1229839 -0.515847027 24.0850849 
13.0401659 -0.250568569 13.5554743 
-0.765413105 -0.59619987 6.42322922 
7.25581646 0.238462701 0.558007061 
1.83844244 0.183554187 -7.20733118 
-14.6004171 0.102216974 12.6923437 
5.0466876 -0.0210492462 -5.33679676 
-8.14270687 -0.0647487789 5.8842454 
-0.377340853 -0.524644196 6.51241827 
-0.0678429008 -0.435439557 9.12867069 
21.0684719 -0.0152273588 -15.2736826 
-16.9967918 0.241266847 10.9138889 
-21.7625828 -0.338255048 -11.8740311 
-21.0784569 -0.208588272 18.903183 
-1.45220768 0.102352612 -2.35341167 
4.08143187 0.100752838 -7.11092281 
22.0111599 -0.485888034 0.806566417 
-11.4668465 -0.0476437099 6.92577171 
15.9404917 0.245820925 3.11892581 
5.18475533 0.439381778 18.2561455 
4.6688776 0.700800598 20.7486458 
19.8644142 -0.00720027322 -2.1233573 
16.4412212 0.640810192 -9.60141945 
-3.65764594 -0.216711059 -8.80308247 
12.9760447 0.178945377 16.5438023 
-0.155106053 0.120940648 -2.94320369 
17.7231884 0.493142277 -6.74700832 
-18.2609158 0.37535426 6.02407789 
-17.652483 0.39387989 6.89132309 
0.742560625 -0.255320221 -16.0933628 
-21.0181046 0.477783471 3.04945326 
