ply
format ascii 1.0
comment created by gply, a Houdini tool.
comment converted from .[b]geo
comment for more information about Houdini, try:
comment www.sidefx.com
element vertex 1269
property float x
property float y
property float z
element face 0
property list uchar int vertex_indices
end_header
10.3481388 -0.0184119176 -16.6065464 
-5.78290749 0.393622547 16.4139576 
22.0256462 -0.348116904 -17.2138424 
17.6226654 -0.30500862 14.8161411 
23.4646606 -0.407219589 24.5166988 
-24.1851978 0.237771615 4.72503519 
-4.70002985 0.39400059 15.6915169 
20.432869 -0.712545037 -9.37633419 
23.8574924 -0.101223662 -15.7621937 
-1.1336925 0.310799092 7.79858017 
23.0479774 0.491006106 2.5975132 
-1.59334445 -0.163553387 -3.00746083 
-22.9075394 -0.00415016804 0.680305481 
5.71433926 0.19426176 4.11822176 
11.0722647 0.133823171 12.347662 
1.7501229 0.127453014 -6.85165691 
3.69188499 0.0150469206 -6.36421299 
-1.45837736 0.225613534 -18.5561504 
3.35672641 0.25786671 -11.8459959 
-13.7826376 -0.237796918 6.23419476 
-19.8115559 -0.139097691 12.8971357 
-19.4925499 0.325787783 -10.6059208 
8.38835049 0.0202862211 -20.6947594 
7.21150827 -0.376856983 7.33889532 
19.8141747 0.246435285 -0.325651109 
17.1103992 0.00379853882 6.99478674 
12.6025715 0.153937876 13.6766386 
11.2933578 0.705010474 -8.41377354 
-19.5818748 0.348933697 -9.06321716 
-18.0089931 -0.536168933 0.370892227 
-4.16250372 0.239421621 14.890398 
22.7208042 0.163059652 -2.59718513 
-22.5080204 -0.0101045966 1.13425434 
14.5198479 -0.120891549 7.44396305 
-2.79063702 -0.368532628 -16.2482758 
-10.4663458 0.0682317019 -0.0583438314 
-16.018322 0.201142162 -11.4905558 
-24.074194 0.401053488 6.33640623 
21.0209713 -0.387000442 -7.68308783 
-24.1334076 0.0766792893 -3.6440959 
6.77088213 -0.0826129019 16.2457352 
22.7087688 0.528711081 0.901029289 
-20.4476433 -0.20528017 5.27226973 
-9.6026783 0.0227916837 -4.58402014 
14.7927017 0.161525145 8.65651226 
19.7219887 -0.217094555 -6.79217911 
-0.921601415 -0.198115751 -4.73357773 
-18.655632 -0.303383559 2.74479246 
-2.59616542 -0.248482168 -16.6273041 
-4.26667452 -0.180294305 4.9222765 
21.935215 0.217178673 10.5258236 
-24.1026344 -0.0990756676 -2.34119129 
-24.2957649 -0.104906879 -1.33660233 
20.9694176 0.179917201 10.3212299 
-3.89581943 -0.146887571 -7.6150403 
-22.7935677 0.56913799 14.0278244 
-4.91627932 -0.203305751 6.12707853 
22.7692738 0.236611083 11.107976 
20.5215206 0.0663874075 10.4851646 
-17.7327023 -0.0184197482 11.2255802 
-2.54507709 -0.240470231 10.1097288 
-22.7080555 -0.375004917 -16.254385 
-5.05555201 -0.255574793 1.65788996 
15.6728001 -0.290821701 -11.3738775 
10.6880293 0.287769198 -12.3651743 
2.65740967 0.0949540734 -7.75239897 
-4.43917036 -0.182266891 -6.05082321 
17.0112 0.387836635 -19.4252911 
4.2532959 0.421689719 3.27035284 
15.0978079 -0.31196329 -7.17108822 
12.5672569 0.180423558 12.8741522 
11.7919025 -0.174981579 0.921147287 
15.7522554 -0.303572714 -11.8499031 
11.6773968 -0.0984463394 8.20149422 
-2.35071898 -0.0588333048 4.26007795 
-23.1085606 0.104312308 2.29360342 
1.00328922 -0.184361815 13.1256952 
15.5695105 -0.370485902 -10.6229124 
4.50852251 -0.0678980425 24.0209217 
-6.96778536 -0.704624951 -10.4060326 
9.746315 -0.141647428 4.32012558 
18.1754856 -0.319101512 -6.01765871 
-1.38615751 0.114106186 8.61142635 
15.6011057 -0.103191733 6.36901379 
-8.80108547 0.0663418099 -2.30828166 
-15.7833204 -0.149510086 5.89142847 
-7.43405151 0.00282027293 11.1339951 
3.56953955 0.372390479 -2.46888089 
-17.690321 0.0761044174 -5.76688099 
-24.1326714 -0.321737021 -16.4935474 
10.085144 0.188116595 -3.41737199 
11.1725445 -0.0470010005 0.113140613 
5.96796799 0.0185026322 12.6604986 
11.4918108 0.189703986 12.5870285 
-13.6127386 -0.0805740207 -9.69859028 
2.86960149 0.138045266 -6.75046396 
20.4743614 -0.119265109 -4.05225086 
-2.74998808 -0.0252034739 6.69113111 
-11.9220428 -0.110191166 -10.718873 
-0.364987344 -0.215983734 -12.4835043 
18.8615894 -0.472121835 14.3926792 
5.24306631 -0.237022027 -8.21250439 
3.67437387 0.325925052 5.23461962 
-19.2341995 0.275475025 15.4944487 
-10.1569099 0.0944812 11.8918552 
12.7945023 -0.180325583 8.10177231 
12.5186815 0.0826716647 -8.19518757 
22.1919403 0.218823358 10.4936037 
-24.1898861 0.159381241 16.9936409 
-6.95414495 0.146672681 20.1512222 
2.90484285 0.127826467 -7.2669673 
-8.36752415 -0.493004799 -13.2798443 
21.8283672 0.274787009 10.2136259 
-17.8158264 -0.0594618581 13.559514 
-0.679099262 -0.100126691 -7.92878485 
-5.53770781 -0.57172817 -10.2468271 
-24.6597271 0.259680182 2.60386753 
3.45856762 0.301874012 -12.8245611 
-5.79540253 -0.435035795 -14.1014318 
-23.2927971 0.0698247254 12.2144651 
3.52231121 0.249314994 13.2496185 
-3.64543939 -0.356609553 -2.89941311 
-1.26272631 -0.169045597 -12.3284845 
11.4847383 -0.168026254 -15.3120241 
-5.93027639 -0.315648019 -8.64062023 
-17.4544506 -0.203125104 -3.37009096 
24.6454029 0.33538723 7.63825655 
13.9370403 -0.189037293 19.8255501 
-2.44000196 -0.0717332587 -5.57799006 
20.143774 0.496175975 8.8119421 
-22.6941643 -0.0728030875 -1.65209043 
7.78844213 -0.118039683 21.0517139 
-0.182363898 0.0441537686 -15.3458309 
22.0709038 -0.342667818 17.625658 
11.3812618 -0.0678851753 0.941521168 
4.5507164 0.188709036 4.40817165 
19.5629578 0.325603157 1.13501275 
-24.8503704 0.139451325 0.77239114 
16.7280197 -0.576212585 -6.48741388 
-15.3385077 0.0581888407 -8.24375725 
-20.31073 0.15584074 19.7412148 
-18.5093994 -0.253148198 3.53860974 
6.91094065 -0.0424055196 -6.81195068 
9.69317532 -0.0896053016 0.0684893653 
-21.6429958 0.271542281 11.022109 
-6.98603392 0.0192855429 -6.42210293 
-23.2689877 0.0932184309 2.84459281 
9.01700211 -0.185505837 -18.2994843 
23.6950684 0.12775816 -3.36813211 
-11.8133373 -0.230149567 6.02158308 
11.3060112 0.153217062 -1.87271774 
-7.54847574 -0.0291829892 -4.7725215 
-5.26325178 -0.173382491 11.9521761 
10.9224539 0.137574673 12.4245911 
-15.4872198 -0.0557105578 6.53956938 
-6.9091754 0.336709231 14.3974752 
-2.59441066 -0.365557194 -12.7226191 
0.995972693 0.116560496 -1.93297303 
14.339797 -0.380250186 4.21911383 
21.6040287 0.320982456 -2.55204105 
-7.33576155 0.442484975 14.157114 
13.4783201 -0.0539649017 -11.482769 
-17.2731705 -0.109976515 1.48206139 
-24.9081593 0.465215594 4.91574383 
8.38312054 0.125643373 -12.1724606 
-9.95138359 -0.421512991 2.75473046 
-24.9879131 0.251197428 1.82615745 
-22.3722668 0.00899869855 7.55513954 
-0.301632464 0.109372899 8.99406338 
-8.28621578 -0.0280237384 -3.2506249 
0.929212868 0.548394561 5.334764 
-7.70144224 -0.59466809 -11.351018 
0.567511737 0.120741859 18.3799343 
-7.76335716 -0.211482763 -6.99478769 
15.9956598 -0.412020087 -5.40355635 
-1.26711893 -0.086966455 -7.45950937 
9.18999195 0.134705618 -3.88269234 
13.331027 0.0437955111 -11.2048883 
-14.3111382 -0.559307218 14.2506037 
-3.60117722 0.170641616 15.9587622 
10.2356405 -0.19273749 4.44779539 
-4.9011693 0.35182023 14.5830336 
-21.6191082 0.687951684 -8.10296917 
12.2626581 0.117446259 -5.71478081 
-14.079278 -0.0756155774 -3.94103146 
-5.60150623 -0.110507458 12.328826 
7.3785491 0.204768017 1.30685163 
16.6447124 0.310513318 -17.4451542 
18.0268211 -0.0240293555 -17.0715771 
-12.9661875 -0.279575497 11.049346 
6.94381857 -0.108976856 -17.9156742 
-12.5519981 -0.00809794944 -0.243541658 
8.71556282 0.403103292 -7.19624472 
-18.3495255 0.31126377 -17.2888985 
-16.0115261 0.238258228 -10.4647188 
11.7932539 -0.237810388 3.7089448 
9.84787273 0.315958351 -4.46288967 
3.21403456 -0.0214559771 -10.8391104 
15.6368132 -0.264848143 0.068023175 
-14.2069263 0.251689583 -12.7251692 
-21.9390106 0.571697891 -11.4200554 
8.39866447 0.284698427 -6.52449942 
22.3910007 -0.160663292 -18.8609276 
9.27302074 0.275935799 18.0057869 
17.0977077 0.0349700637 6.79837656 
19.4927845 -0.376385123 17.5028324 
7.69007635 -0.0182634871 -2.69613504 
18.1269436 0.0565302894 4.64330006 
6.41660976 0.250225991 0.326841176 
-24.2513981 0.277058154 3.45195532 
6.99425173 -0.0635088384 -6.51337147 
-4.23708868 -0.0124069955 -5.26875401 
-19.6129246 0.371385634 -13.2915211 
-12.6065235 -0.0986558571 -3.1843574 
22.8077679 0.354786187 -0.349822521 
-15.1199389 -0.199355543 10.2890005 
1.46081245 -0.0696907863 0.235943794 
-14.8303185 -0.205425978 7.16294003 
14.5413961 -0.0333013609 -3.9581852 
17.440733 0.138964802 -19.354805 
-8.78586674 0.0115852421 -0.150862396 
-17.3749447 0.46016261 -13.8280916 
19.9847469 0.430182427 3.30011702 
-18.0730343 0.196442321 -8.29541016 
-2.62094712 -0.215309352 12.4710293 
23.8580723 0.13913846 -2.80939674 
-20.5847549 -0.206131831 6.23301172 
2.10447645 -0.0106234262 -4.16353893 
-15.9143906 0.0522986576 1.81410933 
17.7607002 -0.181401625 10.1219969 
-21.9153175 -0.192905739 1.06497014 
-17.4328365 -0.334704071 0.727289259 
-21.0163708 -0.249408886 -16.5293789 
-17.5014191 -0.22893545 8.39228439 
-13.057416 -0.241488859 6.48944569 
-21.4910049 -0.131606564 -2.21987438 
-0.449273705 -0.143741697 -12.0691481 
-9.48181534 -0.0352905132 -10.4692831 
-12.4864206 0.187428683 -1.52939773 
-3.55278611 -0.258480191 8.98887444 
18.9022083 -0.190678239 -4.36828804 
-13.2257099 -0.156062186 4.66551685 
10.7384377 0.295568049 -12.2087965 
22.0634861 0.238852888 10.5323524 
15.772336 -0.389885992 -6.27597094 
17.4860115 -0.115817696 -13.4068403 
22.9335594 0.058686316 -3.18398404 
-20.1732941 -0.163639158 1.95422423 
-13.6409197 -0.375889093 16.7738152 
22.394659 -0.083635062 -10.5786228 
4.25363302 -0.124915205 9.22895241 
16.0549278 0.0235958472 7.21902084 
0.732812107 -0.0878661796 11.9925508 
-15.6413727 0.15293844 8.16986275 
-16.5076981 0.464010984 -9.59418106 
21.1651554 -0.427055001 12.8637362 
-25.0356903 0.311853945 2.41507888 
-17.6572685 0.275104046 -9.89432049 
-22.0535049 0.0325842276 3.27757621 
6.4584384 -0.414991081 7.94633007 
-4.6871624 -0.148367822 6.41565609 
-7.39407206 -0.353550553 8.12213326 
-9.87551785 0.0513093211 -4.52618408 
-2.51055765 -0.0500816852 -7.08997345 
14.0444479 -0.304333568 6.30333138 
-4.7085104 -0.453371167 -8.75833702 
12.4436359 0.0268172529 -3.87274146 
6.96400118 -0.172934666 15.1667891 
-9.13077927 -0.222814441 -11.0808859 
17.2183609 0.376172483 -16.6662292 
-25.1243134 0.329017133 7.57044792 
-16.1354733 -0.213963687 10.8348465 
23.6904316 0.0806298181 -4.22163391 
-12.7749147 0.0810772032 -11.4758177 
11.4236603 -0.293860257 -16.5960312 
10.3010798 0.419889718 -7.61875916 
22.3884201 -0.0319998227 -9.79656124 
-20.635828 0.537187457 16.9959564 
20.5278034 -0.368641794 11.8583574 
-20.5366039 -0.0506950542 -17.3250065 
14.0576286 0.0643600002 -3.753232 
14.8604946 -0.20366022 -4.24994135 
-22.5655594 0.0911405832 -5.6277318 
9.70609093 0.288218886 -12.5122986 
-0.951126218 -0.0418864973 2.86813354 
-16.0949383 -0.0957158208 17.1271744 
5.4370966 -0.281763911 20.8328342 
-6.32065916 -0.317235976 6.38191366 
23.0625324 0.547002494 5.42089319 
-19.2311478 -0.507649779 6.60059261 
-4.30883789 -0.180036366 3.52536821 
-16.3611221 0.198608354 19.3237686 
19.6060123 0.346026212 0.943426669 
-13.808073 -0.0858529955 -3.1311686 
4.89839983 0.0808450803 5.12620831 
-6.33973742 -0.807317019 -11.8235111 
-9.32341576 0.125256941 -2.02727461 
-15.4534645 -0.183038488 -5.65618372 
-1.7747854 -0.117986873 -15.8122883 
6.00905371 0.138814911 3.7232554 
14.5245867 0.101609454 -1.97695971 
8.95187092 0.0497697555 13.449379 
-2.52832866 -0.0217516199 4.72012568 
-19.1492901 0.215955824 15.10112 
-16.8289909 -0.117685348 4.68060827 
17.6095676 0.0111575909 8.51464272 
0.595636368 0.401106268 8.97250271 
-20.8854198 0.603384912 -6.95490074 
8.69432831 0.255649298 -10.403861 
1.49755776 0.000939565012 15.9969807 
19.6390324 0.218841016 5.73772955 
-18.2167912 -0.245860502 3.3724668 
-11.8568811 -0.175853908 -10.2257509 
-2.92906427 -0.245945603 -17.6048603 
14.4713421 -0.118390366 -4.84429026 
-10.0244608 0.162047178 -1.4480083 
17.4664135 -0.173353836 18.2422314 
23.1088467 0.475934148 3.81184292 
-18.2986717 -0.291825145 3.90539932 
0.3360295 0.234380886 -19.345356 
-20.2362328 -0.290418327 6.34715843 
-8.93323994 0.149594024 12.2897444 
18.3571091 -0.0929974318 -0.802078545 
-12.9856234 -0.240414709 6.03730202 
-9.07501984 -0.124400973 6.21164989 
25.1734276 0.109477654 -6.02714968 
-23.936533 -0.110211283 -14.2198343 
0.566444814 -0.217446804 -7.61461306 
-16.6675758 -0.045215223 8.19843197 
16.7462082 0.347723097 -16.339283 
19.7546215 0.110624805 -1.39529145 
1.54280627 0.39656198 4.77629423 
-1.14612651 0.0982493311 -10.2112713 
-4.37128687 -0.25140819 2.80531263 
17.4685078 -0.0481035821 -3.59885383 
-2.37836742 -0.102756016 13.4696684 
-22.3166351 -0.0195532218 2.45636368 
-2.67179918 -0.260307431 9.99440193 
11.4551477 0.169015586 13.6431751 
19.5632286 0.256734431 5.25435066 
20.1671124 -0.665802002 -13.2508116 
0.640749872 -0.18270804 13.6477766 
-3.5134778 0.521804154 19.4656353 
12.4746466 0.341158211 -9.8143034 
10.8160591 0.198055342 -3.0973227 
6.51413202 -0.208697394 10.1158438 
-1.86041284 -0.369843215 -11.8126163 
-13.6888857 -0.241848767 -5.01577234 
-19.0416813 0.299969643 -14.7059984 
23.1327763 0.0799191445 -3.15567994 
16.3579254 0.115685783 -24.919981 
-11.2558384 -0.198107436 3.42676377 
5.03426409 -0.297993928 7.87976408 
-12.5605268 -0.20951055 3.59493065 
21.9030781 0.68709749 5.4527936 
-24.3976059 -0.0770390332 -1.42198372 
10.2119093 -0.24679029 1.89400303 
-6.8272109 -0.651703656 -10.0750818 
7.78389025 0.0185803734 -5.51747942 
-10.3105488 0.00412911456 8.97278881 
-4.31550598 0.362647623 22.5450191 
-22.4331799 -0.0738266483 1.59425449 
21.6795902 0.0484765507 -4.02898216 
-22.6927376 -0.0547311828 9.30187893 
6.19350815 -0.0397889949 -17.8094482 
-23.1875515 -0.106042847 -2.10959649 
4.41119909 -0.146273091 -8.10293865 
-15.7619753 -0.142771944 16.5739174 
-7.50621748 -0.647925138 -13.5206022 
2.64530015 0.449591637 -18.0546417 
9.0737524 7.88879115e-05 12.7484465 
-9.76591206 -0.201192155 7.32781839 
-5.87788868 -0.193039626 -1.2773807 
-15.692235 0.392893076 -0.893881023 
14.989749 -0.241718784 6.45877457 
-19.5277882 -0.434793085 1.14638937 
19.318449 0.304056168 5.18052292 
-22.82794 0.0587802157 1.28699005 
15.410759 0.250766695 11.1294203 
8.69051933 -0.217218921 4.94746494 
24.4668922 0.490722388 -10.9875355 
16.8944187 -0.330959767 2.93098593 
-18.788908 0.078685984 13.611496 
13.8028212 -0.0523966812 -17.4527149 
-5.84815359 -0.144911304 -7.36767864 
-17.8891277 -0.294619024 -3.3738668 
10.1087313 0.266343772 -3.82431316 
16.8456116 0.248320326 -20.5323906 
25.1337872 -0.0823181495 18.5377254 
-14.5599127 0.553748369 -15.4330273 
-12.266778 -0.28083989 13.7474928 
-2.59589362 -0.205163002 -4.43543482 
17.0466499 -0.203645915 4.73575735 
-0.985612512 0.233720139 5.0829916 
12.410429 0.194364518 -6.16540003 
1.43079925 0.584752023 7.87088919 
9.03430367 0.413402259 -8.51032925 
10.5632343 -0.0193748064 -0.28724739 
-12.8038445 -0.285906106 10.7971849 
19.4582977 -0.786518812 -12.5623627 
19.0672722 -0.839789152 -10.0113401 
3.42047334 0.40762493 3.78973556 
10.3913546 0.476381958 -5.13450241 
19.6519833 -0.777452469 -12.6195087 
10.2495461 -0.0627795011 -16.3357944 
18.761734 -0.414159805 16.117691 
15.9363031 0.0222209059 13.2166862 
0.515936792 0.395034254 7.21476078 
-21.6186943 0.00534847379 7.73016548 
-11.8846998 -0.294252157 5.27599716 
-3.89273214 -9.673764e-05 -5.16892529 
-20.9929333 0.235133186 -5.132833 
-2.35771632 -0.00787920784 -6.915977 
10.9857349 0.160896465 -3.59566307 
2.16106558 0.0901961401 -2.76991415 
-20.2720299 -0.239991531 -2.37936831 
-3.76129484 -0.596639335 -12.4497004 
-8.85470772 0.00204165722 8.79984379 
4.61664152 -0.046098873 -11.514864 
15.8726559 -0.0667252615 15.5840006 
10.0401993 0.202040106 -13.083374 
2.24175072 0.11273063 -23.6044407 
-19.5963345 -0.285904378 2.18605709 
-14.5575743 -0.619038403 13.0984964 
0.374066651 0.116517179 15.9666624 
12.2345428 -0.250950962 -0.155298531 
-2.06481314 -0.255832344 11.8624458 
-22.3779469 0.629796207 15.0075674 
7.55974913 -0.0985396877 20.8412724 
-7.87171459 -0.11006698 4.46068239 
7.05786419 0.0621453263 -12.0613461 
4.28768539 -0.107991211 -7.65640926 
13.1089878 -0.214872107 -14.119997 
10.2898092 0.642674506 -8.98277283 
5.83098936 -0.144896254 -8.11630917 
-18.058794 -0.202457502 10.1522503 
-0.273994982 0.539270639 6.20322895 
14.4921598 -0.422219038 3.73105049 
9.4397316 -0.134149641 6.82746601 
-2.24103594 -0.235657662 3.14431214 
-20.2922688 0.172335669 19.4736671 
-18.3277283 0.402792752 -11.9380827 
-21.5490074 -0.00393160433 6.69760561 
9.32918453 0.31428355 -4.53361416 
-16.9338856 -0.330822796 -0.591179013 
-0.613026738 -0.0143138878 -4.21852732 
17.366827 0.192306265 -20.8825951 
-11.5205336 -0.0568383299 -3.75708604 
13.492672 0.0591838993 -3.95350862 
22.1791821 -0.319358706 -17.09482 
1.8655746 -0.025837699 16.6501656 
-8.56463623 -0.180192679 5.25250101 
-22.7975655 0.102088623 -4.81054354 
21.5022278 0.314670682 -2.67097902 
11.7560282 -0.280003101 3.09053278 
4.01262331 0.548307419 2.74595833 
-25.0096855 0.186179161 10.1496401 
0.230736732 -0.240498081 13.1180162 
20.3672924 -0.334504634 -6.8442626 
-8.89390945 -0.124179848 -4.16798306 
1.72010052 0.406410813 3.62556958 
-2.25004292 -0.173932821 9.55657005 
-22.663847 -0.156953067 -0.747277439 
-7.48933697 0.390899748 12.6416245 
21.2001667 -0.00434499513 -24.9447918 
14.6426039 0.377648383 11.728858 
-8.3924675 0.16084677 12.9373579 
11.5736313 -0.121636748 -14.8094091 
18.8062649 -0.318713695 -6.62084198 
-12.0650558 0.0881201699 -18.2998753 
-20.9312344 0.583217323 -6.43843412 
-22.7204361 0.314929396 -13.054142 
17.5033894 0.0252137017 4.65607405 
0.181125954 0.0605233163 15.5823879 
5.95343542 -0.0125414031 -12.2638445 
-7.43242073 -0.118716091 -6.48751163 
-9.30254745 -0.273799956 18.5815601 
-5.36220169 -0.12005838 12.3141136 
-20.0198727 0.437034279 -7.86972094 
-5.91757441 -0.0205315594 12.0436764 
6.6647563 0.157237217 -22.4379673 
24.3147354 0.493998528 -11.3523655 
-19.0301247 -0.534962654 1.05060089 
-23.8167171 -0.637881875 -19.2512989 
-11.1071825 -0.316876918 2.75378585 
22.877264 -0.373386621 -24.0222034 
5.85221767 -0.106151201 -3.26993108 
20.2785625 0.404056609 1.14994931 
-11.8439684 -0.420795083 -6.72847605 
23.3980179 0.171812251 -8.20545864 
2.23425555 0.246356755 -14.4139175 
-4.98327303 -0.0585258566 -4.59269428 
14.0000458 -0.446376175 2.10434341 
-10.1558056 -0.017520437 -12.950779 
1.47760737 0.0257185567 -12.2197104 
-20.3801289 0.43467164 17.6060028 
9.57755947 0.303153038 16.2868786 
-15.2319479 0.00710604852 8.8440094 
-22.8008404 0.111908063 5.80680037 
3.112082 -0.0502344295 -9.049613 
20.8340664 0.522171676 7.3838048 
19.7072659 0.298770756 0.181017295 
-13.4229603 -0.557477772 15.0458488 
12.0570974 -0.248288408 18.4487457 
-21.3726826 0.888515651 -8.7760191 
12.7639322 0.0930323824 11.2930021 
20.9702873 0.52836448 2.63295436 
-21.4848118 -0.434470743 -0.777392566 
15.3628387 0.0963637605 -1.74637449 
-0.119454384 -0.0424493328 -4.73734665 
-8.55965996 -0.276073873 23.2260895 
-8.0421505 0.16592823 12.2301846 
16.7420578 -0.0927436948 5.87025213 
-17.4892406 0.268907368 -9.94854927 
-10.5165577 -0.0780256465 13.2826643 
-21.5529747 0.487833172 14.8147621 
-4.2131691 -0.206347823 4.28844166 
3.017138 0.44513011 -16.8039627 
-22.121645 0.670647562 13.8542118 
-3.53857279 0.0260012839 -5.52714586 
19.5863457 0.209899813 -22.4649467 
8.18579197 -0.337449014 7.33433723 
-14.1594753 -0.255437583 -7.65358067 
11.3971519 -0.0664587319 -14.7428532 
-3.21580243 -0.543985486 -11.9063454 
-6.74986887 -0.0730162486 1.62342203 
-20.6345615 0.0454546846 12.4599619 
11.2219 0.69255507 -8.21253204 
5.38362551 -0.378313422 18.6011715 
5.17018318 0.223070458 -22.4484901 
-20.9424057 -0.204126224 -17.505022 
-9.04218578 0.16857551 13.0275784 
7.65800762 0.0310736895 16.8037415 
16.2680492 0.031177327 7.25065804 
-19.5380135 0.45266521 -12.282403 
18.5693321 0.211863756 7.37585688 
2.00696588 0.0740538314 -24.159586 
-8.93439388 0.181968048 12.6383533 
-10.2093096 -0.362684876 -17.8669662 
-15.6384068 -0.0863123387 10.3526077 
-18.2718143 -0.161533937 15.4141273 
7.33432388 0.215435937 0.952310383 
-0.543626904 0.302368045 -18.2607632 
3.18625093 0.545193791 -18.0162659 
5.5800395 -0.0667978451 -2.47237468 
-25.1714134 0.218255475 -1.57401943 
10.8268604 0.762667 -6.76618767 
11.8911219 0.291616976 -6.61325645 
-9.10317326 -0.286464959 22.207756 
20.4462166 -0.595167696 -8.85728455 
5.46406269 0.0901443139 4.86199045 
-17.6923885 0.611696839 20.4101105 
-0.41757834 -0.135858148 -4.90909815 
-25.1597748 0.455085784 4.40841913 
-10.042984 -0.0337162614 0.646659374 
15.6867867 0.234488219 11.0624657 
12.7409668 0.127235681 -5.93584681 
-23.2691154 -0.049316112 0.226391613 
13.9123898 -0.142021716 -15.0121908 
-18.8159199 0.0378674753 -9.70358372 
-7.86115742 -0.167846456 -5.92366076 
-21.3398132 0.39190805 11.9966383 
13.7474661 -0.515917897 3.11750555 
-18.7438698 -0.00619585346 14.7416 
5.48274708 -0.147467822 16.6400585 
17.1012897 -0.633865058 -6.20770931 
18.5883598 -0.761981308 -8.83894634 
-10.2472019 0.104234949 -11.4285564 
-16.7819633 -0.0877202377 3.45854616 
9.2705183 -0.169458151 7.72803402 
-2.23183203 0.0283595864 -17.73769 
12.3475552 0.0162004586 -2.80989051 
-6.81566572 -0.290180713 -22.7004738 
-6.05380774 -0.254962891 3.44469905 
16.7591457 0.0237459354 -1.52192891 
18.6122322 0.110466257 3.38739562 
23.4263592 0.298502594 7.33140278 
3.06803274 0.180634454 -2.77817655 
10.3520765 0.164314181 16.7592468 
10.8941832 0.289562196 -12.6819754 
-20.7752323 0.0160690192 8.82332516 
4.10907078 -0.0514107943 -6.85943222 
-23.2474155 0.528369308 -10.8652239 
19.5789967 -0.872230172 -10.8735199 
21.367197 0.25622806 1.35045147 
-5.47394371 -0.405094475 -18.7062683 
19.4003258 -0.394042701 -17.7300892 
20.7276592 -0.584571481 -11.2866812 
19.2983856 0.113640547 8.18634987 
10.2587566 0.0533477888 -16.9518394 
-4.60770798 -0.205799565 12.1588497 
2.68689871 0.515546262 -17.2441368 
-15.4650297 -0.0842785612 -6.85243225 
15.6811438 0.00376351899 15.1300278 
23.4338608 0.174170271 -11.6993589 
-11.7619791 0.0226184186 -2.67569184 
21.3074532 0.000922124367 -4.63238049 
-8.03739929 -0.537820816 -13.7552471 
-6.30025148 -0.107405208 -7.41315174 
-13.7765541 -0.127384216 -8.58205986 
-10.9378624 -0.218030408 3.76513433 
5.26936436 0.139663592 -24.4647865 
-7.01869297 -0.246250927 4.80730009 
-7.19711494 0.0508336797 -0.0946218818 
21.7711086 0.351474434 2.22527599 
-11.5608444 0.12256892 -12.244853 
0.439358175 0.0315551423 -3.25374699 
-3.26911259 -0.202829063 8.767663 
23.2116604 0.5318591 0.687397361 
-4.79748917 -0.319455117 5.59598494 
2.17159891 0.0718268827 -6.1858573 
-24.1492901 -0.0973692164 -1.26793003 
-15.5164194 0.061223343 7.01537371 
-22.640995 0.575998724 14.4928207 
-16.6928368 -0.159622207 -0.445789814 
-1.17929888 -0.0535766184 -3.10289717 
8.75521946 0.223776191 -5.40226126 
-11.7008677 0.0985736996 -16.3658161 
-13.9026604 0.0632394478 -11.2582607 
12.0308819 0.149701923 -4.1544013 
-6.11634636 0.405045807 18.9691982 
-18.3129311 0.218144 -19.2032661 
-24.9327698 0.509489179 5.35128307 
-20.9614792 -0.0840978697 7.40078068 
2.68624282 0.201302439 -12.7413902 
17.2985287 -0.148310155 9.65543556 
-10.3321018 -0.24817352 6.04713869 
24.7641068 0.0270972792 -5.60764313 
-19.9453773 0.0584938303 -17.3245659 
-5.4046731 -0.622015774 -10.5335636 
-18.1404133 -0.541426837 0.520417929 
16.1147957 0.178157389 -15.1091175 
-21.9720058 0.219171479 18.6669044 
11.8510933 -0.135109916 10.2254076 
-1.76953983 -0.166683853 -3.20173264 
-24.0568008 0.238792226 5.7988863 
7.43107986 -0.0437631123 -3.84130001 
15.4662781 -0.311738282 -4.89843273 
11.3156528 0.374973446 -12.3010979 
24.0422173 -0.344293565 -18.0743694 
-0.940782189 -0.244233936 -5.71544552 
5.19544601 -0.0618042536 -5.10033083 
10.6955166 0.713961482 -10.4929705 
8.93410206 -0.0249495897 -0.0541635975 
23.4442596 0.247919381 -10.932848 
-4.5797224 -0.0822670087 7.74984503 
-12.049345 -0.12107674 -3.56401682 
-21.0666885 0.295339495 12.0593643 
-4.64300203 0.133120567 13.6225615 
0.823850632 0.430100977 4.12185907 
1.41910648 0.382383436 -17.3572445 
-0.200506866 0.054495018 -15.6728487 
-11.2697611 -0.291041255 -5.60719442 
14.0338697 -0.319339395 -6.82834578 
-0.681387424 0.372569144 5.25914335 
-0.709303737 -0.103664547 -15.1511202 
7.90154505 -0.0645409673 -4.50004625 
14.3688965 -0.0897992253 17.2788773 
16.7883263 -0.129691049 -4.48704433 
13.5008602 -0.0689607114 -18.3986664 
-6.9784832 0.200888827 12.7707577 
13.3625154 -0.108316205 -8.44082928 
21.9324055 0.0454807542 -4.1099515 
-15.5825558 -0.0327094831 -7.07852268 
-23.7184353 0.275128812 14.8389807 
-15.3533688 0.1409107 -9.6543169 
17.0154705 0.473002553 -16.3703747 
6.00763083 0.276226491 0.0356099606 
-8.11603737 -0.0845356807 7.89488125 
-21.7064114 0.388118088 -5.69582939 
-17.46558 -0.171864539 7.86812973 
24.6697636 0.0122002792 14.2200613 
3.80038214 0.458981901 -1.39273322 
6.66218853 -0.193363845 17.5669575 
17.4271049 -0.245304957 1.38912332 
11.7211971 0.704293251 -9.37679386 
-21.9356899 0.069758743 10.4649973 
5.96698427 -0.163989916 6.18397045 
1.29887938 0.51965785 7.48506117 
-12.5673103 -0.388394445 17.5624237 
5.99141073 -0.176894858 23.7762985 
8.35073757 0.066731602 15.5659256 
19.1976433 0.217098832 -24.4472523 
-16.8975201 -0.123672523 4.0363822 
-24.8724098 -0.0190159976 -2.28080654 
-2.88673997 0.0126977405 -4.94873142 
-12.8569202 -0.0791787952 -2.84665346 
-1.05425191 0.228836015 6.63382673 
-24.7618465 0.033957921 -1.71664453 
-11.1746931 -0.2061795 8.14570045 
17.3184681 -0.0527251922 -3.64635563 
-21.853054 0.609213233 14.8345575 
-22.422184 0.319650203 -7.14557886 
-1.57318318 -0.186847866 -15.1970959 
4.45433664 0.161570966 -4.23059845 
-12.6251373 -0.240578368 10.6199055 
3.58865142 -0.0393318012 17.35075 
12.361166 -0.306770593 4.8646102 
-23.4821758 -0.0408406965 10.0855083 
-23.3187504 0.093366988 -4.49355888 
21.3207283 -0.251379013 -7.70991755 
1.01543605 0.0832946897 -1.40932393 
0.84708637 -0.177084729 -9.0838232 
4.50169611 -0.0870129168 7.93561268 
-22.8801632 0.500993848 13.81707 
21.861948 0.398013443 1.9106971 
5.72702742 -0.412139952 19.3068848 
-23.1844635 -0.0783738047 -0.0586198196 
22.7835484 0.0552371256 11.9739847 
-6.19305944 0.083031781 -5.74744177 
-19.2376823 -0.412485749 7.06746817 
-16.7174416 -0.177280664 11.1608639 
3.37629962 0.185069934 9.34758377 
9.80442142 0.336762071 -4.31479168 
-18.2913857 -0.0618175976 13.7907743 
-23.3045654 -0.0761479884 -2.29836917 
17.1382675 -0.129582867 10.2843571 
18.6902771 -0.0967851132 -21.2572441 
8.00739479 0.148067057 -6.24715853 
19.4889908 -0.135539159 -6.48725796 
16.3286648 -0.163808912 -3.47719812 
-19.8057022 0.00325524225 8.97917652 
-4.02177095 -0.534884453 -16.026001 
-14.2522039 -0.240088463 -5.31460047 
-21.6771374 -0.392313838 -0.261873424 
24.8898335 0.409466565 -10.1915932 
-15.5194521 -0.0956476927 -4.80908298 
22.7125931 0.42645821 3.67158556 
5.93322945 -0.120255858 -11.7521086 
22.3386078 -0.0792143866 -5.2421608 
1.51446652 -0.079917118 -8.09074116 
-18.1992626 0.32317403 18.1481037 
8.46426582 -0.249657229 3.9344461 
-16.3001156 0.385055959 -9.46151733 
3.73845267 0.246404052 6.14674568 
8.98609924 -0.030912051 -20.0745888 
3.40510368 0.180202097 9.51203918 
-9.62894917 0.0637873635 -5.35947514 
-21.0492039 0.837661803 -8.78898621 
6.2424202 -0.0555933975 13.0404119 
-17.8046017 -0.195832342 -3.85366082 
23.7166214 0.2351733 -11.7581081 
-6.99251318 -0.208458945 5.64472675 
-9.54868317 -0.506289124 3.4359405 
17.2845497 -0.0870151296 -3.00145388 
18.8317299 -0.497851193 14.5161285 
3.81013012 0.0778610632 8.37216282 
8.46548843 0.140098453 16.5380402 
22.2320614 0.452220917 3.18142486 
-12.6778603 -0.255723566 12.5007954 
11.6170225 0.0923899263 -13.4293098 
18.0619717 -0.198232532 17.0656509 
-24.4915428 0.0599007979 0.0719160438 
18.7629089 0.14852494 6.06519699 
0.618053079 0.277032256 3.14375758 
2.31179953 0.476746798 -20.9351978 
-11.1387358 -0.466248453 -8.84605312 
5.47741556 -0.216670364 17.3364735 
-23.059679 0.0866836309 6.46368408 
1.89832544 0.205019698 1.5602299 
22.0693684 -0.00850052573 -4.24525023 
-6.7834816 -0.29058519 3.99375033 
-1.47009468 0.097161971 -17.7124653 
-14.1697121 -0.235162169 -8.80341148 
24.6553783 -0.297071725 19.2318993 
-22.1486435 -0.147421584 -1.52380323 
7.25061274 -0.152655765 -2.91532898 
-16.1905365 -0.058770977 -3.57148862 
-14.5394468 0.221499443 -12.6426983 
18.8279266 -0.255039304 -5.76729631 
0.759230137 0.477453113 4.22737217 
-3.0921061 0.24925895 16.9495373 
16.8979969 -0.00144753256 -0.360236287 
-23.0706425 0.101923138 -4.67188931 
-4.98275852 0.354725003 16.1771832 
-13.2309065 -0.360167801 17.2353973 
11.2163124 0.193473369 -4.01524591 
20.6919651 0.620821536 6.74260855 
9.88622952 0.523380637 -8.59329319 
-7.0298872 -0.404521316 8.96109009 
22.9076366 0.212603018 -1.58136535 
-1.04043388 0.230619401 6.31741476 
-11.5566263 -0.439203113 -9.51078129 
16.4849854 -0.41532284 -8.29807854 
-19.6019535 0.157236159 13.8908606 
22.9647617 0.161765918 -9.96548748 
-7.18888378 0.433425963 14.6701078 
19.3653946 -0.18208085 -4.72030115 
19.9358463 0.412077397 3.44925046 
-14.7072029 -0.00780623313 -10.0552444 
23.6575012 -0.127580315 -14.4412556 
-5.34757376 -0.180634663 23.4170952 
-20.2240906 0.543553591 16.2671642 
18.179985 0.155253083 4.9727931 
-9.5729208 -0.403099179 21.3700104 
-4.14409018 -0.325497687 -0.541971684 
-11.7095547 -0.446315259 -5.43086767 
0.426974565 -0.163159847 21.973959 
2.42960548 0.0749904811 -3.74999642 
6.89550352 -0.185787052 11.0710058 
17.3526707 -0.520500302 -7.37349319 
3.9879837 -0.00307779456 -10.9524364 
5.73427296 -0.308975279 10.1216927 
-14.168704 0.303633958 -23.4929218 
-24.2348671 0.211520806 -6.47960997 
23.0713501 0.000974579714 12.4134378 
1.45248711 0.0244265553 -3.88019109 
19.1368561 0.316992462 5.37483358 
17.204134 -0.656332016 -6.38844395 
3.67281675 0.270268202 -4.1042304 
-24.1176701 0.153768137 0.698225498 
-25.2275772 0.310857177 -0.191281289 
-17.8626213 0.126043454 -7.34119654 
-3.96458054 0.726010561 19.2303619 
-14.2586479 -0.165926337 -4.94912434 
14.6102257 0.269147307 9.4835968 
11.8917408 0.151899904 -3.89021707 
-11.471034 -0.32518208 5.88439989 
5.91946507 -0.214886814 -4.86895895 
-20.9008923 -0.284481704 4.06071949 
-24.6677456 0.0948046297 -5.1095705 
24.2931347 0.310757399 -1.16892517 
-12.7439709 -0.210303053 -3.97431874 
3.29000115 0.221971393 -4.2407732 
13.0548515 -0.0665458292 -8.04032612 
11.1402531 0.707967758 -7.28455734 
-3.78302574 0.242089823 15.8462715 
-15.0852308 -0.0110986391 -8.15398121 
24.6058064 0.00903479569 -5.50278568 
-20.6755562 -0.0492477454 -3.57328415 
-12.5342007 0.149305716 -18.6764851 
-24.4078884 0.0659505203 -3.96986008 
11.4374409 0.172237858 -13.2036657 
19.6294231 0.0440827198 -1.61430275 
23.1015072 -0.16302973 13.9902849 
22.4429016 0.0573419631 -9.34557533 
17.2653599 -0.555354714 -10.1909533 
13.7309294 0.151444957 10.7855043 
-6.53321552 -0.810086131 -12.081831 
-19.6849861 -0.265276432 8.13405609 
-18.5413284 -0.0456826761 -22.7132969 
2.49201727 0.0754217654 -6.85281754 
-15.4122009 0.433493078 -0.878650844 
-6.7759409 -0.215106472 3.28605986 
-4.63224363 -0.291971833 5.57075787 
12.8182449 0.103533193 11.4667139 
3.8734405 0.464368194 3.9046104 
8.12043476 0.0589384548 14.4823046 
20.1574516 -0.164126545 -5.89451408 
-13.8158646 0.186245427 -13.145813 
13.9667168 -0.078440465 -0.589268088 
-7.91526222 0.187318385 12.3087282 
14.9603138 -0.248620749 -6.14236736 
-9.18640804 0.0117807798 9.49240112 
-24.6254635 0.259487808 3.20111942 
24.765007 0.293620348 0.956846535 
-17.8365154 0.0753064975 12.8652849 
16.6290398 -0.429068416 -7.88567305 
16.7089252 -0.445322126 -8.5198698 
10.8364964 0.111286432 -2.05905128 
-11.3143005 -0.0240861438 -17.058176 
0.515222728 0.0935108885 -2.61890054 
-7.40563297 0.433330834 13.1214695 
15.9345331 0.195708156 11.1304865 
1.23221183 -0.134162933 0.412545711 
15.5313206 -0.0985610634 -3.45272708 
8.90196037 0.315859616 -5.63459158 
18.2728729 0.0977541655 6.39715147 
-20.926033 0.421248555 -12.1920233 
10.3947115 -0.0607653372 0.29028213 
-24.0904121 0.292698741 5.94780111 
-12.71982 0.356226742 -14.325633 
13.4712553 -0.121244647 -8.05315304 
18.9707317 0.0734167844 -2.94358158 
-12.8174467 -0.243209243 -4.18922949 
7.7269311 -0.00876092725 -2.58405161 
-10.6773806 -0.31223774 3.14472556 
-13.1930246 -0.222250968 -5.45170641 
-14.273283 0.209719792 20.745224 
23.3121777 0.067355983 -5.11356926 
7.14696074 -0.126911893 10.9788761 
1.0734942 0.369815469 3.39473772 
24.3419724 -0.155139491 17.1428623 
-13.6860819 -0.104081891 24.2604771 
-14.5292473 0.756018102 -18.0702591 
21.2133274 0.326088309 -1.41984022 
-0.29161191 -0.241307676 -5.72882032 
1.32964504 0.467600971 5.00659132 
17.0522537 -0.206896111 15.1699591 
13.2042084 -0.430136204 1.95603919 
-23.312254 0.384402484 17.8235283 
-24.1073761 0.180902854 0.962218404 
18.4558907 -0.113145523 -16.458786 
16.0946045 0.0571034886 -17.5123711 
-2.97673893 -0.114327349 -19.0205803 
2.78256178 0.135538965 -6.01147795 
15.6668062 0.161014542 -21.3035851 
6.23078108 0.0403709486 -12.9964552 
-5.35423994 -0.00719015067 -6.48164177 
7.82537794 -0.0185482595 3.10370445 
21.4477329 0.336418539 -1.92098773 
-3.97549939 -0.188631073 5.02090311 
19.1482639 -0.227966756 -6.53386641 
20.5183334 -0.593193769 -12.7972088 
15.9201899 -0.0160188433 -17.2826309 
7.25003433 -0.363457978 8.96603394 
-6.76608276 -0.345796317 -7.80948019 
0.661535382 0.332318842 3.55864477 
5.44409275 -0.115129121 -9.67377281 
14.9586096 0.0803498402 8.04018784 
4.63462591 -0.17653814 -7.87168932 
-15.6362877 -0.00843052007 3.60618091 
11.0672073 0.582374811 -5.72605896 
21.2729588 -0.233700231 -6.23033381 
17.9547615 -0.110506378 -13.7518663 
-0.279664189 -0.130836412 -11.4467831 
-15.7132711 0.10533531 -3.27644396 
6.82627392 -0.0822425112 -3.77716851 
14.5758133 -0.000727443956 -3.70004821 
19.5148926 -0.197841048 -20.5410709 
-22.1664639 0.0755127519 10.649333 
22.3141289 -0.0249209534 -4.40170813 
-15.9184122 -0.0989118591 -5.52659559 
-6.5154624 -0.0874233097 1.73209941 
7.72882748 0.0794609934 -7.64370251 
4.93202877 0.20849818 -23.8299713 
15.628933 -0.409559131 1.2139281 
-17.7533875 0.466809094 -11.6207838 
10.5788803 -0.264258176 5.08719063 
-11.8101673 0.244362831 -13.2013559 
-24.1954784 0.143891141 7.67441654 
-14.3591318 -0.0821304247 18.4453449 
-8.27766895 0.324212581 14.924819 
21.7239952 -0.402099818 -11.8360701 
11.3870983 0.140206128 12.3194761 
19.7462254 0.0746792406 -1.82297039 
3.75423741 0.0857432261 24.7921429 
-18.1350975 -0.252623975 3.0995512 
14.4823418 -0.365771651 -8.26786423 
-9.71395969 -0.333608955 17.9965057 
-20.6093788 -0.301782221 4.62632704 
-13.5171108 -0.49841556 13.6689186 
14.4407253 -0.107002601 7.62535191 
14.0932198 -0.323781997 -10.3268766 
-8.03347015 -0.550159574 -12.9391537 
-14.4022799 -0.18648079 -8.27624702 
19.9526939 -0.685816109 -8.58643532 
21.7807083 0.662598133 5.03877831 
20.4212246 -0.0938383862 -4.60381794 
7.29177284 -0.379175633 7.10475063 
19.6699619 -0.874036968 -10.4925947 
3.38707018 0.474239767 -20.8492718 
18.5051537 0.101555102 3.66914368 
-22.0874023 -0.0479395129 7.29789019 
14.0952377 -0.149542302 -5.73485184 
-21.6951923 0.0948542655 -4.78526115 
3.83875346 0.152095973 -12.6695251 
-0.617430806 -0.0711480901 -10.1877356 
-13.9343309 -0.0594872497 4.7046442 
6.23418093 -0.107638672 5.10323095 
3.1675992 0.122401223 -5.14571476 
20.6750259 0.306913644 -23.7875156 
9.34421444 0.454450846 -7.92093325 
-6.02099514 -0.432095528 -13.9397268 
20.2673454 0.32552284 5.48935366 
2.30476451 0.376080632 6.83111095 
-2.14667702 -0.0332485102 8.34897041 
23.7541218 0.372227758 -1.15799975 
-22.0379257 0.640013754 14.6090069 
-8.37569523 0.134714857 17.4232044 
-18.6255894 0.150469035 -8.12215328 
-11.9756832 0.149598479 -12.728652 
2.49867177 0.52952677 9.64902306 
10.6870708 -0.0786074996 1.10821855 
-22.85882 0.431029081 13.2964363 
24.2897358 0.133451939 9.26960182 
-6.38018036 -0.463269889 -15.8871441 
17.8234634 -0.12091025 -13.5839357 
12.6016779 0.02277321 -2.50588226 
19.856102 -0.266422361 -17.6618042 
13.1772499 -0.255489588 19.9489841 
20.0070343 -0.307159692 -20.4386368 
-6.0101428 -0.610062182 -12.6618166 
3.24420404 0.125360787 15.404336 
23.1604786 0.259787679 -7.40065575 
9.81569004 0.435322046 -9.94519329 
-23.1775017 0.400234878 14.4181833 
-16.5923615 -0.123534322 12.0212727 
20.5132847 -0.390295357 16.7849522 
9.62052345 -0.129904345 3.36189508 
11.7900639 0.216767222 -5.52861834 
-14.7459297 0.144157857 2.49060655 
-20.1264534 -0.299372286 -0.691622615 
-1.54107022 0.186728254 7.09781742 
0.480091006 -0.282415122 -7.097929 
18.0037823 -0.0913426057 9.53796768 
-1.58426619 -0.181710139 -1.72720909 
16.4978428 -0.308795869 -10.5762548 
5.66520357 0.160884023 -12.9339705 
3.36808062 0.184456944 13.5296869 
-19.4456367 0.374604195 -12.0713043 
19.3120174 0.254604638 -24.4020424 
-14.5689411 -0.108324416 4.52848482 
-6.3295064 -0.0758931264 -3.06996679 
-14.6692982 0.642479658 -17.2524128 
-20.9524307 0.802519441 -8.3349123 
-22.9930382 -0.043880254 -2.59986591 
12.6376753 0.0297915358 -7.32607794 
10.7345533 0.0111070741 9.99609184 
21.2694836 -0.190175101 -17.6532688 
-22.1350822 0.094631128 4.68747616 
11.8693275 -0.202153727 -17.3421326 
8.82157803 -0.317808062 6.91959906 
-5.09057236 -0.21969682 -7.62994385 
-16.078186 0.269340217 0.68185097 
-14.3995209 -0.560495436 15.4231377 
-15.2417316 -0.242628276 17.8061218 
11.6262236 -0.255473495 -16.0771236 
-0.933165193 -0.0539491661 -3.30400324 
11.5002871 0.537429392 -7.85636187 
13.4301472 -0.138731837 -7.36068249 
-12.2414503 -0.121094003 12.2943916 
-22.6186886 0.228538767 -6.86240387 
5.55257797 -0.126056269 -9.09014797 
16.0941238 -0.43110618 -6.21329975 
-12.0845642 -0.198986351 4.08358383 
4.66142893 0.162904575 3.78117943 
-1.28495824 -0.240681842 13.1334505 
23.8947926 0.139094353 -4.0270505 
-0.546098351 0.0166168343 9.78463078 
9.93508625 0.398158371 -5.86979342 
22.04039 0.577451348 6.83178902 
-1.65346062 -0.0198134109 -7.27350044 
-21.3479233 0.907044888 -9.04076099 
19.1124363 0.098863624 7.25491476 
23.0612659 0.464966893 1.60002697 
17.7806568 -0.515935838 -7.35162067 
-12.6844559 -0.0974427238 5.33358955 
-20.4228649 0.114310063 10.0072165 
7.52592039 -0.0039282497 -14.0021744 
21.7484074 0.596128464 7.21069956 
23.3781147 0.462589115 1.04722154 
6.6621747 -0.137492001 15.5289431 
7.12958527 -0.197486356 18.236517 
-2.68146825 -0.145336837 13.6274757 
17.582077 -0.0203366075 3.74676585 
2.40308356 0.0607492216 -6.25806999 
-8.29294109 -0.034275312 3.78538775 
-22.1865101 0.498350024 -11.8976355 
5.54892492 -0.345947355 9.85087204 
1.78248358 0.413557738 4.1269145 
0.133208126 -0.00326711428 17.6019707 
-18.0880642 0.527713418 19.8523941 
-17.6537342 -0.265967429 4.37493038 
12.4943123 0.218505248 -11.4230003 
-7.86948776 -0.577817559 -13.6594677 
10.530962 -0.148140267 2.81747556 
-23.930418 0.231993228 -12.3117065 
13.7788305 -0.258918464 -7.92654991 
-15.7248602 0.125662148 -8.04336166 
-16.9861336 0.498181105 -13.7440901 
-2.90204 -0.255471259 -17.3041153 
6.23075151 -0.138594136 -3.94421053 
6.92461395 -0.421140045 7.13649416 
7.99867201 0.0169077348 -3.06157875 
5.95797586 0.214801222 2.23759031 
-23.1586609 -0.528876424 24.9839783 
24.0687408 0.360628456 0.44217211 
17.5465126 -0.047717683 12.0830069 
-7.81559753 -0.375106186 -8.11332703 
4.64691353 0.00956806354 -3.54058957 
8.44063663 -0.0428803451 -4.32426214 
10.43396 0.27394399 -12.7912855 
-9.64308834 0.0610463098 -10.2291012 
-14.4671955 -0.591180682 13.8598576 
-15.6581945 -0.39605701 12.1047878 
21.8136711 0.560980797 7.49445772 
11.1957188 0.441199154 -5.22676706 
-18.9635315 0.236423865 -10.6679029 
10.1493006 -0.0471586585 -17.7661533 
17.2057362 -0.41684702 -5.28487587 
4.20690155 0.454037786 0.731447041 
9.54318714 -0.0826350078 5.97844219 
10.363266 -0.0575687587 0.146530598 
24.0116596 0.0978186801 -4.59417772 
-4.39922905 -0.427608073 -8.5778389 
3.99188471 0.217753857 5.78102875 
19.0514584 -0.253540307 -15.1449986 
24.02318 -0.125484928 15.0627813 
-8.15745354 -0.123956434 4.56424236 
-23.978138 0.307453513 1.84703672 
-20.7069283 0.0605515651 9.15371227 
20.0412121 0.4427194 4.30318308 
1.64394128 0.373413295 5.0156374 
17.0558605 -0.198991224 17.3398361 
-3.42043734 -0.314208955 10.1081448 
4.68461132 -0.124217689 -9.45507145 
-23.0523415 0.499916822 -9.20218086 
10.5266781 -0.157123938 1.25795865 
23.0680733 0.169542193 -6.09691 
15.3077726 0.0121469619 7.28294516 
0.1997035 -0.24253124 -9.44795895 
-13.4327679 -0.197121546 5.74231625 
-22.5922413 -0.219007805 20.2958031 
17.3272552 0.0156563446 7.87713146 
-9.08390045 -0.145948395 -7.40807629 
13.6565657 -0.110802546 -15.2223415 
10.2556429 -0.119742565 9.76766777 
-13.2563686 0.0694000795 -11.404932 
24.6908092 0.156193078 -8.11749077 
18.9407825 0.147697642 3.93773317 
10.635128 0.824344695 -9.79661083 
-21.5972366 0.467199922 12.964097 
-2.85771132 -0.0722794831 -19.0953903 
-10.430727 -0.221206069 5.36080408 
10.1793633 0.442893237 -10.5467844 
-4.90726089 -0.00445295591 -3.84327197 
17.6701908 0.0358204618 -18.9405537 
-20.0026989 -0.270455837 7.57258177 
-16.6421394 0.378474265 -11.6672258 
-10.2636938 -0.366234988 15.7659369 
11.9322643 0.30023095 -12.2967777 
24.5347328 0.353377044 1.24350917 
6.0359025 -0.0814703777 -6.54508209 
6.52309895 -0.0713163465 -6.88733721 
-12.6425991 -0.310184807 -8.5894537 
-22.3649788 0.188326254 -4.6414814 
6.71050262 0.111926809 -11.4020348 
5.48982811 0.0834737122 -19.1370621 
-5.1214571 -0.101053849 8.99481201 
-12.6410818 -0.429324716 8.36758137 
-13.8716908 0.383576781 -22.53438 
-17.4253922 0.476673603 -12.1189585 
-6.3543129 -0.644294262 -12.6416559 
-16.9683514 0.406932324 23.9367485 
13.224596 0.292960316 13.4939613 
-0.49837321 0.394219339 6.40687323 
6.93595839 0.159293428 0.560202956 
1.92289805 0.0504643284 -7.02889538 
-14.6048908 -0.55489701 12.5980244 
4.91319704 0.015284474 -5.1705699 
-8.12173271 -0.147728786 5.8539238 
-0.304264188 0.550737917 6.4848671 
0.0430891812 0.173714757 8.79220772 
21.0379295 -0.55600965 -15.5007133 
-17.209301 -0.123161018 10.8731174 
-21.6582146 0.562175989 -11.5913916 
-20.8796501 0.284577161 18.6390839 
-1.23762846 -0.0996489972 -2.38576889 
4.02684116 -0.0267135706 -6.99998522 
22.0563278 0.339423358 1.05107689 
-11.2769737 -0.238500997 7.00504589 
16.5531521 -0.3953605 3.23491359 
5.31335306 -0.374341369 18.0829983 
4.6548481 -0.324249178 20.7782764 
20.1306839 0.128056467 -1.79781842 
15.9720201 -0.314273059 -9.75124931 
-3.52499294 -0.297621965 -8.37804222 
13.0781984 -0.0478084162 16.3403034 
0.114638537 0.0744143724 -2.82951307 
17.8868465 -0.488555491 -6.47285366 
-17.9515762 -0.348839641 6.10937023 
-17.4797039 -0.201152802 6.9285183 
1.10887432 0.3195512 -16.3359337 
-21.5319347 -0.05903304 3.14793515 
9.69318008 -0.14953801 -19.2417316 
17.1843834 -0.348416597 -5.1424427 
-2.82011604 -0.171330452 8.84677696 
-5.9780364 -0.329495132 -19.0754604 
8.73197937 0.330222398 -8.33739948 
14.4837666 0.206343934 10.4610901 
-5.33072424 -0.604178011 -11.7887335 
13.1389065 0.0279794745 -20.7621231 
0.415489674 0.28027156 3.44512796 
24.0023346 0.500567257 4.30651855 
-7.42369986 -0.00854665693 -3.53178501 
19.176775 -0.649782777 -13.4095879 
-2.95869827 0.0645428747 -5.21331215 
4.97670746 -0.154400349 -6.34000683 
17.0374031 -0.367198467 -5.19611692 
5.42568731 -0.40236631 7.99353123 
-24.2592525 0.246216685 3.28979015 
22.9926872 0.0687555671 -5.19278812 
14.2882061 -0.169349611 -17.5313473 
16.5712242 -0.498038173 -5.90777636 
18.6538849 -0.538637877 -13.401474 
24.7317638 0.26542297 12.5513783 
17.0268478 0.229704022 -14.3679285 
20.6311264 -0.415012211 18.485899 
1.77944696 0.522013664 7.91052866 
24.8281841 0.441984445 3.8718307 
-16.3266048 0.540775299 -14.2197199 
19.5568314 0.333678991 0.766587257 
-21.8282776 -0.0838225782 2.17034817 
10.2525225 0.646418512 -10.0211821 
-7.34084606 -0.6798383 -10.8020906 
1.50240648 0.5687778 7.51740217 
-18.0243015 0.299206465 -17.7892456 
-21.6431236 0.00298521318 7.47248173 
0.0405688733 0.289467067 -17.9269676 
9.2975235 -0.148802727 6.0766716 
3.22103643 0.179182768 -4.51842642 
24.5797291 0.279702812 9.38847351 
5.21206665 -0.0687196851 -6.17942429 
7.85249519 0.128910676 17.5354939 
15.6597776 -0.116294563 16.3794193 
-4.75106239 -0.284124285 -19.2536316 
5.54970217 -0.112439074 -5.42325068 
4.42137623 0.00752605079 -5.79220629 
-14.9851751 -0.0899535492 8.70371628 
22.3742027 -0.0298832599 -4.27431631 
-19.9436531 -0.319471598 7.43690586 
-14.0166006 -0.371880591 17.002243 
-24.2847118 0.109203115 17.1583424 
13.3151598 0.0136196576 -10.9169226 
-13.3157015 -0.225096688 -5.13296223 
18.5731297 -0.278508484 -17.4852753 
8.87347794 -0.128048152 -15.7892923 
-18.0498981 -0.384178698 5.23193407 
14.4165602 -0.312866598 5.73359776 
-18.0752106 -0.037015222 -5.28970432 
8.86120701 0.0396997705 13.9502172 
-16.5267448 -0.0398564115 3.85136008 
4.88118124 0.0994149372 -12.9940224 
-4.90669775 -0.594907463 -11.9368525 
15.1582718 -0.312828153 -6.97909164 
0.35286808 0.285325736 3.85072803 
-21.2828045 0.639424741 -11.2145472 
19.0325089 0.157196715 3.78233075 
-17.1666088 -0.125249788 -4.26214743 
-1.44964981 -0.0929831192 -3.46622849 
-18.3375835 0.00601030514 12.7536602 
12.6393185 0.0984511971 -8.68305397 
23.1516228 0.152326971 -11.4296589 
16.5635719 0.0938991308 -21.5954399 
5.98453331 0.113545649 -16.4791031 
23.2977448 -0.225205109 -18.0116253 
9.21945572 0.453922004 -8.14853668 
-0.332173586 -0.123722032 0.601168334 
-17.5052338 -0.170909673 3.04682469 
3.93668461 0.275426596 -16.1572895 
-19.2965679 -0.480560452 0.855753481 
14.535243 -0.210965872 -17.3349857 
-9.52034378 0.0311674513 -4.67243195 
-13.3385944 -0.472515434 13.41364 
-10.9740725 -0.308526725 24.6027527 
5.50243235 0.22446166 3.04082465 
-15.7932806 -0.0539084412 -3.7734313 
-16.5413055 0.346464068 -17.7147121 
-10.746376 -0.245700359 6.06341839 
-19.229353 -0.216435641 -4.03403807 
-21.0088539 -0.284036338 -16.7690563 
-8.69914055 0.0167636853 -0.459946275 
8.80585289 0.19352667 -12.7131824 
-14.3502932 -0.27324596 -6.06896448 
-6.83169985 -0.19799383 -2.22790098 
-7.96735334 -0.163227528 -4.60553122 
20.9052048 0.164664134 -2.74224806 
23.861702 0.455364585 2.7717669 
-13.6560707 -0.190744475 -4.00362635 
-24.0629368 0.235269278 12.8627224 
-6.12619019 -0.348069429 9.51310062 
-10.0156946 -0.0985447839 14.1524639 
22.1342411 0.151520684 -8.5273447 
-4.23525286 -0.146990165 8.47829342 
-21.2917347 0.778696179 -8.20118237 
13.2154589 0.122411363 -5.46999693 
17.5105591 -0.00515100313 6.55076694 
15.2458868 -0.0787602812 6.93307638 
