ply
format ascii 1.0
comment created by gply, a Houdini tool.
comment converted from .[b]geo
comment for more information about Houdini, try:
comment www.sidefx.com
element vertex 1269
property float x
property float y
property float z
element face 0
property list uchar int vertex_indices
end_header
21.6544876 0.123868719 -3.56413269 
19.7296429 -0.162939906 17.8625431 
-7.80288553 0.476155192 13.6568823 
21.5206814 0.0171453748 11.9095497 
4.16340351 0.404096335 -0.294357359 
18.1362209 -0.660277605 -7.81942987 
-23.0829525 0.698157609 -9.76343346 
-10.0470963 -0.100808062 -9.30131245 
18.9291401 0.269358486 10.3562431 
5.19485331 0.0640929416 13.8363199 
-17.3119583 0.0823849514 -6.40434837 
-14.8964367 0.334774882 21.238224 
5.18278885 -0.323205113 8.58013916 
-7.23070192 -0.00405488815 -0.597308099 
17.4069328 -0.768421471 -8.57887173 
6.10600567 -0.258906543 24.4688568 
21.9313889 -0.181611285 -17.7952003 
-1.9049443 -0.156151548 -14.6739788 
3.97091508 0.175111368 -20.5325546 
7.75705194 -0.181508586 22.9217987 
-22.2256546 -0.092376411 6.0330987 
-23.076046 -0.261800677 9.42963982 
18.2524834 -0.184450045 12.2559519 
21.766201 -0.263646185 -11.9783363 
-11.9824982 -0.166675702 -4.61760664 
-8.33773518 -0.104802229 5.58254433 
-23.6550827 0.607271552 -10.0548172 
-22.6871948 0.484269887 14.2317152 
-6.16543102 -0.256008416 2.24764824 
9.0192318 0.363806039 19.0235672 
14.0535631 -0.355786443 6.86931849 
2.39629006 0.358390659 10.9091597 
2.93960047 0.103050746 -9.59900093 
5.63240099 0.0955963284 -7.42967129 
19.3958225 0.362795621 0.107246764 
5.63257647 -0.0754811466 -24.1127338 
-12.709734 -0.0239960197 0.568870425 
13.0925274 -0.440024346 -0.66247052 
1.9859308 -0.284391105 22.7999592 
-17.4471779 0.547091186 20.4135189 
-7.45749044 0.447150916 15.987752 
-16.205595 0.225602031 -23.8884945 
-16.1825657 0.0308500268 -10.5587454 
5.82580471 0.165333927 -0.85121274 
0.0672694445 -0.0492978022 -2.78706431 
-12.5533705 -0.0372409746 9.89571285 
-12.1004324 -0.167808995 -11.0403919 
2.97244906 0.197067574 -8.18846798 
-23.3178844 0.665421784 -9.67625523 
-13.6236715 -0.46212858 13.5206938 
-12.1530142 -0.177542076 -11.1732607 
9.73964405 -0.131924301 23.8097305 
-4.31654501 -0.139313594 7.68454361 
-9.63544178 -0.0126746297 -8.08816719 
-1.27631021 0.270842999 7.647645 
-18.1054688 0.223771274 -9.927001 
19.1072426 -0.865028441 -10.0924263 
22.0671768 -0.270106107 -19.6065884 
2.50804901 0.0295862649 25.1653023 
-0.97093457 0.570212781 -24.2014732 
-1.80317116 -0.113287635 -7.47241926 
24.2049198 -0.402223796 -18.0512772 
-7.30071259 0.0495809615 -4.40556192 
14.4192524 0.0205546096 -22.670742 
1.65575206 -0.0525656231 -5.23621178 
16.3033638 0.0998078212 -21.9214897 
13.3822794 0.130986646 -24.8285866 
2.00033188 0.0523867942 -9.72845745 
21.3987484 -0.246785209 16.310379 
-11.9406424 0.0411975756 -12.2096901 
19.9721279 -0.36751014 -8.34406281 
21.3453236 0.739781916 4.84331512 
-18.7586823 0.494571209 -16.1927891 
-2.19643307 -0.187473595 9.19063187 
3.43494129 0.47270444 -15.2518492 
-15.8622713 0.414371341 -15.9435902 
7.8696394 0.146233976 -3.51066017 
-18.3804188 0.442573935 -14.2623606 
-2.7354126 -0.271658391 11.8613424 
16.1695766 0.0531040989 18.8173389 
6.85004663 0.0357640125 -8.22528744 
3.0485909 0.320565104 5.44371462 
11.5038795 -0.143447295 9.41709805 
-20.6539421 0.162814021 22.2014503 
20.3362923 0.0981984735 -2.32606339 
-9.19452095 -0.199722186 3.51924062 
-23.8083191 -0.628271818 -19.0416145 
24.6639309 0.0170349199 -1.93735051 
-10.2295151 -0.42007646 23.4650764 
-9.37879467 -0.0205339584 -3.74784422 
13.5997972 -0.400835663 -8.84319973 
-24.1458759 0.368141592 -8.12218571 
-8.74058247 -0.0719832256 -7.07382488 
-23.1250401 0.471882373 -7.79220629 
-4.41055298 -0.335292071 10.1230545 
-12.8638363 -0.13910076 9.88538551 
-7.10520411 -0.200753465 3.16067338 
9.81991386 -0.232561797 -15.7016745 
-24.3822613 0.0855279118 16.3523693 
14.7327023 0.235990837 11.0159826 
-0.568778753 0.287943065 4.87788773 
-5.8429389 -0.0826607496 -6.46155214 
1.44884586 0.220606491 1.63750291 
-16.113018 0.454500914 23.4053345 
-9.29903793 -0.161732599 22.5877552 
22.6137009 -0.622545302 -21.8220921 
24.7439785 -0.0289261807 -0.712943137 
-13.8152113 0.0579669252 3.37423205 
21.2802448 0.413156331 9.50663185 
-20.9647942 0.598043382 -11.7361355 
14.726243 -0.445240796 0.973983049 
18.3310623 -0.0556292571 -23.5423489 
-20.8421116 0.445873976 15.7333794 
4.43131447 0.266135633 -16.1647682 
7.08633947 0.0118786814 16.739769 
1.27586377 0.266148955 1.88822377 
-19.9117413 0.0816136524 10.067708 
12.6242199 -0.32619226 -13.7867517 
1.91283131 0.328179777 7.09306479 
-13.1101475 0.131945342 -0.283367574 
2.17234468 0.117904685 12.6737318 
23.148798 -0.279561222 18.4705868 
-7.52493668 -0.260522574 4.83583355 
23.0733662 -0.425975055 -18.72579 
15.2397757 -0.556458712 1.20535493 
0.45763272 0.32580784 8.59703541 
-12.5707712 0.208583727 -2.11372209 
-8.56194782 -0.602991939 -9.28998661 
-12.9364986 -0.197700724 9.57875061 
18.6491318 0.0920073912 -23.7766399 
4.91868591 0.144895718 -1.5331049 
13.1657991 -0.0352546759 -20.4145641 
-23.7903194 -0.016262291 -0.240642086 
-5.47663403 -0.311088204 -7.54460192 
-21.8914948 0.533216178 -7.08803844 
-17.3937054 -0.170464039 3.16403961 
9.55709839 0.299447358 19.088522 
-23.8652973 -0.119531997 6.69880915 
-19.219389 0.0981850848 -6.98118067 
17.1103687 0.158756807 -19.2738991 
-5.33690119 -0.235148355 -2.85973167 
-17.3066769 -0.194029376 10.941988 
0.889536679 -0.117771856 -7.7920661 
22.2074928 0.258030474 -8.38739204 
-4.09400606 -0.138288423 3.63846731 
-10.5879583 -0.188173056 -14.090971 
14.1996708 -0.164462328 -4.11496449 
6.76966953 0.0324413814 -3.18485212 
-13.8390207 0.282217979 1.55829132 
-21.421236 -0.0268594921 -15.9361238 
7.13320684 0.0491974205 -2.83931637 
-1.64161861 -0.0193576496 4.60704422 
2.40423083 0.37740919 4.07218599 
-2.96359682 0.560338855 23.546236 
-24.0201912 0.197038293 13.1161156 
21.5163155 0.0879987702 -4.15256977 
-11.6261358 0.126838565 11.0825329 
-4.72770119 -0.204434246 4.12772942 
-12.5171881 0.0753016472 -13.0465479 
-10.0723734 -0.157198727 6.09528017 
-12.2452354 -0.250637621 16.4058952 
7.66597462 0.316938251 -6.54471636 
-12.2257128 -0.0756992698 -11.718956 
1.23708189 0.187441558 9.59936523 
12.3566608 -0.25850144 -13.8072681 
-16.9267979 -0.228311598 13.5969 
-3.12940717 0.0182215106 17.1756096 
12.9783802 -0.0769925714 16.7339916 
-15.3730917 -0.201532587 18.2842789 
-19.0518894 0.363568991 19.3061085 
8.17492962 -0.160419062 -20.4646282 
10.0592785 0.120427422 18.2011108 
4.01162291 0.00745760975 -8.97904873 
-7.79303932 -0.117305957 5.49750853 
2.98657012 0.136185646 -9.09504318 
-16.4769402 -0.105781719 -4.27989864 
15.4794483 -0.481327236 -8.281353 
10.6679487 0.0250495579 -14.1160126 
-23.6117287 0.469616652 -12.6223621 
-23.1558094 0.340826005 15.4954567 
-13.7818546 0.0209250804 -24.3129444 
-9.80566025 0.110427015 -0.670208573 
17.8875561 -0.0819409192 -0.51119101 
16.8426018 0.365041852 -16.6995087 
14.3454618 0.29408133 9.64320755 
-2.87662649 -0.00221545598 -6.36475039 
22.2310772 -0.402048409 -23.9015522 
-5.32629919 -0.146590263 -6.42979431 
-1.36208928 -0.187805414 10.1737566 
-5.06052446 -0.16045022 -3.95341158 
13.7621756 -0.102607876 22.2201023 
12.243372 -0.0791372508 -17.5704975 
8.62197304 0.363703907 -5.2577281 
-0.0485984087 -0.0211302172 2.85661554 
9.21348572 -0.0315541476 6.84664392 
-6.58301258 0.0459377617 -6.13777637 
21.9335194 0.621151209 5.89455414 
14.4095993 -0.567644596 2.22585154 
2.77614474 -0.164965943 23.3332882 
-5.11285734 -0.121058635 -19.5736294 
-7.26738119 -0.0105188703 -22.0415535 
-7.90596724 -0.239592388 -17.6286411 
-15.9342966 0.0781861991 2.13722491 
-1.11804032 -0.0239466634 3.12282252 
-11.5660591 -0.0496016406 8.15894318 
2.33108425 0.401298851 10.3787794 
6.63892651 -0.0757461712 11.4800673 
-8.35878086 0.00367036043 0.637015104 
8.77101517 0.320758164 18.8700638 
-7.72075129 -0.159251928 5.83791828 
0.776656091 0.444790065 -19.2104454 
-3.95335889 -0.253907412 3.25136924 
-12.2222204 -0.204382211 16.1505642 
17.5702991 0.383067131 22.1608334 
11.4901724 0.106489338 -21.0140972 
2.5016911 -0.0719745681 24.5377865 
-11.1112852 0.0867599025 -13.0129852 
9.15935326 0.405324876 19.0141144 
9.77781105 -0.170403078 0.21789825 
16.469986 -0.213019073 -3.32440734 
24.5649967 0.386362791 -8.7830286 
-5.0322752 0.21473822 14.2286158 
-10.9603834 -0.0744588748 14.3994989 
3.88836312 -0.0125966994 -9.34462166 
12.6259546 -0.045919206 -3.57516146 
6.79015493 -0.201682225 17.7250233 
-15.6410675 0.256633908 1.00066364 
11.2248478 -0.266558856 3.53066921 
-2.17168641 -0.00177520514 6.30890942 
8.23562622 -0.0705776662 8.37722206 
-8.63532162 -0.449048668 -8.47649193 
-9.96304131 -0.029857995 -10.3600426 
-8.85400391 -0.489405006 -14.1082888 
-9.18471909 0.00880375039 17.5384789 
-19.1219215 -0.0474242568 -4.96628284 
-5.65965605 -0.366737485 -1.31951642 
-7.44107103 -0.892525971 -11.9074945 
-14.7488108 0.134745643 -2.96634793 
-11.4638176 -0.169126183 -4.91539478 
1.43345964 0.426207125 6.44345951 
2.90797901 0.436240286 -0.250892341 
17.7546806 -0.109709352 16.9888172 
-16.8934422 -0.0457993969 -5.49360228 
12.1609802 -0.19952561 17.2168198 
-12.3752518 -0.0850598961 2.24322939 
18.9391575 -0.219268456 -5.99783134 
2.08690929 0.0417222381 15.6398582 
12.2668095 -0.146009222 17.7937412 
10.3224516 0.0280768648 9.90523243 
-20.6722965 -0.271810234 1.52362883 
-7.07495022 -0.0630262196 -4.09558201 
-3.02140141 -0.414949477 1.17105341 
18.3367138 -0.694708347 -11.664835 
-24.4231548 0.000258679036 17.9189777 
-21.5302544 -0.274747789 6.11333084 
12.8777742 -0.552255988 0.540771127 
-13.4943609 -0.30855456 8.31706619 
20.4186363 0.496434987 5.1206398 
2.2105484 0.0528864563 -9.37812614 
10.6151295 -0.260022104 -22.9753571 
16.5783176 0.141476244 -14.4307652 
23.0755692 0.326121986 -7.99762535 
-6.72736406 -0.218695655 0.666212261 
23.6270142 0.170117944 -4.0030055 
18.2396317 0.0383270904 9.64858246 
0.180658966 0.399467409 -17.8435135 
10.4216433 0.416093707 -5.12374735 
22.7236671 0.373570472 -10.2517052 
9.7684288 -0.30507642 -24.7252903 
-2.01424026 -0.384345919 11.6981611 
20.7531147 0.4830302 2.68219447 
15.3059492 0.128076673 14.2422915 
-4.05240631 -0.400622547 0.182321459 
0.232620806 -0.225608006 -7.07032204 
-19.2948971 -0.207246765 3.08729625 
-14.908761 -0.0363650732 5.8164897 
-9.05733585 -0.0965873599 -5.24827528 
24.1734924 0.241742522 3.73351955 
-10.0428095 -0.314041913 -13.2773552 
15.2195101 0.155469269 12.4516144 
-12.3570814 -0.337721795 20.1641426 
16.1998978 -0.30977127 -4.37246799 
-5.24188948 -0.191551298 8.29207325 
-4.05285168 -0.492204219 -12.9325132 
-4.65451479 -0.252879024 9.95355225 
-3.17874694 -0.437164634 -0.59301579 
-23.960186 -0.126386628 8.27651501 
21.4571686 -0.185952574 -10.1075869 
11.5649223 0.313703746 22.5391102 
5.74305582 -0.328434229 8.75886059 
-8.316185 -0.662482083 -11.0081186 
-10.1374626 -0.122488953 -8.91907024 
0.605224729 0.00709572807 17.1392403 
-2.96810675 -0.371722668 -2.37609529 
-2.75290251 -0.37915653 1.46848321 
-2.34713221 0.0671593696 7.64269352 
-10.1322241 -0.356740326 19.4116116 
12.4742756 0.0194800459 -10.8597031 
-13.0714035 -0.0696637034 24.1189976 
-14.2104616 -0.273889571 -8.3219347 
-15.7931585 -0.148100793 16.075285 
-11.4208307 -0.0918241292 -0.414521635 
-20.5485687 0.425916761 15.515873 
16.6378651 -0.213397354 0.768894196 
10.9868164 -0.0983711481 -15.3497028 
-9.94917202 -0.182446584 -6.38097477 
-18.5903397 0.159585208 -8.8074646 
-10.1262426 -0.403986722 -17.6626492 
-12.6736422 -0.247832552 8.87363338 
-21.0357418 0.0943010002 20.3631668 
3.93742394 -0.0559140742 8.66715145 
22.5528641 0.113267653 -6.08218813 
-7.25395012 0.426583439 16.5627365 
4.93692112 0.113950714 13.001956 
-5.23451614 -0.464894712 -8.72990513 
-14.491971 -0.0684437156 -5.01939678 
11.3877792 0.100964621 -24.6028214 
-9.42579269 0.232024744 12.3643217 
-16.3604946 0.30727303 20.7838936 
-5.96944094 0.00211271271 21.6426239 
22.2122211 0.339505434 11.5891781 
-11.4257221 0.0558922365 12.4096851 
-6.65258074 -0.62114799 -13.1824045 
-3.647825 -0.507925689 -14.3052683 
-6.61721039 -0.199497864 -1.66745853 
-15.717865 0.0176347606 -11.8196926 
-1.72096121 0.0710283145 6.26880217 
8.77601528 0.0780736208 13.6566257 
12.0090141 -0.11632482 5.85598898 
15.2734728 0.054380849 -22.7732449 
5.36776018 -0.349144727 7.67396212 
5.60547209 0.0479141437 -23.6052475 
24.5845852 -0.154015422 17.9913864 
12.9151125 -0.050164286 -3.99832678 
2.32344961 0.136052012 -7.43552017 
19.5900478 -0.365883619 16.1938896 
-9.35999393 -0.528261483 -11.8941984 
16.2612591 0.101570122 6.44932318 
-22.3411636 -0.103144862 5.31321192 
15.2752781 -0.416940987 3.92636585 
21.9869823 0.291391462 8.34397602 
3.91272736 0.152112693 -11.2471218 
-17.9278622 -0.226007134 3.52381992 
-19.2653732 -0.582041025 5.84448051 
6.44666052 -0.255024523 25.1509075 
15.2633152 -0.449376553 0.5703125 
2.70299411 0.208362207 -24.0136833 
24.0062618 0.153371394 8.40545368 
-10.7512684 0.131117404 -2.33519077 
19.6602345 0.39841938 -23.8250408 
-18.2743473 0.188760608 17.3880825 
-20.9521065 -0.344735354 4.99359703 
-21.3191509 0.163759843 12.5063887 
22.5265369 0.213458776 -1.53410268 
19.623745 0.459047467 8.62262535 
-23.6235065 -0.0477319136 -14.0558815 
-22.637228 -0.198787451 0.427723348 
-3.92318511 0.47414431 23.3776112 
-8.78079891 -0.234429985 -16.1431255 
-1.10085845 -0.0798233598 -13.9352608 
-0.0646534264 0.460260749 6.30605698 
-20.0108128 0.272241026 15.8129349 
-18.4827805 0.232475728 17.9380436 
-21.8921585 0.423928827 16.7924976 
21.974556 0.52465117 4.73110819 
-3.14564109 -0.272111088 12.5931177 
-22.9219608 -0.202954903 8.89633274 
9.09782696 0.0321149379 8.87760735 
-1.74327147 -0.297930688 -5.03702545 
21.0355015 -0.251862079 12.78971 
-22.5370235 -0.180948213 -0.310752183 
-16.1618061 0.329539418 -16.6737518 
-0.458615035 0.378493994 -18.7884293 
-12.6221714 -0.0223644152 11.1352186 
-1.93230844 -0.271398515 -4.35359716 
3.85520077 -0.171348602 17.4384556 
-18.0602474 -0.199448824 14.9248018 
-22.1360035 0.197340012 -5.17592907 
-15.6889429 0.0301982313 -11.9757767 
3.60866022 0.157581776 11.8263226 
17.8465137 -0.0410186946 1.23069692 
4.73339987 -0.497527003 18.9560909 
11.368104 -0.254097432 17.0172234 
13.105278 0.0379818305 -3.33488202 
13.4144611 0.0218864381 16.0838318 
14.8772116 -0.204923823 -0.969704926 
-13.2477674 -0.0066697821 5.2232852 
-17.3580189 0.5472579 -18.9122772 
22.4127541 0.25095731 -7.34918022 
-4.03777122 0.304374009 24.4911175 
0.308923244 0.193491608 -15.1982164 
13.9909954 -0.218418792 -4.46652985 
-0.934993863 -0.114160873 -1.60293174 
-7.41459036 -0.82036376 -9.82307529 
-3.74018168 -0.134601668 -5.54146147 
17.959568 -0.179953426 12.9583597 
23.9014969 0.0543232188 11.80229 
22.5858841 -0.495309025 -20.4241333 
13.2853384 0.0796452761 12.7211876 
9.31503105 0.0785097852 13.1199865 
11.2043829 0.130517453 -3.80008316 
-0.448999643 0.0716001168 9.58566284 
-0.194771022 -0.0987814441 -3.18541431 
10.5811806 -0.212437063 -15.6248922 
17.4946289 -0.372820854 -5.32528114 
3.19874525 0.000886990863 -24.7813644 
-2.58928442 0.00236903457 -7.54247379 
-23.6566219 0.0198085066 3.04481554 
10.5262728 0.259696186 -12.4685392 
17.719305 -0.291534424 -5.1761179 
-11.2802324 0.0580341257 -11.7409735 
-2.14585495 0.00649894308 -10.2153358 
-6.28706026 0.458406478 18.7565212 
11.8059521 -0.212107226 9.55631828 
18.6082211 -0.304884672 -5.34457159 
-1.70979476 0.0878294557 -8.83565712 
12.8560724 0.114763714 12.8511562 
4.23202372 0.289076924 -15.2678404 
-9.27059555 0.107806653 -1.62801814 
22.9540672 -0.182267353 -15.7896814 
13.64182 -0.269393891 7.11229849 
-23.0634594 0.378292739 15.2000704 
-23.1813068 -0.201366335 -15.708602 
-3.83700442 -0.126254901 4.89502096 
0.207142621 -0.118979633 19.7750492 
-11.4976501 -0.317611903 -18.4638615 
-15.0715189 -0.194662124 -7.94034815 
23.7894001 0.368190318 -0.866972327 
8.09249592 -0.0664435029 21.4882565 
23.9625664 0.0937445536 13.7741423 
17.1318474 -0.0929959491 16.5513325 
-4.95877838 0.351252645 15.3171873 
-8.16440773 0.0512413792 2.35358548 
2.17881489 -0.041904103 24.7388649 
16.5556431 -0.0425364226 -2.14867735 
-14.6336441 0.30877459 0.823661208 
6.00614119 0.116134718 -12.3607702 
7.39333105 0.132960558 -5.00111341 
7.66840506 0.0818116069 16.5197487 
0.548439145 0.100183047 -12.723525 
-5.46649933 -0.12711896 -3.38639498 
7.14989614 0.0085413456 -10.0597191 
-20.8613224 -0.052959729 11.5263271 
-23.5160389 -0.269075006 20.0621529 
-21.4015446 -0.0137338322 22.8150063 
-21.4694901 0.252212971 13.0303717 
-12.1544256 -0.175390467 -18.0181046 
11.4721107 -0.206748858 3.88023448 
-21.7751732 0.106503122 -15.2417698 
-3.27287412 -0.229134917 1.93288112 
23.9071465 0.631403685 -11.0092192 
-2.37119389 -0.0731830597 5.17873573 
21.7508659 -0.278665036 15.6798115 
-4.91589069 -0.229594961 -3.70347571 
-5.95070982 0.269954503 20.6220779 
13.867425 0.0260942113 8.72075462 
-13.2822227 -0.291007131 12.3336792 
23.3158951 0.372831255 -11.634057 
-7.85938501 -0.221036017 -16.9510632 
-7.10544205 -0.123408362 -20.6532764 
23.2656746 -0.0479758047 13.7401342 
5.3664794 0.08058054 12.9783792 
-22.5618839 0.483828157 13.9587421 
-1.44358337 0.482317716 -24.1412296 
-21.127224 -0.329819947 4.67670965 
20.0784931 0.371784955 -23.3497429 
21.8424587 0.562455297 3.4807837 
-19.4170647 0.255749673 -11.12708 
0.66721034 0.355198979 8.07467175 
-15.1102543 -0.0517854542 -4.64076281 
22.5896149 -0.0766994357 -12.9874229 
-8.95275593 0.155698732 12.8675528 
21.2907791 0.691008568 6.04960918 
7.39308786 -0.0739582703 14.9627457 
2.91043139 0.537073493 -17.6192284 
22.3188152 0.481287003 3.46245003 
21.9789143 0.521913767 1.32262731 
7.5264287 -0.234133601 7.16240597 
-21.5131989 -0.182559684 -16.5177689 
-2.97045398 0.466800153 20.9044056 
-7.61722136 -0.015593389 11.5678778 
0.138904095 -0.185995594 -6.04678869 
-15.6667976 0.155880526 3.03338027 
-11.9982872 0.154833168 -14.3213329 
-4.95811272 -0.593488812 -14.6364746 
-19.7617264 0.171058506 17.8498669 
7.24437666 0.120111458 -4.96365166 
-11.0386076 0.129021809 -3.36538339 
-2.57852936 0.0989430994 7.40557671 
-8.50449467 -0.0571532436 4.7342639 
3.93744326 0.500614583 -0.209532276 
-0.711703897 -0.070314683 -1.21271849 
-13.6765308 0.378210634 -17.5262241 
16.7678108 -0.123574831 3.43050265 
-9.48159885 -0.132677123 -8.27836037 
8.14937687 0.0934402943 15.3663301 
11.6978893 -0.0627484694 6.32239151 
-21.4344997 -0.253593504 8.25831032 
23.2264233 0.13523294 -13.4243326 
-7.11502171 -0.460099161 -15.5923042 
-22.8654995 0.426317006 -13.2206717 
18.0427742 -0.250769794 -4.82962847 
13.1223478 -0.108535551 18.9393692 
-0.337242484 -0.298770845 -7.64702272 
-20.8282928 0.263742834 -4.3763032 
11.9789667 -0.0958012342 7.28032112 
21.8787823 0.427081585 0.791448116 
11.7114248 0.321582049 -8.03935051 
17.1802635 0.0446344949 12.0225658 
23.7992802 0.239499867 -1.79555082 
-2.77245903 0.57366699 -24.3247757 
7.78866386 0.0685791746 15.3953648 
20.7184753 0.210943311 1.05769646 
-24.1217976 -0.0324549191 -14.2169123 
22.4377594 0.268936336 9.41268063 
-10.9509144 -0.0626995862 -1.01488268 
14.8518038 -0.394345164 -12.8747673 
6.95606184 -0.00847317278 10.9265566 
24.5100555 -0.948426485 -23.0024414 
3.85296798 -0.118987449 23.8375816 
2.93331409 0.547214627 -19.7783241 
1.79781127 0.00169304945 -7.57571411 
-3.38676667 -0.534032822 -15.3496323 
10.8825979 0.523862362 -11.7678576 
-20.4771099 0.132341444 19.4795437 
15.5050135 0.114322193 -23.4057693 
10.4024258 0.486328781 -8.66247082 
8.32152748 -0.0675188527 2.18600988 
-14.6123028 0.271556258 1.3591851 
23.5081806 0.437343538 -0.933966339 
11.5664368 -0.16068767 -13.6223698 
24.886797 0.10250932 -4.77812386 
5.65115356 -0.303049594 7.34672213 
24.8320332 0.10444463 -5.89937687 
22.1361294 0.533115208 4.95795012 
19.1760979 0.44051972 2.22931027 
-1.55356741 -0.322036564 14.1927729 
-15.4280691 -0.0135741681 -4.22332716 
-9.93365479 -0.265185684 19.2284012 
-6.56077957 -0.274476081 0.579858303 
10.6983662 -0.144704312 5.41709137 
-0.632574677 0.455879241 6.61215591 
-1.87808299 -0.270546079 10.3797655 
-8.4254427 -0.182797298 -5.31052542 
21.5292625 0.36443758 10.3203793 
-2.95963526 -0.23802039 3.49448729 
1.79806232 -0.0500360951 -5.53989553 
-4.40170383 -0.39384231 -0.423976988 
-15.5954885 0.605391681 -1.037467 
-10.3192387 -0.233755648 5.36901665 
-2.12421036 0.330475628 -21.4094524 
-11.3441286 -0.525050342 -7.85376596 
-17.1578789 0.419781595 -12.6724377 
5.44146729 0.0859732255 -16.4700832 
-1.04056907 -0.147626087 18.1475983 
-10.047698 -0.0285232663 -10.8441334 
-18.6892033 -0.131318882 -5.08896542 
12.0334568 -0.0111612892 -5.66334867 
-21.2773476 -0.188461527 -2.44983888 
21.8177814 0.0270326994 -4.53036737 
22.4914532 0.278726637 10.8337126 
-10.1326294 -0.232052997 -12.5789251 
-5.12704802 0.342329949 16.6828003 
-2.1489985 -0.217465237 15.5918913 
0.137208715 0.21833007 7.49702072 
-23.7188911 0.296335191 -6.6393795 
-14.0786924 0.0106390547 22.9459229 
8.92122269 0.37364015 -10.7022886 
-4.23556471 -0.0923347846 -20.3321686 
-10.4025183 -0.343745232 -6.66574526 
18.2047596 -0.148242056 -15.180191 
-20.5013161 -0.468258262 6.58924437 
-3.5097096 -0.151971459 15.8291588 
13.4822712 -0.298175514 -11.8452234 
23.6139374 0.287445009 2.84698629 
-3.89061737 -0.133441061 3.80610371 
24.7611923 -0.0128437802 -1.0719105 
14.7991753 0.047124058 -19.325182 
1.11924458 0.242385417 -13.1424789 
-2.81082606 0.113129079 -17.6028347 
9.80374241 0.586188138 -10.1458712 
20.0714188 -0.396969408 19.3486824 
1.37324619 -0.109046549 17.7353172 
21.9900379 -0.245240152 17.1754379 
-7.56563568 -0.020255791 -6.20523357 
9.87298107 0.17977576 18.6135216 
23.0823078 0.176211402 7.67296553 
19.1511097 0.43414858 0.819884419 
2.14540076 0.400968522 4.01450396 
19.4177017 -0.247905076 -17.6409492 
3.6501894 0.447791755 -0.669905186 
16.7666168 -0.158348948 -3.55497813 
19.639204 0.16506207 -24.6785202 
-10.2427559 -0.457693607 4.04301929 
5.27007818 -0.05606924 -19.2098351 
22.0854149 0.312629491 7.40506458 
13.9278584 0.198289812 -22.0078545 
2.74203157 0.253418982 11.2676058 
13.2252674 -0.368576616 -1.21782207 
4.87330818 0.395164251 -13.5286598 
9.6713028 -0.0631993264 3.13728237 
16.1647892 0.112470187 -22.1634369 
-22.0112 0.385310352 -5.74055862 
24.0184841 -0.413890868 19.7649155 
0.474119216 0.322175086 3.63303781 
13.6762514 -0.400060534 -8.97439289 
10.5180292 0.0529289655 -13.9648342 
-23.7841206 0.318613619 17.7731247 
-11.7315598 0.0660279319 9.79897118 
4.27722597 0.317598432 -15.7785435 
12.3644638 -0.257010132 -15.6688824 
-8.3671484 -0.656531513 -10.1632109 
-1.56450701 0.0271285996 -16.0767689 
3.33025932 0.191961706 14.9749117 
-18.7096405 -0.28681618 2.29140139 
-23.0146618 -0.115569383 19.4880943 
-18.4376774 -0.459872246 -0.368721902 
8.69143772 0.326929152 -11.6877651 
9.64477348 0.161473587 -3.5922544 
-10.8786402 -0.403525651 18.7628269 
-24.1702271 -0.710772693 23.7228184 
-20.0370827 0.275189817 15.4874687 
15.6433573 -0.38415283 3.3957293 
-6.07613468 -0.178741708 -19.5748024 
25.1087036 -0.752115786 -20.3334217 
-1.71746576 0.334783912 -22.8131618 
17.2912483 -0.120941281 2.25163817 
11.8065815 -0.211791784 0.611324728 
-11.0417452 -0.229390129 -10.3504515 
6.24548149 0.294380784 -0.240750641 
20.5316296 -0.0944938287 -19.9898987 
11.9810152 -0.217658609 17.2161808 
12.0188894 -0.354225129 4.48586702 
-21.1747379 0.130687654 12.8676367 
21.7687817 0.694930434 6.23170376 
24.868906 0.339523226 -8.2208004 
17.1635952 -0.214404672 -4.63104677 
-1.28339231 -0.267126352 -4.17361641 
11.2992849 0.137290508 -4.05416441 
21.4492607 -0.562321663 -13.7294168 
-22.9300232 0.499985039 -12.6292744 
-11.16502 -0.199502632 4.34880638 
18.7987404 -0.821422458 -9.3277607 
17.8188324 -0.122949407 -3.60453153 
0.719812393 -0.0739313737 1.47470939 
-4.83966589 0.292865962 15.4470825 
24.7999573 0.127526179 -14.00103 
-11.4418716 -0.238381892 -16.6219292 
17.8900127 -0.0618475042 -16.621706 
8.64525223 0.522670865 -8.74986649 
-22.1982918 0.48255384 16.4771805 
23.1094913 -0.107600912 -15.7967024 
13.5797319 -0.336668462 6.12945271 
-14.842 -0.12909165 8.85340881 
2.10828733 0.310725152 -22.367033 
-13.8164949 0.363219023 -0.351167291 
15.4728346 -0.108477183 5.63426733 
-22.2520638 0.330904067 -5.81820107 
1.48330927 -0.0880137458 13.8339252 
15.2045755 -0.564013183 2.07096291 
24.9712753 -0.106042109 18.9482613 
-8.11057758 0.384578913 16.0623436 
-9.07285023 -0.598436654 -13.2763596 
1.82657278 -0.0309159271 -5.19847918 
2.56280398 0.112519108 14.9844971 
-8.80234051 -0.0542435572 0.413526148 
-5.54738855 -0.607027769 -14.5866108 
23.0420666 0.412593782 -10.9889584 
-16.501627 -0.0549140498 15.4118567 
-5.27559471 -0.298213959 0.386175007 
7.80803871 0.0182204396 13.3925667 
-13.6318083 0.237688452 -15.3395901 
16.5076637 0.171574473 19.3589935 
18.5414906 0.0842369646 -24.2444 
14.4658556 -0.126264423 15.953433 
-15.445755 0.411658198 23.655489 
-15.7975512 0.0242987927 4.06096268 
17.1843472 0.0966784507 -21.2476082 
6.37617779 -0.040426217 -21.0024261 
7.23931599 0.0400121287 17.0904522 
12.8110657 -0.114827961 -11.5723305 
20.462328 -0.4621647 -9.8342514 
22.5728416 0.236746252 8.25273609 
-19.8663692 -0.3779805 -0.281874478 
-4.27475309 -0.0737035125 6.90044641 
-13.1597042 -0.169707164 -6.1748786 
-11.9297256 -0.0899196267 -0.268357515 
10.5194893 -0.133554891 -20.3499355 
-6.43952703 0.430375248 15.5442467 
14.9320297 -0.254583448 -16.3666801 
-23.9420395 0.57573998 -9.66662121 
-10.6546097 0.169979498 9.40489864 
-14.5664368 0.48553592 -16.3283997 
18.1398373 -0.655173898 -7.6460228 
-3.42166138 -0.185253292 -17.0804882 
-19.7405796 -0.347745985 4.01844025 
-12.9708643 -0.190847039 16.3271046 
-1.0253799 -0.0459738076 -9.6411047 
19.7363834 -0.165292859 -6.99717999 
22.3711281 -0.0921725482 -12.8674307 
-0.11359784 -0.103104286 -3.73214316 
5.90202188 0.387158036 -0.0184173957 
12.5108395 -0.487483114 4.20222759 
-10.9353514 -0.204278752 -14.8198767 
-1.10916746 0.0732639208 -15.7517796 
0.665282786 -0.214631811 12.2059593 
23.34272 0.134116933 11.0486526 
-3.07371879 -0.102009743 -7.48966265 
-4.90471029 -0.382330269 -18.5454597 
13.8274155 0.015143862 14.0985222 
19.0213509 0.316077352 2.79171276 
17.7562256 -0.26782912 13.7702665 
13.4671497 0.0653793365 -4.39490366 
-1.25936973 0.0494872592 -16.6842384 
2.23509502 0.38096559 3.42216444 
-9.80390263 -0.377308875 -17.5911922 
14.5627823 -0.495840281 -11.4436445 
23.2571774 -0.00956471637 9.20118999 
-2.37608647 -0.360248625 -3.348629 
-21.1971512 0.0902426764 12.474885 
-0.129973829 -0.101060145 -3.90963268 
-18.3711052 0.427604377 -17.1827965 
14.9410505 -0.00155348424 -22.2637024 
-14.9626446 -0.271032661 -6.26029778 
9.72775364 -0.246222645 0.705362439 
-20.6699848 -0.14251107 -2.31385541 
10.9957991 0.20868516 -4.75841141 
14.5595551 -0.0232553147 14.6968842 
-13.2937908 -0.221086219 9.86621952 
19.7570305 -0.196900025 -4.68501806 
-24.935854 0.0719401538 7.25774527 
-1.20703435 -0.170583636 -3.485672 
-14.8047609 0.393141806 -1.39064026 
9.62706852 -0.261765361 1.10838914 
15.2477808 -0.253241062 -12.5492592 
22.2718678 -0.315261573 15.6242428 
-4.53454065 -0.0770491138 -20.225832 
-14.1327047 -0.000570135191 5.18688488 
0.86224854 -0.142667532 0.853711784 
0.922919035 0.309623808 3.39740491 
1.35108209 0.0539570265 -11.1199989 
2.55160499 0.387442797 9.49579144 
11.6519518 -0.259500593 18.7083702 
18.2545033 -0.319408268 16.0623398 
15.9868927 -0.46607849 2.43369055 
-12.8411112 -0.110334352 3.20978069 
-16.4909725 0.158844784 7.80569029 
-16.5521812 0.147528708 8.48727322 
-13.242506 -0.0232328121 -10.8908367 
-0.961350203 0.333091527 7.11402559 
-20.6746197 0.364500642 15.0113878 
6.53431273 0.0294861849 12.7869539 
17.0712605 0.114514127 -21.508234 
10.2759924 0.051689025 15.3766956 
-15.9817705 0.256095022 7.03525591 
-20.1743355 -0.393020153 5.20394325 
-3.34154153 -0.463747978 -0.141476363 
-20.67766 0.398848653 -13.6293211 
16.4802608 0.105364516 6.98821211 
-14.9760761 -0.374085158 16.8352375 
-24.3668938 0.492367059 -10.7527828 
4.54848862 -0.149855062 7.81198025 
-8.69515514 0.0137129268 10.4281063 
17.683794 0.0427144133 8.35133839 
7.95625687 -0.0917051658 2.29986024 
5.80607843 0.109113 -13.4948616 
-2.79214215 -0.426362097 -3.1940186 
-2.72704411 -0.0142581472 6.88900852 
-19.1897259 0.233952463 18.5263081 
20.2847691 0.66312629 6.71736383 
5.390131 0.0945528001 -6.6899395 
-12.1809959 0.0852865204 -3.70476818 
-12.1113234 -0.15901643 -16.8314838 
-15.6770859 0.435212463 -18.308651 
-9.2633009 0.186888337 12.9388151 
21.3369808 0.322233975 2.5744009 
-21.6279659 0.587334454 -6.10639095 
12.7802706 -0.120075747 -7.9553566 
1.44139683 0.499771595 6.97958469 
9.59113693 0.0794589147 6.99759483 
3.6238513 0.289660782 14.0173817 
-24.1528721 0.103370927 0.577809811 
-18.9611034 -0.174782708 11.2636719 
3.63072419 0.480035186 -14.5420933 
3.4220531 0.37710768 -3.20490646 
20.0639095 -0.699408889 -13.0942202 
-16.1243439 0.213812456 7.06451845 
8.33095264 0.0324312933 14.3813553 
11.8056431 -0.121519528 -13.2588329 
-12.3866644 -0.352017641 17.7903385 
-23.8870125 -0.121550217 -14.764781 
-15.8044462 0.578597069 -1.08479977 
-3.42447233 0.105199657 16.8823261 
-11.8070269 -0.404402345 21.7204266 
0.697122574 -0.24440591 -9.3091383 
21.4592056 0.364868701 10.0398235 
21.1499729 -0.29063347 13.4343681 
-21.2585869 -0.146212772 9.62800503 
-2.57328916 -0.10141293 -8.74549675 
23.649313 -0.0807859227 14.2597723 
10.3042068 -0.179041326 -15.2111359 
23.3443871 0.142986134 -3.87346721 
21.1775684 -0.0782835782 -6.93961334 
16.5730438 -0.670052409 -8.8457489 
-3.05790877 -0.437010258 0.656087339 
21.6735535 0.411779553 1.77466714 
10.6608 0.339988112 -4.66678572 
-9.41186714 -0.226457521 -9.45167446 
19.2514648 0.250981838 -24.585083 
9.06265259 -0.189054161 -16.3495579 
-3.20852733 -0.403987378 0.759030282 
10.7666903 0.00138515839 9.33746147 
-20.4602451 0.351598024 -13.4459658 
-3.32717276 0.0547487251 17.7413235 
-5.30065298 -0.133766681 -19.7726421 
10.2915173 -0.0507392436 11.6633749 
17.7703705 0.0138079636 11.2866917 
-5.70203924 -0.271500707 1.35761833 
-18.5442581 0.477076799 20.6782131 
-10.0686846 -0.478527337 24.5087509 
1.2426033 0.413983762 -20.1970348 
-21.6863213 -0.157243222 1.58082461 
19.1797485 -0.241427183 19.2887249 
12.9367123 -0.0735818222 -2.76736784 
5.87219715 0.259610862 -0.43453598 
2.07654619 0.320428371 0.717836261 
-1.9127214 0.29192847 21.9952068 
2.11899471 0.341888696 10.4214067 
-6.35311079 -0.0732148886 -20.8286953 
9.76640034 0.26908797 18.3151646 
-21.6952343 0.394194573 -5.6037879 
-13.2031002 -0.271956533 7.56152821 
-10.0198011 -0.251728654 -12.7072611 
18.0236263 0.0468202569 2.44659638 
-10.5489101 -0.15746066 -9.55317497 
-4.23585367 -0.0571372733 7.02657509 
-12.6163807 -0.0522426367 1.84260356 
10.1676483 -0.023636654 -18.6364574 
18.239397 -0.0916000977 -0.940333366 
5.35304451 0.0163918678 -8.77240181 
-0.479745567 0.540615022 6.27212381 
-15.7421751 -0.00144813862 -4.1578393 
24.2697639 0.0861806497 -5.23805046 
-7.79259634 -0.341549188 -19.7768936 
5.82844734 -0.0532508567 -19.5732803 
-18.623476 -0.00314380415 13.3425455 
3.31186247 0.23565422 14.2888412 
1.36995339 -0.0298162568 -4.68620777 
-6.97287273 -0.616675735 -9.02422619 
-15.2206707 0.638017237 -19.5685139 
-22.9897366 0.422141612 -7.71127081 
-12.0319977 -0.0900584981 -4.3231225 
0.326129228 -0.216032788 -7.65094423 
-4.59207582 -0.195435494 13.2180738 
19.6079063 -0.369418561 -16.7660484 
-16.2576733 -0.040401347 17.8744659 
17.6697884 0.103866257 7.85662413 
22.5048122 0.48614037 5.6242156 
9.87212086 -0.29538694 -15.3039198 
-18.0331612 -0.0707400292 10.4669685 
16.6994286 0.169425368 -14.6491117 
23.8759747 0.235181525 -3.14771485 
-24.2947159 -0.83505708 23.9422646 
21.4093018 -0.253680408 16.1418724 
10.0623446 -0.0755300075 -16.3955708 
15.9521599 -0.466185182 -4.8693676 
-2.23440695 -0.197040707 14.9208965 
23.9098358 0.333652556 -12.9034491 
-16.4023228 0.416495413 -0.842664003 
-3.31977606 0.244228154 20.053648 
4.53292656 0.464955062 2.89642668 
-21.0393276 -0.0890578106 -2.94956613 
23.5309067 -0.0610663407 -15.4896116 
13.1058569 -0.41330111 -0.899365008 
21.2076778 -0.352687359 17.3333931 
16.2558117 0.0940603018 -25.1421928 
1.38457906 0.414963841 -18.3794327 
-9.28943825 0.00713078026 -6.20026207 
-4.87973166 -0.174208954 3.53293848 
11.4101124 0.5299474 -10.480566 
-1.83912814 -0.0257375557 -10.3948088 
8.73210907 0.424357086 -10.1329975 
-8.37653065 0.482748866 15.5157499 
-14.4734774 -0.517073989 13.8724174 
19.4245949 0.430230051 9.55773163 
18.6432323 0.140308335 -0.127875701 
-5.6984334 -0.396489859 5.68640423 
11.3724022 -0.0274985489 -18.985405 
19.5535984 -0.0516875908 -5.95742846 
-19.854351 0.386909336 -15.8014097 
-20.2575665 -0.238525644 2.002388 
-14.3568087 -0.147888601 6.75997353 
-0.171413288 -0.307440877 -6.94580221 
19.0926704 -0.182089269 -5.98233128 
-5.44561481 0.53456074 17.7493248 
-16.1701488 0.152580544 19.6536198 
-5.9289794 0.136474743 21.2934475 
-20.8479633 0.578926146 -11.9481964 
24.5372181 0.230144277 6.66933823 
-11.8601866 0.0438744277 9.92620468 
3.99759126 0.284938127 -21.5197105 
23.180645 0.334120065 6.15586948 
5.77486563 -0.277969033 22.0596256 
9.69191551 -0.210738555 0.364777297 
-1.00560105 0.236435473 -17.5325928 
7.21487951 0.0272767618 -1.28839433 
-23.531229 0.411670506 -7.83491564 
21.1887417 -0.026670415 -19.4074116 
-6.69965029 0.401116878 19.1237106 
-7.87565565 0.0400792882 -4.55621338 
-15.5953035 -0.204196006 17.3998318 
-10.0502701 -0.0212408341 7.31874275 
-24.0387802 -0.181354582 9.24564362 
9.9368515 0.184311137 -12.0731821 
10.1428795 -0.336259693 -23.4746933 
0.881064415 -0.0998342559 16.7383881 
23.6229572 0.469915152 -0.4791224 
16.2997322 0.118124984 -14.6948299 
-10.19944 -0.196061119 18.1312923 
13.1715393 -0.257625759 -9.96792793 
-20.0136871 0.362469822 -15.1712809 
15.2105799 -0.368247151 -4.08891439 
-17.7595692 0.536061764 -17.4267025 
-16.9152813 -0.106947221 15.1637745 
-13.9259138 -0.249136701 -5.46571541 
-7.53757143 0.400657177 17.0367222 
0.861588895 0.137102157 24.7465553 
19.6868763 0.0572329387 11.1226425 
-11.2334108 0.110748678 -3.17287421 
17.4960213 -0.0599281713 -18.6911297 
11.3566284 0.3971228 -11.7807636 
-5.06186771 -0.384872407 5.22355604 
23.0454998 0.0477615073 8.9199419 
-14.5739355 0.570138037 -18.6481972 
-0.121896267 0.0174228847 -13.4712934 
22.1744518 -0.232331976 17.4783249 
19.9830551 -0.278299361 -7.86554193 
5.25630379 0.250381261 -13.8756666 
-9.92786694 -0.241565883 -14.3257847 
10.8531742 -0.00475216843 -14.3951807 
-20.6992302 0.177979231 -16.5665741 
19.0405464 -0.180387184 -6.24516773 
-8.92408371 0.0711458847 9.24372196 
-0.779087901 -0.0314722732 3.45119619 
-1.64018476 -0.226502538 17.665102 
17.9063225 0.0204871073 2.29847383 
-12.5489788 -0.111534581 9.49220467 
-15.8666086 0.15563947 2.61031222 
1.83574367 0.310915679 4.8625927 
-1.91876578 -0.25164485 14.1909056 
-18.7997341 -0.146284655 9.04581451 
-11.523777 -0.0728714168 -10.9744625 
20.9042931 -0.60064739 -13.1500587 
19.7799644 0.186114356 -0.93349719 
15.0571041 0.113821477 -20.0608654 
9.23107243 -0.0546819717 7.16740322 
-7.61315727 -0.07156986 -1.21048629 
10.4848318 0.170754254 -2.97756147 
-16.2011738 -0.0674988478 -6.79027796 
-25.0268097 0.00727341883 1.28233659 
18.7045822 -0.246455163 -16.2319107 
14.6274071 -0.282001346 -4.05130863 
-22.1455345 0.426347464 -12.6966782 
6.84301567 -0.25521183 -18.27458 
12.6581907 0.0585456342 -24.7191391 
-10.6589117 -0.141536623 5.98511314 
19.8887005 -0.187253609 -3.78564405 
7.71256828 0.151279271 -3.45498514 
-14.2417526 0.202159896 3.02430201 
15.0744171 0.183520749 8.37340355 
0.213183194 -0.149670914 2.01129699 
12.0443602 0.029551914 -20.7960835 
-7.74180555 -0.405674815 9.16796207 
-16.3667908 0.0147375073 18.5585461 
5.95224667 -0.10654781 6.32294321 
-5.67970276 -0.257653266 10.2560759 
-22.35783 -0.190499932 9.42474365 
-11.3446093 -0.12814489 -15.1240673 
-17.5238247 0.083021149 12.5795641 
23.8925476 0.167781442 12.9050064 
-16.4617863 0.424164742 -0.501207292 
-10.5493212 -0.121480711 -10.0064917 
16.3604126 0.104523733 6.29706144 
5.65949011 0.0529843308 -8.59014511 
-2.12502933 -0.24395287 14.2591457 
8.13092804 -0.0359754562 -21.246685 
-4.32465219 -0.253540725 2.69883728 
-0.104334012 0.479557663 -20.346571 
-23.6290874 -0.187556565 10.057826 
-6.38168478 -0.401080638 9.45640278 
-9.06358242 -0.101867661 6.57157612 
11.54354 0.0885236189 -4.53544426 
-4.33645201 -0.435005903 -8.31408978 
17.2017002 0.059944544 8.15789032 
-12.8796139 -0.284293622 17.5146732 
-3.01293278 -0.375518054 -2.21744251 
13.0621748 0.0665401369 9.43935394 
-23.0322227 0.257053673 -6.93947744 
15.5772409 -0.0526878312 -16.4388657 
-9.50810814 -0.376403421 -11.1904526 
9.11858082 -0.27558592 -22.8120861 
-3.26972055 -0.273921639 12.189147 
-6.99147749 -0.395236969 10.3407202 
-24.8014812 0.2495801 -7.07736397 
20.1587696 -0.117171958 -4.58078337 
-2.46785331 -0.350971788 -13.8994722 
-20.2372131 -0.120747134 8.9723959 
-19.6323738 0.139660507 -6.07912254 
-0.215308279 -0.0228799563 15.5877724 
24.1356239 0.166324005 -6.41154766 
-10.1618242 -0.20728156 -14.5045261 
0.785473168 0.262007862 -15.5088921 
-9.83245564 0.00226132711 -4.14571905 
-0.277988642 -0.31447801 -6.24285269 
1.48973155 0.147991776 11.4942703 
3.07383204 0.218008891 12.3116436 
2.8129468 0.142575592 -6.32989264 
-14.723464 0.223317489 21.296423 
2.76169538 0.277448922 13.4295912 
15.9903526 0.0698259547 18.7593307 
-6.04377937 -0.223016232 -17.982893 
-0.464379013 -0.0760886297 -2.1339817 
23.8053761 0.336101323 -12.4412928 
-2.55313993 -0.205686912 15.0189199 
22.304369 -0.162371635 -13.241333 
22.8781185 0.506825387 3.66584921 
14.710084 0.135893032 8.235466 
1.83742404 0.400208145 7.89681721 
-20.5524426 0.332310826 14.5968637 
-14.7604551 0.606178999 -17.4248409 
13.7785997 -0.0536079034 15.7373705 
-21.5145817 -0.0107274503 19.9191856 
-0.908827305 -0.220558435 -8.15106201 
19.1539402 0.259952217 -24.5157928 
8.35016918 0.171305045 16.2424965 
23.469862 -0.764196038 -23.2540493 
13.426322 0.13782084 9.48356628 
6.03096628 0.139648065 -11.5898981 
-14.7501793 -0.150809005 8.69137573 
4.42283678 0.268973291 -22.8591309 
20.995573 -0.418830991 19.8663387 
-15.2832584 -0.12537095 10.0435076 
12.5202341 -0.388325214 5.36632252 
-15.8478088 0.339205414 20.636301 
-21.9989586 0.519146144 -11.9978743 
-17.7676983 -0.1253708 15.818716 
-3.17695951 0.332570165 20.4953289 
19.4096451 0.229857862 -24.2603817 
17.5384865 -0.193532884 15.189374 
9.91531849 0.271355003 -11.1085978 
-6.097085 -0.810583889 -10.5509939 
-9.99762535 0.256555051 12.6236629 
13.321497 -0.338588595 -0.903021097 
-20.3859043 0.312878698 -5.76729965 
17.7288303 -0.797356367 -9.02098179 
5.7254343 0.0235286653 -3.37962103 
10.297595 0.22405751 -11.9231663 
10.8551044 -0.241851702 -17.1291103 
2.95403957 0.453383863 -0.0146625936 
-9.3845768 0.0855895504 -2.90354347 
12.9056015 0.0546396226 -4.93579674 
-23.6095543 0.0431612954 1.59321368 
-20.8738499 0.484993637 16.8240414 
22.1978836 0.233332217 -0.828345358 
17.0285892 -0.229093194 -4.76952505 
20.9951725 0.179334611 -0.983973503 
-20.6887264 0.505035222 16.1101513 
8.68558025 -0.179705292 3.27221274 
11.9710588 -0.10955359 10.6912556 
-12.3478756 -0.0540416352 11.9716425 
-9.00581837 -0.487800807 -18.8051891 
-10.9916353 -0.424007922 19.8377171 
10.5772743 0.378860086 -4.8971777 
20.375885 -0.0633069947 -5.13920593 
8.99117374 -0.284586608 -23.2315617 
2.25029516 0.240695626 1.17649734 
16.9605312 0.187654749 -15.1182919 
4.01323986 0.350551814 -2.99648261 
-13.1222553 0.129496098 1.13944566 
-23.4990501 0.610286832 -9.75681496 
-17.1207962 -0.18068403 4.72810793 
-7.20421839 -0.0645441264 -0.937154412 
-0.130234808 0.530350208 -23.3699303 
1.68748569 0.248593986 -0.199340597 
4.7775631 0.00929292385 -2.76732373 
-16.7999191 0.109921262 -0.396940023 
23.7857685 -0.788895488 -21.1778793 
-20.1554775 -0.0792267844 13.4562483 
3.246243 0.452903301 -21.2009544 
-13.1190825 -0.240122736 15.7467289 
-14.6262465 -0.224606797 -8.34454536 
1.37154424 0.422679186 -18.2214813 
-10.9564476 -0.0543854497 7.65612173 
17.9331093 -0.0782473609 17.2896385 
3.24947071 0.469432235 -0.510945022 
22.5815754 0.429801404 6.17908096 
4.13759089 0.00190411694 6.88130474 
8.75712776 -0.0345410854 10.6627741 
7.54059696 -0.178350925 20.6917381 
10.8170042 0.231472403 22.1584835 
6.12609863 0.141987965 -11.1781111 
22.8782806 -0.660174906 -21.1221695 
-1.29949474 -0.122353919 -8.29729939 
-12.7654123 -0.238860905 17.4502907 
-17.4618187 0.526893497 -18.2106743 
9.3355999 0.445809096 18.3955956 
-11.1806879 -0.370500743 23.0805874 
-1.14651394 -0.101450622 9.62058449 
-7.14418602 0.336225688 14.4336252 
1.43949306 0.0983262286 11.9236298 
-1.97249246 -0.0150150089 5.31143332 
-17.4451294 0.12288408 12.6276665 
-17.0226803 0.350953043 -18.2913818 
-23.4770088 0.341367006 15.0555935 
21.235424 -0.200462386 -24.6667233 
-20.8961601 -0.420025617 3.86282825 
-24.8846893 -0.0657640398 -0.176732942 
-21.7859154 0.430822283 -12.9486828 
-2.00978088 -0.257349014 -3.98473406 
7.46881008 0.247927025 -7.69151592 
8.57144928 -0.217241272 4.99661398 
-12.0240774 -0.341986984 23.0486507 
-13.5714369 0.0923879892 -12.8360519 
2.55211735 0.311802953 0.700053155 
-18.1540394 -0.263684273 -3.37729192 
-17.2976971 -0.0261419788 9.07754707 
-16.0927238 -0.0735980049 16.8072567 
5.59019089 -0.0260258839 -5.73076105 
-21.4498024 -0.275079459 5.10256481 
21.7515697 0.0335453823 -9.34677505 
16.5162067 -0.09181986 4.65375853 
-22.8757305 0.0139659839 3.5709877 
-24.7826939 0.517406166 -9.31710625 
19.5130806 -0.444192499 14.054842 
-16.693285 -0.0122369537 -3.50534272 
-13.1482306 -0.170380011 -22.7631493 
-24.948904 0.0385534689 8.7906847 
-19.5352898 0.238262057 -10.8947458 
-19.9825745 -0.308819622 -1.6142447 
-1.53768921 -0.133821592 -7.72018862 
23.5235023 0.277074426 6.24359417 
-14.9755497 -0.464871615 14.9337549 
13.6663427 -0.439021468 -7.65529919 
-17.4405422 0.101694606 12.4478168 
-14.2846327 0.338423342 -18.5419617 
-20.1653538 -0.550661027 6.95574093 
8.95474911 -0.191477284 5.74549389 
-15.6642084 0.0719537809 -3.81823492 
-11.7036095 0.113898106 -12.376174 
-3.63718033 -0.15222694 6.87889385 
4.73385334 0.0680523738 -20.6475525 
21.8395615 0.0284427088 -9.74223518 
-23.5712681 -0.0958359241 -14.5455847 
8.84909916 0.279369801 15.8445187 
-2.93237615 -0.0568417087 16.1785889 
-0.356667608 -0.181035146 -5.25321054 
-22.9739151 0.451755494 -12.9833355 
-9.71606827 -0.21624282 -15.387722 
-5.25482416 -0.531425774 -16.9731197 
13.5710649 0.133832425 9.46912479 
6.21311569 0.078927137 -6.95790243 
-17.9743671 0.106257357 11.9546413 
-7.15015602 -0.461020321 9.91331959 
-13.7911654 -0.0592053607 5.70576239 
6.97351599 -0.0393702909 -21.5271339 
22.9191303 0.0601007305 -3.66676521 
-13.4067116 0.025153622 -3.24613857 
21.1049938 0.00366497878 -23.1571236 
8.66872311 0.395660788 -10.4869413 
-0.795602679 -0.136270866 -0.536683321 
-2.84163046 0.0180059578 7.44865084 
-8.90674973 0.0672504604 -3.13071942 
19.6143131 -0.16765669 -17.8989525 
13.2270966 0.134640485 -22.4439831 
24.0852375 0.447172761 -8.86279583 
-14.5120163 0.123993829 -3.67859125 
13.7255468 -0.0463606305 16.1914234 
2.6326859 0.51220715 -18.369503 
9.56950378 0.309254587 -6.63478374 
-16.3456459 0.355156004 -18.8503323 
12.3264189 -0.446610183 4.10844898 
14.7074785 -0.152847916 19.0022659 
4.39815807 0.195688874 -22.0810699 
-14.675746 0.328846067 0.577135086 
1.19175577 0.328727663 4.51432371 
-6.15731764 -0.202454895 23.2589378 
-11.0989885 -0.395783693 20.1252155 
14.0377932 0.222468168 -24.141077 
-23.1796951 0.357587278 15.8835049 
8.81120968 0.0645631403 -14.442728 
-19.5514126 0.395751536 22.1558666 
-8.6583662 0.0271764677 -2.24236774 
11.7157564 0.325927079 -11.2326565 
-3.71055484 -0.575448215 -15.6663837 
-12.1603384 -0.250633389 0.642660499 
22.8596039 0.0716176704 -4.66904306 
-23.9948082 0.236582428 -6.51340199 
7.1707201 -0.252100766 -18.7130375 
-16.3723469 -0.180891022 11.3229799 
-2.54440761 -0.229263097 9.3787241 
23.5691166 0.349819273 -12.6695232 
24.0923328 0.102893367 -13.5486507 
7.11236668 0.131262735 -5.81563425 
5.08134127 -0.163486928 6.09492731 
-14.922123 0.112624027 5.12821913 
24.8479691 0.403435886 -11.4591494 
-13.9016209 -0.495446682 14.38167 
20.938715 0.673579991 5.51902437 
16.6811981 -0.675320387 -6.93400621 
-5.92743444 -0.147608176 22.7697449 
-11.1455078 -0.260368437 -10.0691109 
22.3457546 -0.209271178 -16.485918 
16.0029831 0.0244786944 -14.0696926 
3.32791853 0.393953204 -2.53146553 
-10.0002956 -0.135090336 -8.04962063 
8.49690056 -0.070028998 -21.6037025 
-9.41892147 -0.370037079 24.0032063 
-14.6741247 0.15805231 -4.17943621 
22.999958 -0.405496448 19.1143551 
22.3727951 -0.0116095124 -4.64941978 
-15.1696501 0.394914091 -24.9942589 
11.1428671 0.0248252451 -0.312492669 
-8.33785725 -0.116972841 5.73116541 
21.3079662 0.695578694 6.27531815 
24.7016411 0.0790099278 12.5075169 
22.4601288 0.497122139 0.30663085 
17.8047085 -0.126761019 12.6330128 
-4.53397894 -0.287863582 0.18647629 
-21.5787201 -0.159325853 1.71696186 
21.22369 0.0331951529 -4.13180542 
13.4850655 -0.358736753 5.89637661 
-18.716465 -0.422360599 -0.12606281 
-14.6914263 0.353760839 -14.7993584 
1.84531927 0.110514238 -12.3917332 
-2.21242523 0.124643087 -16.9215679 
12.8881493 -0.177653015 -9.5993948 
-9.07453537 -0.0506252497 7.50833416 
24.2425652 0.191627741 0.593636036 
15.5509443 -0.00782923866 19.3925495 
13.8591518 -0.243338719 -14.2043419 
19.4945774 -0.399183154 -14.8970871 
-17.7281475 -0.189895347 -3.40076995 
1.17759705 -0.135302946 16.8803062 
12.6717463 -0.0107315509 8.02193356 
2.93979025 0.394433886 -0.888861358 
-0.371699721 0.459272712 5.59400272 
17.9555111 -0.7746948 -9.66118526 
-16.449398 -0.142968968 5.11069584 
3.37584877 0.20006904 -23.9557838 
21.081852 0.312795848 2.38165426 
-24.0471134 0.119582579 -4.98288155 
-5.10081434 -0.497527391 -17.3276482 
-13.0641193 0.248473436 -17.3590012 
16.6824856 -0.233383507 1.73464966 
21.2888222 -0.0223153606 -7.17103434 
7.0341444 -0.123394817 14.1534348 
9.41240788 0.251610994 16.858326 
-8.89214134 0.118571997 17.7201023 
-24.8395023 -0.0305210482 -1.82635677 
12.9897699 -0.0417568237 -15.9058323 
6.52686882 0.0365083888 -15.024601 
-16.0051613 0.420187265 -18.2921848 
-4.87940836 -0.259412527 -4.03048849 
15.3882694 0.193739742 8.16842747 
13.1079941 0.00142627209 -21.3035164 
3.53961611 -0.348703086 18.2403374 
3.87315202 0.316438764 -3.10655761 
14.0818968 -0.0515551157 14.4908724 
19.29916 -0.848569751 -9.79758358 
