ply
format ascii 1.0
comment created by gply, a Houdini tool.
comment converted from .[b]geo
comment for more information about Houdini, try:
comment www.sidefx.com
element vertex 1269
property float x
property float y
property float z
element face 0
property list uchar int vertex_indices
end_header
12.858758 -0.0603564084 11.5339632 
6.21946096 0.26840046 -10.6531773 
-4.64161539 -0.418902636 12.5536757 
25.1242886 -0.164868757 -15.6097898 
-15.5489426 0.299480677 2.9296701 
-16.2610893 0.432693392 -18.3428097 
22.4250908 0.167668447 -1.13164425 
-1.03665328 -0.266511828 2.01294732 
21.1660614 -0.0739078 -19.2552242 
6.64833736 0.251054257 -10.5739174 
-7.57577324 -0.453452498 -7.69997025 
-16.313097 0.277542382 -15.5829935 
-5.17512465 -0.653824985 -12.5309391 
8.16719246 -0.134911627 -15.1774464 
5.60213041 0.137232125 -12.7737598 
10.5159788 0.155292973 -12.785347 
-1.61699617 0.100974143 -16.7349319 
-21.5519619 0.327054501 15.0491219 
-7.68203688 -0.481848001 7.29160213 
14.6183052 -0.614751816 -4.92539072 
22.455595 0.399880677 3.96391225 
-19.4162979 0.0798254982 -10.0922527 
17.4398804 0.0530307479 -20.4609528 
9.51843548 0.0762367249 8.8942337 
13.3208113 -0.083923094 17.5431271 
-13.9042463 -0.318371803 20.4864044 
-22.2550621 0.654018998 -11.4478455 
14.7012281 -0.572535038 -7.30455494 
-7.27704287 -0.123613752 0.781268716 
-8.94681835 0.0379509479 22.9468346 
24.8189564 -0.991593719 -21.8468342 
-16.4248219 0.362892866 -17.7362156 
-16.6140785 0.483921975 22.9867706 
23.1712646 0.278807253 12.9017029 
-12.657136 -0.147506177 -12.1650276 
-20.3014412 -0.303233176 -0.653779984 
-3.85711265 -0.116039291 7.81829214 
-2.1078856 0.512317717 -19.9594994 
23.8003845 0.0585072227 2.8191855 
24.0698814 0.6887995 -11.5329943 
17.6565495 -0.167996556 -21.7331161 
22.3576851 -0.0990765914 -15.5032578 
18.6029453 -0.28535831 -15.3166275 
10.3595467 0.575959086 -9.1055212 
9.11961365 0.163045704 13.5241184 
3.65418935 0.113450766 -8.33127022 
20.0125008 -0.613094211 -12.4022732 
-14.4394293 0.0795330107 -14.3970079 
3.25216579 -0.0502318405 9.16349506 
13.8667679 -0.415972888 4.7686305 
-14.8987579 0.436048627 -1.25904644 
-1.79207325 -0.175666392 2.93649793 
-8.80607224 0.00687755039 -1.88762963 
3.40066242 0.466589242 -22.7143955 
19.8751831 -0.0919883847 -7.47030544 
22.2197628 0.535831511 1.62604332 
19.3780327 -0.219183013 -17.3729572 
0.431151509 0.280637741 -12.5205097 
-3.30572987 -0.229352742 -9.49265766 
-24.415144 -0.0512024499 12.9329576 
-20.4381638 0.489830434 -15.947278 
0.749991775 0.261401236 -12.3926392 
18.4043293 0.280990422 5.44111824 
3.22331452 0.156033084 6.28666782 
-1.458552 0.103783853 8.06519985 
-13.6199408 0.0482319929 -15.9191418 
-23.5638103 -0.127992466 4.2354846 
0.557418048 0.463063359 -19.6463947 
-10.8238935 -0.184339985 -10.6791801 
-24.7659721 0.463262111 -8.1881218 
-8.02462864 -0.989556015 -11.6295366 
19.2340775 0.457844049 7.94002581 
19.4060879 0.498344421 7.505445 
-9.35650444 0.134038731 -1.3281759 
-10.6633425 0.159974009 7.46348858 
10.4836521 0.0569712706 12.7240276 
-17.1763344 0.334380567 -13.909339 
-18.656805 -0.32428813 4.99505186 
20.4410038 0.0868461132 -21.6930161 
24.9135227 -0.0773423761 -2.37654948 
14.3360815 -0.306405365 5.91559315 
-9.81243038 0.212576389 16.5784512 
5.54289436 0.227064654 -8.70771694 
22.5644379 0.251251519 6.50760221 
7.16979837 0.399900109 -6.18063021 
18.1658802 -0.329997569 -5.49776411 
-17.4614735 0.170900732 -7.31793308 
10.2027788 -0.153691694 18.0263157 
-23.6440697 0.071766451 17.3929214 
-13.0029926 -0.00569066033 -15.2556877 
-18.3517036 0.533977628 20.9422359 
-22.4193707 0.044594083 18.6761761 
12.9994812 0.0451111533 11.176157 
-24.1285629 -0.18763268 19.2822285 
-13.1294155 -0.0821448416 15.9034777 
5.30645037 0.438108861 1.75333142 
-9.46758366 0.1447386 -0.759938896 
-24.3474197 0.124284454 16.6793938 
-21.2039719 0.337088346 -4.74214458 
-19.0022049 0.331434697 20.3230705 
-15.743639 0.396835625 -16.8731346 
11.2446833 -0.136613116 -0.609632015 
-24.0985699 -0.0194275975 18.6062794 
9.57330132 -0.0564483367 5.87703514 
-3.62915802 -0.27997005 -9.20149612 
10.5391693 0.17655769 -5.55850029 
17.2325211 -0.277225494 -2.71916342 
17.5347366 -0.0943569988 -23.0465221 
23.5079098 0.055338379 8.62473297 
-21.540678 0.654719055 -11.1660233 
-19.143816 0.596954465 -15.7864609 
9.67588234 0.149815887 -3.70307088 
-24.2223663 -0.041622255 1.54697824 
8.86193752 0.44414705 19.2803631 
-19.9201355 -0.533597767 5.29559803 
21.4019814 -0.0600007027 -10.5458422 
5.74246311 0.20860368 -6.5906105 
11.5382023 -0.117523551 -3.90256166 
-20.2945309 -0.241987452 2.79625535 
8.56433773 -0.115295283 2.0924387 
11.3092299 0.160909146 -11.3625298 
-20.3677826 0.0740935877 18.0492496 
15.8118038 -0.300451219 -2.8985455 
24.5673637 0.0725392774 5.53258276 
0.202664062 -0.123934053 18.0565395 
22.7376919 0.145840108 -3.54353666 
15.9592886 -0.0292353425 -13.5371885 
19.310627 -0.28728351 13.7542772 
-13.5828762 -0.242047638 -22.3625526 
6.03267288 0.269295037 -11.2496214 
-17.6935425 0.152513519 -8.12782478 
4.89650536 0.233284846 -13.7598467 
3.36889291 0.354501694 3.92751622 
-5.19961119 -0.282810926 -4.51880932 
-15.883975 -0.00472720806 18.7459354 
18.0904274 -0.0977851897 -1.02700973 
-9.72776222 -0.0118176974 -4.36806393 
-11.4971323 0.106141552 -3.39991403 
-16.5169487 -0.175084084 15.1228104 
16.250536 -0.321424127 1.25514507 
12.532259 0.00880502909 12.4164629 
-1.82427394 -0.330905765 -1.41344476 
14.3224068 -0.470290422 -7.64242744 
15.4898129 -0.449075699 2.56877184 
-16.4457722 -0.0222156197 15.6450424 
-13.5218945 -0.25412789 19.7490463 
10.5924854 0.485059559 -8.47839069 
-24.0506687 0.0330234841 -14.3887758 
-15.1480856 -0.416612625 16.0830688 
13.5614166 -0.404443145 -13.621542 
-12.0162096 -0.0420242734 -12.9996185 
-2.88897395 0.383944213 22.216198 
14.1588421 -0.588964224 -10.2393665 
2.69756103 0.415918738 2.26023054 
6.64255762 -0.139779642 17.1948414 
-17.8807602 0.414012104 24.4284782 
-22.7540512 -0.251531363 -16.6711445 
-2.51878119 -0.188605696 2.72559953 
15.0887938 0.521074831 23.7348747 
-22.9588947 -0.149483874 4.12568569 
13.9777927 0.131239906 -21.5706463 
17.7963543 -0.423758119 -6.39173317 
-12.2975655 -0.53809768 -18.7478886 
-4.36203098 -0.478713274 -16.0177727 
-6.41172743 0.0804008767 -20.9869442 
5.66870689 0.29195714 -0.101435058 
-9.37744427 -0.450501055 -10.6497517 
4.29748487 0.396583319 -12.9348154 
9.12262058 0.201935589 -3.91621566 
20.4416142 -0.186651558 -10.0769625 
-4.44734192 0.391226053 21.8691082 
-7.3113656 -0.0956268311 -20.272438 
9.52953148 0.080260776 12.7756205 
-3.64384007 -0.320775211 -5.03002548 
23.812912 0.0105884075 12.4017544 
8.04054832 -0.229936048 -16.7109547 
0.0418510363 -0.0520912707 17.6558342 
16.1869431 -0.0195214916 -23.1333332 
-11.1288624 -0.300526857 3.6505518 
-9.52066135 -0.00302153011 -5.81002808 
20.305212 0.426763028 10.6227074 
-19.9094315 0.0820836797 17.023098 
-13.5191612 0.291477978 -0.615825415 
10.933588 -0.0413728394 -18.9468746 
1.97249055 0.0387382507 -4.94588995 
-4.31103659 -0.427643418 -4.2703886 
-16.1465149 -0.0151869925 9.6087389 
-11.6749134 0.00177770364 0.695131183 
-17.257803 -0.194876313 11.0747347 
3.41043615 0.298149556 14.1526432 
-7.64419556 -0.449176848 6.9052515 
-9.98692513 0.228343189 12.3050156 
18.1924992 -0.369005114 -5.81766033 
-1.00202131 -0.372638941 -6.96269321 
-0.896986961 0.47713235 -24.0206814 
21.2312584 0.114553422 -3.77869701 
9.13810444 -0.277563334 -21.2162056 
-14.1143732 0.191149339 -3.67125773 
11.5710583 0.0999108404 -7.11377859 
3.46450019 0.359082729 4.9496069 
-4.84625292 -0.484600276 -0.541799426 
-24.3055782 0.703896701 -12.2066641 
11.0336046 0.145980045 11.7854176 
-20.3046761 0.264411986 -18.64888 
-21.0163288 -0.311390489 -1.17557955 
-23.2756577 -0.353571683 10.2745838 
-1.86674297 0.051805649 7.51107931 
-12.5634842 -0.0211028047 -13.3201036 
22.4085312 0.464455724 -9.7461071 
8.44470024 -0.0301043503 6.22266054 
-3.25829124 -0.143225372 6.49360085 
3.91554236 0.119782113 -7.50742006 
9.99645901 -0.111106686 -17.7886581 
-21.3956623 0.402374953 17.6255722 
-15.0534306 0.0502366722 6.82191133 
-4.38593817 -0.426849425 -8.21658802 
8.63919544 0.564431727 -9.41943645 
-15.9190788 0.291635156 7.23046732 
1.85818684 -0.111478798 17.0854492 
-9.38981915 -0.135163203 -7.60340834 
-14.0823717 0.509099305 0.742244303 
-0.707712412 -0.255697489 -4.95335865 
-0.780678391 0.406619102 -16.9899044 
-10.667881 0.366391093 13.5507011 
-15.3208685 0.227230549 6.17896938 
-12.6482773 -0.195856512 18.3478184 
-21.4916363 -0.279270828 -1.83965313 
-3.60783744 -0.373137414 0.954431057 
17.9932117 0.0734764189 18.8731079 
-7.09591866 0.254479229 14.8368988 
1.59325325 0.437581539 -17.3288364 
-20.579483 -0.402264506 4.25112391 
-3.05706429 -0.280596912 10.0205898 
9.26390362 0.240559757 16.4808121 
14.6878786 0.0525648221 11.7048922 
16.2541523 0.24207513 -17.1191463 
-13.8639402 -0.12915425 -21.706192 
-23.791048 0.28963837 16.2717819 
0.29889518 0.0237140078 10.6759491 
3.1746707 0.292358488 3.02614784 
-19.4083214 -0.279137164 -0.655381262 
8.98957729 0.446759284 18.5788708 
-24.9839764 -0.211879149 0.0319306552 
6.51192713 -0.143693149 15.7710466 
17.116724 -0.00531157199 -17.7202511 
-1.89642882 -0.374724537 -2.61386442 
-18.2967892 -0.313879162 4.73939991 
-20.2590847 0.210766762 -4.083426 
16.8594704 -0.0465930328 16.6138058 
21.4400921 0.400020957 10.0966787 
-21.5637894 -0.291142464 3.24510074 
23.2925892 0.213358432 -3.63809443 
11.5539284 0.0694817901 -3.042665 
-24.8715096 -0.0911676735 3.21393132 
-3.02518868 0.613870442 -22.0418739 
-13.0169182 -0.173663378 -9.61321354 
1.19779372 -0.46201998 19.1465073 
-22.1887817 -0.370169252 9.1741457 
-2.20783186 0.00238839816 -15.136404 
-22.5060596 0.402090162 -13.512373 
-22.7023983 0.334481269 14.4762812 
3.48396397 0.285433412 -9.77296829 
-8.80261803 -0.0449183807 6.07299423 
-1.74610054 -0.0622553863 19.9841824 
-2.38123846 0.0223974586 -10.4465237 
-3.08276725 0.381657213 -18.9802208 
10.2414532 0.14366433 -3.00973845 
-0.852752388 -0.0596815385 19.5040398 
22.3651276 0.324009567 -0.311390787 
16.6738796 0.11819303 6.77923965 
-23.6839352 -0.382172137 6.03371525 
23.8079262 -0.159681097 -15.5226126 
-5.38021564 -0.712012231 -14.1231594 
-12.0332899 0.142098084 11.8356056 
-23.5023918 0.0223591365 18.7900162 
2.93262339 0.23480083 5.79184628 
12.2125111 -0.337242365 -12.0354185 
-15.7484646 -0.288489193 -6.68991613 
7.02383947 0.290044755 1.59775543 
-21.4670963 0.500539422 -6.45628881 
10.3089895 0.0969894677 -3.6122551 
-20.3029022 0.0547207706 17.2090492 
-12.3216658 -0.0573802255 5.32046032 
-3.9074688 -0.466042906 0.43679747 
20.5691624 -0.548649728 -15.1371059 
-16.3169518 -0.0129176173 -4.27198601 
-2.34916925 -0.0533611141 18.9226379 
18.8996658 -0.0445972979 -20.9466152 
-19.0935364 -0.1693867 14.1252441 
-14.7109699 -0.309051216 -7.67036724 
-3.76464653 -0.0131991794 17.2703991 
-15.336586 0.503011942 -19.2122822 
20.5282059 -0.583374858 -12.9758444 
5.5844841 0.116780855 10.4648991 
-1.34679317 -0.342301697 -3.82291794 
-7.37068701 -0.173945948 -17.7451763 
4.61050892 -0.464638025 18.9420719 
3.50144076 0.142474264 -8.33446121 
-22.7926216 0.196644396 17.4764786 
24.3021984 -0.318565756 -17.4560642 
23.4284382 -0.891286671 -21.5126362 
7.70724058 0.407409549 -9.60381031 
-8.90396023 0.530242324 14.8807821 
14.6182995 -0.112174019 7.15838385 
6.60462618 0.225913391 -9.63591576 
-21.2541161 0.615663588 -13.2318325 
13.6125383 -0.0347251147 -20.4403629 
6.29029083 0.389839947 2.38348198 
-22.1745071 -0.360762745 -0.850995839 
-8.29724121 -0.0211677589 11.2189121 
-0.796521723 -0.157733649 10.6343222 
-0.622127056 -0.256386906 -8.74689007 
0.926315427 -0.0751919672 24.2777729 
2.62438011 0.189421281 12.5463085 
-19.6452255 -0.381386131 8.95524597 
8.13803291 -0.00634036539 -0.720738947 
2.04021502 0.249076158 4.94226027 
15.4174376 -0.228900954 -13.3675861 
1.32537854 0.27602157 8.01407146 
-13.5068779 0.191982538 1.81042397 
-4.40517902 0.036710877 16.120739 
8.91570187 -0.0905348808 -18.9623642 
8.11548233 -0.108926371 10.7544661 
4.55677462 0.255273402 4.11863279 
20.0814323 0.505550444 2.1986289 
-19.724371 -0.136823073 12.5079994 
12.1280594 0.0122960694 13.0113201 
-16.2939816 0.0612260289 8.70014095 
14.3502722 0.183040783 12.293354 
20.3076515 0.0127939042 -18.8574371 
2.86227417 0.424155563 -14.7037535 
-9.20178318 -0.297752529 -8.12341213 
0.177173302 0.0987449214 9.88237953 
-8.77639008 -0.00474753138 -1.72417223 
-11.9760857 -0.489536077 -8.15808487 
22.5301914 -0.25631848 -17.1560345 
21.0300465 0.136064455 -7.14289188 
-20.8486843 0.193777651 14.3405676 
-18.1490955 0.512424052 -24.2279377 
-19.2116699 0.208517894 18.2202129 
10.1050644 -0.175704449 2.28429222 
-10.7435999 -0.34435603 -14.7186718 
-23.0737019 0.0400051512 19.0424595 
11.6435547 -0.192380175 -17.269434 
-6.74334478 -0.0127663407 13.4349155 
17.2317314 0.00997358374 -16.8389969 
-0.895145237 -0.0910932869 -11.1662416 
-17.6205559 0.0801502168 1.84809685 
10.4496746 0.0743923858 -13.8414803 
-1.60507691 0.228255436 5.90599346 
-19.6249504 0.269562244 20.9154148 
22.9649353 -0.100435995 16.6317902 
1.57741594 0.0360629782 -23.6631012 
-20.8511696 -0.368282109 3.26199007 
18.6786633 -0.109212913 -3.09831452 
20.849247 0.616661251 6.86601925 
-9.77330017 0.232646033 16.262331 
-1.92820215 0.0405967794 7.38008785 
-10.0450592 -0.378973752 -11.9291601 
-7.61885929 -0.485741615 9.26153183 
-5.95910597 0.553551257 18.9352646 
-0.269239277 -0.236288428 -3.49667692 
12.2706528 -0.00420980342 12.9139338 
-8.71842098 -0.272848696 -7.59467554 
12.8017883 -0.533495605 3.61181498 
8.34024239 -0.0322004408 6.50306749 
-16.4847755 0.420556128 -1.64525652 
17.0953255 0.191527352 7.45674801 
-3.14109349 -0.229728699 9.60846806 
6.5857358 -0.363926739 -18.6978531 
-10.3722496 -0.00123618171 0.197200611 
21.64361 -0.330445886 -19.8398724 
6.77661943 -0.00218608137 12.4047136 
-19.8502846 0.513811886 -14.7642288 
-23.8984947 -0.335193872 5.53801823 
-13.3573961 -0.0434734859 -15.3139467 
16.7076149 -0.221864134 -4.30107069 
-14.8739986 0.541597486 0.72432977 
-10.756073 -0.130870506 1.8130945 
3.98722935 0.412178934 -12.675128 
23.3637733 0.193036407 5.59728813 
8.86208153 0.0735449046 7.23095512 
4.54755688 -0.0208015274 10.0442085 
6.45163441 -0.204833031 -16.7661152 
-16.3052731 0.236344427 8.25303268 
-2.43867445 -0.216476843 9.50499439 
-13.7030621 0.0568549633 4.5296998 
-21.0650005 -0.474460214 0.389964849 
-15.8750992 0.266434491 6.93867397 
3.34810591 0.373083919 -3.03875518 
-6.22409296 -0.356739521 11.460228 
12.3113899 -0.139852241 -17.660677 
-17.1738415 0.312396526 -15.5204058 
-1.30098355 -0.300234824 -2.81521034 
16.9402866 -0.673208117 -11.2919531 
-6.40587711 -0.464167029 -7.59133196 
-5.8841629 -0.331949174 8.15708733 
-18.6381721 -0.275369853 14.6497946 
19.820837 -0.485909969 -15.3784704 
22.9508858 0.343071073 4.17368937 
3.32683563 0.380768895 -16.7681236 
-7.12134266 0.264396936 14.672576 
-9.97007942 -0.214387715 4.66466045 
-5.63120461 -0.356625944 -17.3530483 
14.8554192 0.0312878825 11.4491682 
-3.71250272 -0.422388554 13.1490393 
24.0737133 0.158136457 -3.09317613 
-14.617382 -0.089242883 -5.43883896 
18.9888096 -0.0042472044 -2.10187531 
-9.69537258 -0.151863053 4.01769114 
21.6408691 0.310984403 9.18808937 
-21.8983402 -0.156269163 2.33352971 
5.88383722 -0.200739756 8.60512733 
7.7707181 -0.224586576 -18.6343575 
5.3902216 -0.241980091 -18.6772404 
16.606905 -0.180358291 -1.63741577 
17.7152309 0.326886743 19.4736671 
17.1381454 0.102344833 12.7294254 
-17.8735943 -0.0992437378 2.51899123 
3.17940569 0.386618972 5.44134951 
20.6378937 0.567761719 8.76160908 
-7.80972958 0.0297586136 12.1498814 
22.4039822 0.350011885 -8.38926506 
24.7730083 0.0875869989 15.004775 
-15.4599028 -0.211558759 -10.4609365 
-8.40968418 -0.454064339 -8.22764874 
17.4529533 -0.274593562 -4.73121071 
2.30866671 0.424525142 -14.4793177 
-8.41428947 0.179536417 18.1776123 
-0.394417763 0.378962576 -18.1307125 
-14.811739 0.00538651133 7.28762484 
-1.72139812 -0.116405025 3.50272822 
8.54745579 0.0189235434 6.47020626 
9.16513252 -0.0547955595 10.3803024 
-14.5912066 0.167342037 -2.03802133 
-1.51884842 -0.0847589523 9.03322983 
6.39362383 -0.170780063 5.4637804 
8.60270596 0.0360566825 -2.04178572 
-13.3142109 0.341543257 -2.72861671 
5.95964003 0.0544118956 -13.5841846 
-9.69630814 0.096572116 18.9354115 
-4.6638732 -0.490425378 11.9984121 
15.082365 -0.626927257 -8.60669708 
21.6860924 0.466193438 2.06136942 
-15.3433981 0.26676172 6.01443911 
14.8192587 0.156647295 -20.5518246 
-18.1622925 -0.217891976 14.1683197 
22.2216473 -0.471464425 -24.8798981 
-1.87246394 -0.338891149 11.2864952 
-12.9534674 -0.170232728 -16.3883648 
-10.9729462 -0.126821786 19.4187641 
-9.15783501 -0.0204730798 4.80221701 
-0.991855443 -0.299066514 15.1015759 
-2.73055339 -0.33997038 -2.36060405 
6.6831193 -0.0494832918 13.5605354 
-11.1975298 0.233560368 9.93000507 
-1.98083985 -0.0823368654 -10.5930033 
-24.6580791 -0.826740086 22.1184807 
4.20526695 0.3072519 -15.524766 
-17.0969772 0.299555689 -16.709259 
-1.94096446 0.0573440939 6.08503008 
11.8807545 -0.0191442501 -9.88015461 
25.0149784 0.37955451 -7.45741034 
-12.1942768 -0.14024812 17.5138168 
15.2739058 0.0766344145 7.42645311 
-7.63629198 0.188086793 13.3388653 
4.68793726 0.0952229947 -3.78459501 
-9.30955696 -0.0543411076 -6.29815006 
23.6949768 -0.0534831621 16.4659538 
11.4684038 -0.149888888 -1.27721226 
9.89408684 -0.0836287588 -18.0895748 
-9.59608459 -0.0273250639 5.30602551 
-20.4434605 0.320932001 -6.75536537 
-12.362442 -0.04536606 7.93977594 
16.3491096 0.147989482 -18.5639381 
4.24832392 0.23116383 -6.27495193 
-17.5452461 0.389156789 -9.8676281 
-21.6642628 0.0532162637 13.4128065 
-3.56706834 -0.335339725 9.57221699 
17.1742687 0.064645499 2.51050115 
7.26805496 0.0726571977 16.8401413 
9.07515717 0.427351564 -10.5789642 
3.10077214 0.270880103 -20.6601772 
20.9186363 0.644942284 7.03526354 
-5.93501091 0.147046655 14.1316528 
-6.63505507 0.10875079 -23.6994038 
2.12806582 0.0167217553 16.0193424 
-0.131267354 -0.314466119 -9.82198811 
21.6821499 0.299342662 7.49736214 
-21.0989056 0.139278993 20.0015736 
22.4873085 -0.11371123 18.0050678 
-13.5013647 0.0862354636 -4.09168816 
12.4853535 0.0363694057 14.8996954 
1.25134397 0.229187325 4.61425352 
9.67024994 -0.0991817191 -0.254949659 
-17.8196106 0.269084603 18.6293221 
-18.6609993 -0.187233984 -2.63842678 
-22.3216019 -0.136466607 11.3841009 
7.67012835 0.0690624565 15.9771099 
-23.2811241 -0.17414844 -0.749352217 
8.87456799 0.300298989 17.8304157 
-1.11532116 -0.118557408 -10.9814787 
-24.4025612 -0.260944605 12.1205883 
-20.1870842 0.0250091366 17.3429813 
-7.91929579 -0.409824669 8.39389801 
7.68395615 0.0543798208 -13.8190022 
24.0287933 0.140899211 13.879632 
10.0099945 -0.143220603 3.8110137 
10.8768196 -0.183852866 -16.9536572 
-24.1156559 -0.227793932 11.7447805 
16.3035507 0.104644082 -14.4091721 
-17.8795166 -0.000694780494 9.22101498 
-24.5068321 -0.0916035399 0.155951738 
8.7134161 -0.167049542 3.48427701 
5.79070568 -0.147692114 7.63201523 
-22.87113 0.278848171 -5.91261101 
-15.9050913 0.241764024 -2.92110181 
-9.3289156 -0.0108565576 22.1765995 
11.088335 0.108910993 12.9597988 
-17.1978226 -0.218292937 5.83584309 
-3.8439157 -0.568562567 -10.3883667 
-0.772089839 -0.345669091 -6.05910683 
19.4238548 0.0402922034 -2.02403235 
-2.72565436 0.673445582 25.0991001 
-3.61435366 -0.415475458 15.1146412 
14.4584064 0.104031518 7.98394203 
14.4752417 -0.608685732 1.37345469 
22.3353577 -0.117781512 17.3490353 
0.0190263093 -0.11951296 -1.76062572 
-7.58308792 -0.654066801 -8.74867916 
21.7772732 0.277651101 7.91451311 
-5.64871836 -0.173370838 9.12556934 
-1.52697217 0.185042694 6.56662989 
0.0701079071 -0.167423442 -3.64004064 
14.132762 -0.676443458 1.89733434 
-9.88357067 -0.0260185469 -6.91630459 
-9.39984894 0.157502353 -3.14083481 
-4.05240774 -0.15466392 3.83839178 
-1.382406 -0.341791421 -4.2045722 
14.5258055 -0.48856473 0.0945895314 
5.59435892 0.189342037 -3.10259271 
21.9055843 -0.158986926 17.4863262 
14.3819551 -0.652451813 2.4350903 
20.0936832 0.0634005889 -21.3183384 
8.05192661 0.507972002 -7.00387478 
21.3082676 0.0384903476 13.1608372 
4.25327682 -0.0367161296 6.47620726 
12.8074379 -0.312552691 -1.39262867 
22.5635357 -0.588912785 -20.0109196 
-4.79028893 -0.142139047 3.66406441 
-12.9473858 -0.246007904 -11.7044544 
24.3221588 0.520572186 -8.57786751 
-16.9967937 0.0202637166 -3.26363397 
-3.19322228 -0.260323226 15.9758272 
15.7510033 0.335263997 -18.4308319 
4.64543343 0.154408872 -8.79115009 
19.0277882 -0.377636284 -15.866437 
6.12820339 -0.290835947 -19.0515041 
-15.0275583 0.473603368 -18.105545 
23.7093258 -0.117924012 15.8278027 
-18.5879364 0.526764929 -15.3149843 
-20.068037 0.528331339 -12.77952 
-17.5181999 -0.0684111044 -2.32529306 
14.3002863 -0.191815972 -1.64114773 
13.4150963 -0.0544587225 16.9399338 
-3.23692131 -0.0685046688 7.41538286 
14.2798471 0.206321895 8.46922684 
-18.9482403 0.0994281843 -6.86770916 
20.065609 0.20525521 -22.5477238 
-8.55966854 -0.0937324688 -5.21696091 
20.7158279 0.190658092 0.382155538 
-6.86391878 -0.275272548 -0.0672229454 
4.4154315 0.00960870553 14.9854259 
-3.54540348 -0.0666996688 16.5671711 
18.9908257 0.322353512 -23.6118069 
-14.7496424 0.602603555 0.455349743 
-11.3659134 -0.352790028 24.9027233 
0.277352005 -0.190407977 11.804512 
19.7735577 0.287415594 10.7828541 
-10.0799026 0.0803201646 -2.61173415 
22.3137722 0.317243934 10.7507467 
-9.91728306 0.188864082 14.9643717 
16.9874115 -0.0771989375 -13.906353 
5.56483507 0.128950655 -1.43835878 
-21.9236603 0.528811753 -12.7709513 
-13.6695223 -0.382889986 20.8739014 
-4.58169365 -0.698420107 -10.3487701 
-0.831418037 -0.391623974 13.5381985 
-11.0861797 -0.608516395 -18.5173092 
-3.96253681 -0.378703177 10.1170483 
-10.8473949 0.193383813 9.06671047 
6.79139709 0.190492108 -2.44420409 
10.4010801 0.175213963 -2.17126417 
-10.7260361 -0.144711986 1.95003927 
8.59407902 0.206680223 17.8417568 
3.46694589 0.387660116 4.13693094 
-19.2340908 -0.156118199 -3.04056454 
-0.125210643 -0.122563452 11.0675764 
-6.46524906 -0.234140009 -2.05547261 
1.47934914 0.0289469194 12.9023075 
-2.88842821 -0.303974569 -13.2258816 
8.60445309 -0.0231267177 11.5845289 
-24.1997318 -0.456019819 10.0592728 
15.3987389 -0.714494884 -8.57429218 
24.0678997 -1.01425159 -22.4926929 
21.40275 -0.267176926 -17.2552776 
-10.3088255 0.172123939 11.1957788 
-11.3888597 -0.347365588 -6.74733829 
-22.8870277 0.0902754962 -4.75352335 
22.8848629 0.467736214 -9.70076847 
17.0183163 -0.659299552 -11.4180784 
11.9057684 0.0505726747 11.3335476 
4.47775602 -0.475965947 18.4554386 
17.3287525 -0.275952727 -12.9494419 
1.56056952 0.0823570341 -2.90981817 
-0.360269606 -0.255088598 0.502580941 
-13.4433308 0.156220272 0.832406342 
17.1654739 0.395693421 19.189682 
9.25475025 0.311058819 17.381937 
2.35892105 0.357143879 -13.0805817 
-5.76829004 -0.459250599 10.3605118 
-1.57734346 -0.315348297 -3.40721893 
-18.6612625 -0.180289373 3.99677372 
15.8792353 -0.291157693 -12.7107515 
16.5082874 0.0766626596 5.72502422 
13.7437611 -0.567060947 4.16655302 
21.0450993 -0.0240682438 13.3372555 
16.436348 0.0736262649 -24.8286686 
-11.6617165 0.203974605 9.60116863 
-19.2515736 0.0618427098 17.3858204 
20.5780067 0.721355438 5.61008644 
-6.81226873 0.0405329205 -5.20710325 
16.9471207 0.0944060385 8.5905056 
8.28293705 0.0772847831 9.59150982 
-13.8174782 -0.0473418236 -5.2735939 
8.28982639 -0.027171256 7.12325764 
-6.63495731 -0.0899293646 22.8978386 
-19.8797913 -0.596026242 7.94663239 
-6.70318127 0.0277964659 -5.25785065 
12.187541 -0.158549994 -8.84452343 
20.8757648 0.0978545099 -3.61935377 
18.4380322 0.203587338 9.84543991 
17.4906578 -0.26535055 -2.36235499 
-8.51638222 0.445107728 15.2274513 
0.128372356 -0.336436927 -9.32274342 
11.8613596 0.0306292176 14.9067354 
-1.72479916 -0.30427447 12.4207668 
21.3598442 0.303610861 -7.67792845 
8.90301895 0.162681401 16.5991898 
4.55156326 0.211898729 -22.7059021 
-10.6406775 -0.39327094 24.0114861 
-23.0779305 -0.080949463 -1.91512752 
-9.54062557 -0.301491857 -20.7340679 
21.9923382 0.316355228 10.5779581 
-2.8155241 0.0161049925 -9.44388485 
15.7189951 0.0630120486 6.58557558 
17.8402538 0.259318441 19.4734497 
2.11818624 0.211500078 12.8222523 
0.688730955 -0.0434804596 1.35129356 
-19.9691353 0.205136076 -5.02352715 
-24.0698833 -0.302118033 5.16523647 
-18.4266739 0.470713556 -15.2739105 
11.1904945 0.167080849 23.7142715 
9.50461483 -0.0498999506 9.52011776 
-23.6862659 0.355823934 15.6845398 
-5.30502796 0.175897449 15.1539354 
-3.53555393 -0.366984129 1.33397233 
-2.48389673 0.00877806172 -7.4455986 
6.16857004 0.142228097 -9.10930252 
-0.424775779 0.508363366 -17.2359695 
10.9255695 0.118976831 12.057374 
23.1936626 0.173981398 6.96637964 
6.56257963 0.0304671694 13.0242348 
7.94411898 -0.133856893 -15.2596035 
14.8976164 -0.0382428244 -18.5859318 
-14.0793409 -0.0442515463 -5.04001284 
-17.8327866 0.377453595 19.3048992 
-17.6023502 -0.133219585 14.5238056 
16.9608536 -0.121181563 15.0470419 
-19.0190887 0.200597495 18.0400295 
21.4137478 0.311333925 -7.90167427 
24.2874069 0.622143328 -11.7344179 
19.2055931 -0.363866597 -16.3029804 
-24.171793 0.22950086 13.6237116 
19.5233803 -0.214516684 16.0143871 
-20.3988876 -0.220907003 13.058795 
15.8071318 0.227861837 19.4657059 
12.6136818 -0.460592568 -12.6086149 
22.8624802 -0.197167933 -16.7583771 
-6.72017384 -1.01612413 -11.6461954 
16.4742794 -0.222239837 2.85373974 
-12.6130314 -0.23434329 -15.9881201 
9.4266901 -0.0757550448 -19.1343212 
-4.2938695 -0.165605575 7.22791958 
-6.02242851 -0.308909386 2.64778757 
24.4223423 -0.088692531 11.907897 
2.16547775 0.391809076 -12.2922668 
-17.1775627 0.305189431 -10.7253532 
15.6151333 -0.455700308 -4.38624382 
-13.7458735 0.115992263 3.78945827 
20.9816666 0.366876245 11.3432789 
-20.6804943 0.267696112 21.0909939 
-22.4534931 -0.281059623 -0.700452805 
-17.7868176 0.354345143 -9.67668343 
2.45715904 0.324076235 -10.0196934 
17.692976 0.361004651 5.28255701 
-21.4071236 -0.449233562 7.65114737 
-20.3493805 0.0608920455 17.3756199 
22.2802887 0.0617302544 -4.70652866 
-17.7560234 0.355609417 -13.6094055 
-15.0891228 0.258120716 -2.44670057 
3.80270743 0.598013699 1.58662808 
-19.404274 0.465242416 -12.9331493 
16.4725285 -0.0168984551 10.2472191 
-8.15657234 -0.00892323814 -0.307536751 
1.34138882 -0.162707046 17.0794983 
-4.27542162 -0.0146456901 -19.6957779 
9.67018795 0.357801288 -5.18345404 
-24.8140774 -0.307327598 11.0197506 
8.82741547 0.626430631 -9.26591206 
-17.0653572 -0.0958200693 -4.91318035 
23.4247742 0.200270474 -4.02390766 
-0.459157228 -0.199193344 1.15078926 
-7.40690041 -0.441416353 9.71015358 
11.7242174 -0.0995055065 10.1151628 
8.58007526 0.467543006 -9.86123943 
-19.8211117 0.0915944278 18.4747581 
-20.6883678 -0.0920375288 -2.63544345 
-0.628963828 -0.22262162 -10.5951576 
14.4005985 0.0900038555 -20.4673347 
-9.17598915 0.0286803339 18.7241879 
9.84030056 0.494865149 -6.51295233 
20.2350693 -0.642430067 -13.729393 
-4.8749795 -0.518241882 -1.17399669 
-19.3907452 0.452319294 -18.3282394 
20.6773643 0.182317197 11.7873001 
-14.3576727 0.573487341 0.107303388 
-6.99397898 -0.415675342 5.08379936 
6.77539587 -0.321836829 -15.7697334 
5.43333721 0.257117838 -12.548193 
-22.4228058 0.111611769 12.5588961 
-5.90726995 -0.417720228 5.56989574 
4.19147491 0.190632761 -9.4507246 
-6.46102142 -0.0147936409 -4.21882343 
5.15974855 0.345124722 -12.8829031 
-12.450861 -0.0865221694 7.74290466 
23.8884296 -0.259006649 -17.1283092 
-21.8374577 0.543122947 -6.1681695 
-21.4504757 0.600170493 -13.1577997 
16.1761799 -0.366657495 1.38578641 
-11.3772602 -0.0155962361 6.07031679 
-14.6034441 0.0404022262 -21.3147678 
-5.73886585 -0.696063638 -11.3116684 
-1.54027605 -0.422108561 -6.29683065 
-1.66243756 0.090409182 8.24904537 
16.0684109 -0.435997099 1.33703721 
13.6163092 -0.184472978 -17.2505054 
2.7956264 0.153933302 14.8422441 
-11.3321238 0.0293219537 6.4226675 
-3.32477427 -0.473780274 -2.00647068 
-11.9969263 0.242018193 -3.55054545 
-22.3515568 0.851589978 -10.3745375 
9.30173111 -0.370187342 -23.7420502 
20.5952072 -0.00908875093 -6.29530334 
-8.85807133 -0.0197943859 9.82337666 
2.75619149 0.383640379 -2.11915016 
-17.9873371 0.256607056 -10.9573479 
-23.0147858 -0.0678025782 12.1518574 
9.02702904 -0.198682547 -15.0476942 
9.42687511 0.657611966 -9.66237831 
-14.2512989 0.142752782 -15.3754444 
-4.06984997 -0.494678646 -14.420949 
5.90373135 0.189562544 -7.44209528 
17.5171375 -0.255667388 -18.5305386 
12.6585464 -0.165163592 -7.78622341 
-3.08433533 -0.537935257 -3.29065132 
-24.1638889 0.255043656 16.2388153 
7.64854431 0.0913711563 13.7048244 
16.0141029 0.321177304 -16.1928616 
-13.7017145 -0.0408642963 -10.2515545 
-20.742239 0.389673442 -5.46687222 
0.730262756 0.243250012 8.33732796 
-4.43606281 0.304783165 18.0117092 
11.3566322 0.109480776 11.4269171 
19.650013 0.453523338 5.90848637 
-18.4509449 -0.0168413687 11.8292818 
10.6847754 0.339941025 -10.3866596 
-21.8870773 0.0575962029 -15.9212408 
-6.01464224 0.258865774 14.938179 
14.8628445 -0.0940627381 18.0911484 
15.8369999 -0.229639694 -2.26155114 
-17.8022251 -0.187091067 7.54049015 
-2.30205059 0.577547729 -19.409174 
1.34193671 0.201432154 6.03023481 
-24.5095768 0.152795047 -13.9559393 
-2.20785856 0.624712884 -18.7975101 
5.14193439 0.247174367 -7.35798216 
16.7038593 0.11948052 8.34050846 
1.54001486 0.253234148 7.68765259 
-18.5383644 -0.363739699 15.4348049 
-0.584688783 0.471721619 -16.8048267 
4.43176603 -0.132352456 8.27523232 
0.0954851061 -0.135310903 -10.8111706 
2.79955149 0.411429077 0.91925782 
-23.286129 -0.1071546 3.09197211 
-23.302145 0.729700267 -10.823945 
9.74868488 -0.108861811 -17.4428711 
23.9906178 0.739034951 -9.91283607 
21.0856571 0.213583902 -8.03786755 
-6.35403252 -0.33047238 2.34522271 
14.2087622 0.0350094028 13.2185621 
-22.4312496 0.143407941 18.0794544 
15.3834162 -0.284323186 4.73660374 
-1.36923516 0.522800505 -18.5745888 
23.8938522 -1.01122582 -22.1857929 
19.1142483 -0.162479192 -6.15024805 
-20.7157974 0.251421124 -10.0084629 
-2.7586019 -0.108754605 4.06353855 
-13.1163244 -0.200884297 18.1740799 
-3.1758244 -0.127093121 -6.85953903 
-7.4800663 -0.253815889 5.22576475 
18.7920284 0.138030529 -0.832984388 
19.2475262 -0.214272454 -5.70974636 
-1.50468016 0.455441594 -21.5678635 
15.6728296 0.0930913836 13.6367092 
11.1406107 -0.176729351 -14.3171301 
-22.5894279 -0.332010359 6.56458712 
5.14664888 0.217157453 -11.8712158 
19.1387024 0.394902468 -22.9884872 
19.273922 0.356188208 4.47295618 
-19.6344891 0.325591773 -7.48966503 
2.12586331 0.391377985 3.60256386 
-5.41484165 -0.643256307 -12.1830482 
6.85197735 0.0779406354 11.3519869 
23.5689754 -0.120940842 16.0702019 
-18.5602703 0.501180351 20.2302971 
7.53420496 0.446611643 -6.26259136 
-23.8118534 0.0515852943 -5.4168191 
-6.9621253 -0.712016463 -12.9291859 
10.5154486 -0.099470377 1.01475716 
2.42623091 0.385191649 5.03071928 
2.22508335 0.418723404 -14.5902357 
-6.02753401 -0.205848679 -3.37810588 
-16.3025036 0.250134051 -2.80683899 
-7.05450344 -0.347123772 -16.5724449 
14.9523058 0.116525821 10.72575 
3.74169827 0.444369256 0.223609656 
0.596943736 -0.159620732 -8.55073357 
0.745970726 0.356188446 7.38420916 
-16.551218 0.418291986 -15.902729 
9.57654667 0.206909537 -4.07453203 
-23.5799236 -0.462336898 -18.3107948 
-2.12659216 -0.333571851 15.1365881 
-0.516685009 0.282471508 -14.9514303 
2.79829192 -0.147213399 17.3263168 
-18.9661846 -0.443172544 5.58444452 
-13.1314573 -0.0395652838 -13.4515982 
-8.4713068 0.0121260136 -0.330076456 
-19.4120674 -0.0501173437 -4.43932724 
-1.66394973 -0.390508682 16.7271671 
20.2368145 -0.216551229 15.4676552 
-24.6902237 -0.339708745 11.5710192 
5.61358881 0.280858368 -11.8382025 
-3.68001103 -0.361481756 -14.7195234 
6.4611721 0.0489961952 11.0154133 
-24.1447048 -0.0837007612 2.0027349 
-17.199791 -0.0815363601 -3.74577785 
-5.62186766 -0.423187196 7.13932419 
-22.0038261 -0.390123516 8.73134232 
-1.13437331 0.173295274 5.26406622 
7.18008614 -0.114904292 24.4874039 
-16.1674156 0.123825811 5.83073473 
12.2961988 -0.179100946 -8.56028938 
12.5190611 0.147643253 7.96684361 
18.79636 -0.159005776 19.2944012 
-15.4991608 0.0626372769 7.34102917 
2.78573608 0.197238132 -23.9717522 
-1.16661668 -0.120576948 -11.2511244 
12.4420452 -0.31063351 -11.618434 
-24.7066669 -0.149068519 4.01361656 
-1.09230971 0.391707927 6.03783131 
19.187645 0.389255613 6.78411579 
23.6657047 -0.154744461 15.4582853 
-13.7104263 0.0947808996 5.12847519 
-13.6814899 0.0909636915 5.49362516 
1.75203669 0.261256278 4.46011066 
15.817977 0.207697928 24.4977016 
-12.0811825 -0.0845509693 -14.8597107 
19.4059429 -0.172827289 -3.41463876 
-8.19910812 -0.523282707 -8.22533035 
8.83471012 -0.236574501 -15.5347252 
6.87919521 0.241601244 -8.44216824 
24.6341667 0.332132995 -13.2430334 
-23.7943115 -0.0142566878 -14.9781866 
4.60531807 0.112375356 -8.59101486 
24.2505112 -0.0257751774 -1.16399801 
-6.86505604 -0.265470266 -16.8602314 
8.64955902 -0.172725439 -19.2194996 
0.510501325 -0.0564709194 -4.90868521 
0.144500703 0.387338161 5.71398067 
-1.71955907 -0.277114898 11.7952948 
11.4994364 0.0518087931 12.3881102 
18.4345284 -0.505150437 -13.2033749 
-20.9653702 0.271762788 -9.56079578 
-14.4987698 -0.255978495 -6.88180208 
-6.21017408 0.375505 15.351222 
0.790112555 0.159330219 3.18239379 
9.59079075 0.148065507 8.58529949 
1.85137939 0.416396111 -0.382253498 
15.0410557 -0.548032284 -11.4456902 
0.422544718 0.436837614 5.0430398 
-15.146781 0.121808313 21.9190884 
19.3536282 0.478279024 7.06128597 
22.7272415 0.180807725 -4.63103533 
10.7728891 0.0510225222 -5.29699898 
-6.03879213 0.457287848 17.8672371 
7.69381332 0.0349607132 7.54929543 
21.3287582 0.386758029 8.1609354 
-11.7659302 -0.111056961 -5.74705505 
21.9764175 -0.200467288 -17.1312027 
7.12555885 -0.0639279634 15.5641394 
19.9074287 0.341606677 1.12136066 
-8.49676991 0.182687119 17.3120785 
-5.66012287 -0.3856543 4.95935059 
22.4219494 0.166049793 -5.04683542 
-16.7005806 0.244402006 7.35308933 
-12.9958611 -0.186411455 8.433918 
-1.07063079 -0.346925259 -3.6725111 
-1.74939728 0.528578937 -18.7386913 
-16.1449909 0.0246552303 18.8736362 
20.8906384 -0.599805892 -14.8341064 
-9.44589996 -0.0161504727 3.35907221 
-3.14921045 -0.182290763 3.45158625 
11.6593533 0.139955997 -8.13499641 
10.8232241 -0.0132573135 7.11593485 
-16.2399044 -0.0143441167 -8.49624062 
-24.2750378 -0.186482817 3.60340905 
-19.8822517 -0.101424359 10.7092514 
12.3905153 -0.223913714 -1.76073515 
-8.29591751 0.0909324586 2.21553063 
2.1470437 0.110026315 6.66783333 
3.44622302 0.430510521 -15.0278578 
14.7603931 -0.59772712 1.78054941 
-24.6391792 -0.0559499487 3.22737956 
2.5414691 -0.0380766615 7.10143518 
-15.8567629 -0.191063836 -8.64390564 
22.61269 0.144818351 10.0126076 
14.7202911 0.107074372 12.7009068 
7.38652658 0.219459116 -2.55656815 
-8.47283459 0.061200045 -3.4539144 
18.4028893 -0.434926778 -6.43283224 
-8.22208118 0.129223257 -4.15896797 
2.09203148 0.579819083 -16.4436932 
14.0280266 0.433572412 11.4271812 
0.842016876 0.35884282 7.46243763 
-16.2034683 0.265470684 -2.88711691 
0.124808535 -0.115538999 -2.09509063 
10.2976971 0.211110383 -4.27537727 
-1.52259016 -0.367853165 -6.6388092 
16.9616222 0.287370026 19.0462093 
-15.0455294 -0.328894913 11.903367 
-17.3395214 -0.0673943758 -2.6701839 
12.0967121 -0.36986959 -13.09128 
-11.1570244 -0.0217762608 14.9299641 
-6.48792601 0.0542895868 14.1972809 
-15.7909355 -0.0558178052 9.95640087 
-7.57134771 0.0614895411 12.8753395 
14.8582602 -0.121219009 -15.2437925 
-18.4661999 -0.0607487038 9.73684025 
8.86558342 0.508494139 -9.85368824 
-7.71430159 -0.0629166439 -3.56714535 
17.7052326 0.136657387 3.18497229 
10.2060432 0.117246442 -2.44360828 
2.59643745 0.249800086 -23.7680569 
7.11323929 0.126266152 9.93596745 
15.9880915 0.0354711786 11.2340403 
24.9888439 0.0215920862 16.7427921 
21.7720985 0.194570109 13.4864521 
10.3108692 0.0663403049 10.2848339 
-21.4357376 -0.168171346 -2.76166987 
10.3963127 0.322811842 -12.0526247 
13.8107548 0.275843054 11.7402153 
12.1240988 -0.191332027 -18.4260654 
-23.371357 -0.187141046 -0.581653118 
24.3037319 -0.0253329501 1.26290154 
14.4234734 -0.640764534 -9.37150764 
14.5729504 -0.615148246 -5.12151337 
-22.8038425 0.112767056 18.1083679 
16.960741 0.0937877521 3.34263659 
-6.77823925 -0.509842873 7.03561449 
-7.06759453 -0.201132506 2.64898562 
9.43891525 -0.324397564 1.19906974 
-18.3495865 0.348866314 -13.7294273 
19.2820778 -0.0855861753 -18.6100655 
24.8936577 -0.505842566 -17.4883652 
3.15027571 0.38036415 -2.17681265 
-2.59713197 0.0786391497 -7.89671183 
-13.2478409 -0.143208563 -9.42580318 
-7.47917414 -0.0740384907 0.821224928 
16.8995171 -0.0526251756 10.5714769 
-9.94242573 0.0997922271 -0.440266132 
-6.57928419 -0.30013144 1.65766382 
-18.6106529 -0.189610645 -2.0941937 
2.1663456 0.341344446 -12.7408972 
6.58073759 -0.1470723 14.1992531 
-1.96889174 -0.413378745 16.8159561 
-12.1776276 -0.240841389 2.04376459 
-13.9094219 -0.216216385 12.8223524 
-6.72683334 -0.40386951 4.60261106 
-13.4888964 -0.0481567569 -4.90400791 
4.27168274 0.508208811 2.79967427 
1.6188724 0.133553743 5.60620356 
7.99165297 0.458806455 -6.61409903 
-7.91464138 0.36552164 14.1468868 
12.3955498 -0.431889951 -13.3578148 
17.6834698 -0.216087997 -1.61593044 
-15.7533178 -0.0165348314 10.2115059 
-5.50374222 -0.267589211 -4.16678095 
12.9538269 -0.0275383145 -16.3498878 
19.3573532 -0.0214916542 17.5381641 
-2.23331976 -0.0166928601 19.2535515 
-3.74994564 -0.430556744 -13.0315809 
20.7297592 0.315035552 11.3014994 
-8.06360626 -0.137773305 -2.49782968 
-3.87555695 -0.584739625 -2.18903208 
7.01292562 0.26450932 -7.95113277 
-7.30417919 -0.479764342 8.25563717 
21.4402637 -0.212912515 16.6091499 
-3.93819022 0.126055852 -19.6906815 
0.995830715 0.37272805 -17.5190525 
7.96395302 0.0514560342 12.1015425 
-11.5898285 -0.537612081 -17.5815601 
7.78674793 0.13584958 -2.31868029 
21.2895641 0.250549853 -0.39387691 
-16.0144157 0.423142284 -18.4496021 
19.7413635 0.426106066 2.07501984 
18.9538193 0.371786803 2.48905325 
3.82114744 -0.00387092843 15.1744432 
-15.6260004 0.231184945 4.39519596 
0.955657542 0.246078894 4.69781256 
-10.9279823 0.230125964 9.88487434 
0.524831295 0.313153505 -22.7598515 
-4.26915359 -0.46876213 -12.949749 
-14.7200336 0.187126353 -3.70282245 
-2.9966495 -0.287596285 15.3050003 
13.9089928 -0.420211434 -7.33082724 
-2.7754488 -0.279914975 -6.06144285 
3.51978898 -0.00531632733 7.40084696 
21.1657314 -0.221281245 17.4851093 
-12.7447433 -0.0155360028 12.3138924 
18.6187191 -0.189713314 16.6060429 
-9.07707691 -0.342664957 -15.9033575 
-12.7123804 -0.270458192 -9.55653095 
-13.5554209 0.360776395 -0.964932263 
2.71297216 0.520133495 -15.9950695 
-2.55970573 0.52213037 -20.2721081 
2.85896301 0.234856993 12.994874 
4.15932894 0.121470608 -8.68027973 
14.2182493 -0.0694594532 -19.7087612 
13.5070562 0.178404287 11.2645369 
-21.7547512 -0.0765706822 -18.4895248 
7.82725143 -0.200327501 3.56051254 
-20.0974483 0.287003189 -9.13250923 
-0.965937614 0.131423846 -14.1317081 
-14.0131359 -0.0993147939 10.9282522 
3.89088655 0.250799805 -1.93936181 
-17.2238998 -0.0249574333 -3.20137024 
-9.27259254 0.0680756718 10.383997 
-22.6265106 -0.335592151 10.4282351 
-2.23737931 -0.179109484 2.87086892 
-22.9022255 -0.263499916 10.9870481 
14.5254087 -0.114204571 17.7858906 
17.6590023 -0.271879107 -5.62651825 
21.0833721 -0.132830635 -22.6143494 
21.1441326 0.695954502 5.41571474 
16.6038685 -0.859294355 -7.28258944 
-6.66862345 -0.315361291 2.32272673 
-13.8523645 0.364338964 -0.717557728 
-4.71024227 -0.339506686 8.99131775 
6.72811937 -0.109298892 14.1955185 
-21.3470764 -0.413455009 8.71096516 
23.5702076 0.51669544 -12.1741247 
19.0529118 -0.382894218 15.5939503 
-7.53576756 0.320818335 14.854929 
1.52308846 0.151232898 10.3139162 
9.59284592 0.69836998 -9.79252529 
15.5739422 -0.257635891 -13.159853 
2.70328808 0.396145463 1.74042535 
13.5775967 -0.483639985 -7.1926713 
0.503642201 0.301543444 3.95369434 
-18.4288139 0.364146203 23.8697014 
-21.5757694 -0.395614207 6.16110468 
6.60545492 0.0482530855 11.2019043 
9.32744503 -0.157324702 -17.0102291 
19.3379726 -0.53674829 -8.76193523 
-23.7218552 -0.16517821 4.49347496 
-22.2420464 -0.307407081 7.1656661 
21.8623409 -0.377677262 -19.1431141 
5.82166958 0.158751041 -2.33536053 
-12.0373697 -0.117275357 15.7333517 
13.1199245 0.114792787 -21.9602947 
9.13038826 0.571316361 -9.00408268 
17.8556995 -0.530845046 -11.9281454 
-15.6667681 0.185804948 -3.0946641 
-6.36358166 -0.164358631 23.787014 
-17.5254822 -0.112954438 3.12674713 
21.1276035 0.100494906 -3.81614065 
0.433540881 -0.00474214833 -5.79489088 
-16.5807018 0.642409146 -0.681367159 
-7.98247814 -0.317589104 -18.6028996 
-16.0237236 0.583308041 -0.0512516499 
-14.4895449 -0.0323653258 7.63854122 
1.7507025 0.200864404 -10.6268139 
18.534193 -0.0980546549 12.3783569 
-13.412385 -0.347740293 -21.3532028 
12.9811707 -0.347697854 -8.40179443 
-7.60183716 -0.25567022 3.6228714 
2.59946728 0.324892282 -9.98065186 
2.40963364 0.45937106 -11.6556797 
-2.26808429 0.0825560316 7.73981047 
15.0145664 -0.596527517 -4.84619236 
-23.0022392 0.0821626261 13.0954428 
10.837347 0.299200684 -11.9850807 
-19.3975849 -0.15452227 -3.04078937 
0.89920938 -0.502921104 19.3670559 
-1.52947903 -0.255800277 17.3769722 
-5.42415953 -0.477385968 -16.1838913 
-2.14847994 -0.367914945 -4.23961735 
-22.9070587 -0.319801807 21.4787884 
-6.74913311 -0.148524463 -3.28846192 
-3.92623019 -0.52017206 -0.863064885 
13.6208153 -0.145729989 -3.63685393 
1.36752987 0.105935864 -10.608778 
-12.6355 -0.152007699 17.8772621 
4.25170612 0.123335451 10.888834 
9.08925724 -0.0900313705 -18.7099724 
-12.6855001 -0.335338771 -17.1704159 
-23.7634068 0.711907923 -10.6359148 
-5.46416187 -0.634767592 -12.649292 
-3.81477571 -0.310786158 -5.01270103 
-24.0599213 0.688362956 -11.8155165 
2.93751907 0.377765656 -1.68647754 
4.91156912 0.182430178 -1.01501262 
-8.7213583 0.170295313 11.4483032 
3.69461513 0.302857786 -5.86970949 
17.4165535 -0.265708119 -4.05604887 
-8.93029976 -0.0282051563 1.39349747 
-21.0255718 0.0151402429 13.7756996 
-3.77319765 -0.148752362 7.45719147 
-17.6742134 -0.211124986 7.4127779 
-13.2293539 -0.223190546 19.3406391 
-23.5480518 -0.0177865345 -1.46363628 
23.8265991 0.158338904 -4.43547297 
-1.23355711 -0.179274872 -9.75200176 
-3.7417264 -0.00796037354 18.1172886 
-1.53812265 -0.0951032862 -13.7783957 
-13.2628765 -0.00155683933 10.3558865 
2.41241312 0.488762826 -17.0770092 
4.99067354 -0.139691859 9.37892437 
5.10681629 -0.451201469 18.1869678 
16.1660023 0.20038639 7.59592533 
7.82065296 0.572944641 -7.63125753 
-24.1836281 -0.0828820914 2.71677327 
-23.7962799 -0.141293362 1.69901335 
-1.5887711 -0.174504474 -8.09424686 
-4.04941654 -0.132366166 5.05565023 
-11.48351 -0.215823531 21.2344666 
17.1342049 -0.670360506 -11.3402967 
-13.5935011 -0.288928241 22.8328781 
-18.0488987 -0.20587565 15.5307913 
-0.115531817 -0.107932292 18.5882149 
-7.14549351 0.433982223 16.0240078 
2.60384178 -0.628414512 19.6413555 
9.7201252 -0.130081519 5.39035559 
3.70139432 0.035386648 6.93821669 
22.1963634 -0.75992465 -21.4758682 
21.850399 0.474852055 1.96121526 
18.0147629 -0.348743886 -4.20157051 
-4.15394306 -0.632603168 -2.67588449 
-21.0690804 0.293195158 17.1502628 
-12.9925356 -0.164342061 8.69407654 
22.3255768 -0.0248133391 -14.2203751 
5.77252626 0.130187213 -5.44265223 
6.53362894 -0.178920686 18.0361748 
19.0914993 0.0854697227 -1.48365879 
15.1047249 -0.468379587 3.69257617 
-11.0076494 0.392953426 13.1683903 
19.9205132 0.20626308 -24.7046185 
14.1960716 -0.605086625 0.877331614 
-2.23236895 -0.186950698 2.54965186 
1.70151579 0.311728001 3.76340055 
8.78617096 0.0399375968 8.4141016 
21.22575 0.694794118 6.13135433 
16.7637463 -0.501328349 -11.8782167 
-18.3488178 0.198677778 -10.9415493 
18.6177273 0.377767086 6.38549995 
5.91500854 0.198256999 -10.0932751 
6.90582752 0.204322711 -12.6953821 
-6.64511728 -0.0462614819 11.8692112 
-24.5897884 -0.179094002 4.06024837 
6.69184399 0.227901489 -6.83716631 
19.6308842 0.28354004 -24.2038746 
14.394659 -0.362785786 5.09998655 
12.3314352 0.102947064 7.73732901 
13.3579597 -0.0853076577 17.6511345 
-23.4219856 0.380442917 15.2450113 
22.2319508 0.238821507 -11.4420586 
-12.9036531 0.168489754 10.7494211 
23.2749062 0.237129122 13.056119 
18.474144 0.03202096 -2.42617464 
-4.16507244 -0.369383991 -5.79074192 
23.9368725 0.0501935109 2.68690157 
5.28361368 -0.0996199399 6.39911032 
12.1637707 0.0146679292 11.940712 
-24.0641747 0.629500329 -12.4245005 
-2.55284667 -0.283509851 17.1176472 
23.7226257 0.132750854 -2.36173558 
-8.52452278 -0.0510047302 -3.10261273 
-9.00490856 0.0223928075 4.59166861 
-3.94900775 -0.329846054 2.95393276 
-7.7318306 -0.0670239925 11.8856401 
-10.2207098 -0.110590845 -10.0597105 
24.591959 0.00986817852 2.45203567 
3.6698873 0.0373010337 10.1546392 
11.4748049 0.0571347065 -3.41015124 
3.04239345 0.157442898 -7.18467283 
0.897209883 0.366930634 -17.2517052 
-8.39588356 0.361366451 15.9150524 
-8.71841335 -0.373769373 -17.2286854 
9.85216331 -0.325441182 -21.4572506 
-19.8377914 -0.27759096 -1.18824852 
-8.88975143 0.1415402 18.4032269 
-10.723753 0.055777926 -3.60650206 
-6.58520555 -0.567311764 -15.3406916 
-3.47350168 -0.444747329 14.6994371 
-15.6215229 -0.343345851 11.4233074 
16.1731586 0.123841688 9.21240425 
17.9322414 -0.137164474 -0.97300905 
-17.446991 -0.125510633 11.7881994 
-15.6578827 0.40526855 -20.7800732 
22.2412815 0.105535969 -5.3074441 
-0.580105245 -0.244558021 -2.13725162 
-20.3748531 -0.460240275 4.79328442 
-7.44512224 -0.198404625 -1.8468858 
-25.0088787 -0.0251759905 13.0866032 
-5.03302336 0.267789483 21.7293549 
2.93630838 0.379202157 2.39175582 
23.2333775 -0.95170629 -21.889637 
6.40765095 0.313033968 0.153648227 
-23.7619686 -0.310093343 9.70316792 
9.77106857 -0.0871795341 -19.0138054 
5.54317045 0.149618477 -1.06479895 
-8.24352074 -0.695474207 -13.6572275 
19.5686874 -0.620135367 -10.4717226 
10.6630754 0.0684970617 11.7635059 
-21.1483917 0.2853764 21.7485733 
-21.065609 0.205617934 18.6537514 
6.21491003 0.142977625 -3.89272761 
18.2233181 0.304713845 2.63463283 
5.50401211 -0.0761366338 14.0219145 
-5.39995098 -0.286225647 2.92170382 
16.422205 -0.579969883 -11.4837236 
23.2299728 0.356525183 -6.80199718 
-24.6527138 -0.656094372 -18.717844 
-2.83974099 -0.0650689453 8.13060474 
-10.6237192 -0.446442902 24.7250443 
-12.5540075 -0.246559948 -10.2009678 
19.2722988 -0.157147497 -6.126863 
19.9325848 -0.488255322 -10.3340473 
