ply
format ascii 1.0
comment created by gply, a Houdini tool.
comment converted from .[b]geo
comment for more information about Houdini, try:
comment www.sidefx.com
element vertex 616
property float x
property float y
property float z
property float depth
property uchar red
property uchar green
property uchar blue
property float length
element face 0
property list uchar int vertex_indices
end_header
-0.0444813818 -0.326868385 0.143795758 1.77909387e-05 19 50 13 0.823418498 
0.0649318025 0.440509319 -0.174359605 3.82843427e-06 30 81 21 0.103684694 
0.00788408611 0.391546637 -0.139167339 -5.99723135e-05 30 82 20 0.183296934 
-0.0073636407 -0.227776408 0.112243555 9.14032717e-06 13 34 10 0.752040803 
-0.017172236 -0.384364396 0.14543052 7.94495427e-05 17 39 12 0.827116668 
-0.0340392515 -0.199242413 0.0823739618 -1.54525624e-05 28 75 20 0.684469521 
0.0694106221 0.395406961 -0.184230283 2.46644486e-05 21 59 14 0.081355162 
-0.0376833156 -0.206753269 0.0899015814 1.98814087e-06 11 28 8 0.701498628 
-0.0400036126 -0.270256907 0.159591898 9.00763553e-06 20 49 14 0.859152615 
0.069863759 0.404049397 -0.19486843 2.33994797e-06 19 43 14 0.0572894551 
-0.00946288463 0.139907822 -0.0542267412 8.17541149e-06 22 57 16 0.375450283 
0.0436407477 0.461464047 -0.156589404 3.24893626e-05 16 43 11 0.143884599 
-0.00537523394 0.155106992 -0.0627027452 -4.1437801e-05 27 73 19 0.356275797 
-0.0505998097 -0.336750865 0.153338388 1.74483284e-06 20 52 14 0.845005929 
-0.0316348895 -0.248618647 0.102667287 -5.95539168e-05 15 40 11 0.730377316 
-0.0449690856 -0.167428106 0.0855551958 1.84641158e-05 17 46 12 0.691666186 
-0.0226701144 0.050375171 -0.00083047041 5.19833993e-05 23 57 17 0.496243775 
0.0703668371 0.415060103 -0.176447481 1.48851541e-05 18 47 13 0.09896148 
-0.0392844677 -0.0156154502 0.0277942102 1.27356616e-05 19 50 14 0.560998797 
-0.0120796049 0.123492882 -0.0414492488 2.22139934e-05 15 41 10 0.404355645 
-0.0318228751 -0.370170832 0.142091766 4.96627763e-06 18 44 14 0.819563746 
0.0522221588 0.466698587 -0.201466337 4.3528853e-05 23 61 17 0.0423636138 
0.00483954651 0.295434684 -0.127446413 1.19736651e-05 14 31 10 0.20981212 
-0.0170775466 0.176969811 -0.0379395001 1.27646781e-05 21 51 15 0.412295401 
0.00205861055 0.169059902 -0.0844695792 2.79170927e-05 16 40 11 0.307034671 
-0.0471793003 -0.451353669 0.189120919 1.47449464e-05 23 63 16 0.925953448 
-0.000365011161 -0.0465281345 -0.0156183364 1.38054602e-05 24 62 17 0.462790549 
0.0254092216 0.202408001 -0.101632923 1.98260132e-05 28 76 20 0.26820761 
0.0228403043 0.0611941144 -0.0548652187 6.02712898e-05 20 52 14 0.374005944 
0.00724804215 0.27459386 -0.082228981 -8.4887608e-05 24 64 17 0.312103361 
0.0463647693 0.473437876 -0.190216213 4.80642775e-05 21 57 14 0.0678137392 
0.0158386305 -0.0529546849 0.0475852452 8.03772127e-06 20 56 14 0.60577023 
-0.00995037705 0.236657247 -0.0861909837 1.0278065e-05 22 54 16 0.303140491 
-0.0600569248 -0.357294291 0.187648833 9.81264748e-06 20 48 15 0.922623277 
0.0294625666 0.0808388367 -0.0539465323 9.2937611e-05 22 54 16 0.376084179 
-0.0424580686 -0.155714825 0.0908161029 2.17254237e-05 15 40 11 0.703567445 
0.00453193579 -0.156756222 0.0735974908 -1.37911411e-05 14 39 10 0.664615333 
-0.025112059 -0.26731652 0.0953204557 1.79730123e-05 17 41 12 0.713757217 
0.0190188102 -0.137268603 0.0350036584 1.72253931e-05 25 63 18 0.577308059 
-0.0367343463 -0.0404838845 0.0178598464 7.69837061e-06 17 45 12 0.538525164 
-0.0114765232 -0.0458044186 0.0662228912 2.81936373e-05 19 49 14 0.64793241 
0.0246123727 0.0287343562 -0.0124464277 2.21540686e-05 16 39 11 0.469966054 
-0.0172179192 -0.27692005 0.145308778 2.92282493e-06 13 30 10 0.826841176 
0.0343365259 0.154624715 -0.0872428492 4.98453737e-05 17 40 13 0.300760984 
0.0102555985 0.381945848 -0.161301777 -2.72813049e-05 10 24 7 0.133224219 
0.0223031528 0.476348072 -0.17556417 9.9100871e-06 23 60 16 0.100959718 
0.0277258307 0.410118282 -0.2171866 1.57793984e-05 16 46 11 0.00680110091 
0.0270505212 0.168743461 -0.10076116 3.97845579e-05 11 32 8 0.270179719 
0.0497547872 0.32692036 -0.163088411 4.32969537e-05 14 30 10 0.129182488 
0.00862730481 0.133579567 -0.0702172518 1.17808813e-05 33 90 23 0.339276403 
0.00806712825 0.215429172 -0.0566044785 2.1482585e-05 18 46 13 0.370071352 
-0.0470723659 -0.19883278 0.108454309 3.51311173e-05 27 77 18 0.743468761 
-0.0065373918 0.0409685038 -0.0234710611 2.47117132e-05 28 77 19 0.44502604 
0.0411682799 0.468928277 -0.16314967 3.13950004e-05 24 63 18 0.129043907 
-0.0207116082 -0.41062665 0.151757255 4.53075627e-05 20 49 14 0.841429055 
0.0558102615 0.379904568 -0.162398279 1.55714806e-05 16 35 12 0.130743712 
0.0214747693 0.264584452 -0.126577228 -1.01150945e-05 17 42 13 0.211778387 
0.0308983102 -0.0565145761 0.0252595544 1.11911795e-05 21 55 15 0.555264831 
-0.00331561058 0.277055532 -0.098561421 -1.49635598e-05 17 43 12 0.275155991 
-0.0463489257 -0.211296991 0.105174609 1.14832073e-05 21 56 14 0.736049354 
-0.0398110077 -0.218451649 0.0950797126 1.83892989e-05 23 62 16 0.713212609 
-0.0126276212 -0.0786619559 0.0609545857 -2.40105437e-05 20 49 14 0.636014521 
0.0337720029 0.246827587 -0.0895080566 2.6658643e-05 21 51 16 0.295636594 
0.00141498831 0.012015339 -0.0222636405 2.06442201e-05 24 68 17 0.447757483 
-0.000989036402 0.0112810871 -0.0192703698 1.65006495e-05 25 67 17 0.454528868 
-0.0208376013 0.197933242 -0.049584344 4.00617719e-05 23 58 16 0.385952353 
-0.0143465018 -0.0291629061 0.0628348514 1.86597317e-05 23 59 17 0.640268028 
-0.0138856489 -0.0114047481 -0.00366750406 3.55803641e-05 32 83 22 0.489825815 
-0.00553680398 -0.136794269 0.0821772069 6.48363493e-06 23 56 17 0.684024453 
0.0547458157 0.455799669 -0.16517067 1.26438681e-05 24 64 17 0.124471985 
-0.0161823593 0.247001976 -0.0751326829 1.7486047e-05 29 83 20 0.32815668 
0.0467803106 0.371713817 -0.177010804 3.47090245e-05 12 30 9 0.0976871252 
-0.00792473834 0.363604516 -0.123864144 5.1982468e-05 18 51 13 0.217915952 
0.0224030539 0.234837487 -0.0737259313 1.79675408e-06 22 54 17 0.331339031 
0.0280761551 0.115811452 -0.0732441992 0.000115778515 23 57 17 0.332428813 
-0.00740200048 -0.0135367466 0.0512924865 1.37810894e-05 21 55 15 0.614156783 
-0.0109181805 0.057201907 -0.0249951649 -2.27242708e-06 24 60 17 0.441578209 
0.00256404374 0.0560879856 -0.0402103104 1.43277721e-05 27 76 18 0.407158375 
-0.00437443843 -0.0807282031 0.0566789433 -5.80809137e-05 18 51 13 0.626342058 
0.00846905541 -0.136742532 0.0273184273 6.81016027e-05 9 23 7 0.559922457 
0.0609368458 0.41126743 -0.157737315 1.10908877e-05 26 66 19 0.141287774 
-0.00857370533 -0.265730023 0.129258707 2.50297599e-05 15 39 11 0.790532649 
0.0201813281 -0.0350818299 -0.0182705335 2.88004594e-05 16 38 12 0.456790715 
-0.0139373261 -0.421146423 0.154207796 0.000157429924 19 52 13 0.846972644 
-0.0393477753 -0.162502021 0.076853089 1.20873447e-05 26 73 17 0.671980202 
-0.0583645813 -0.334049881 0.163518682 3.22402921e-05 16 44 11 0.868035853 
-0.0208083391 0.0557081848 0.00149196875 3.80781712e-05 23 62 16 0.501497626 
0.0421993993 0.473840415 -0.175266787 2.33190367e-05 14 32 10 0.101632461 
0.0219111592 0.280125171 -0.140225098 1.06215011e-05 14 31 11 0.180904076 
-0.0232084971 -0.0589774065 0.0683929622 3.74411502e-05 19 48 13 0.652841628 
0.0133099882 0.355296671 -0.16206035 8.85030022e-06 22 52 16 0.131508172 
0.0310781971 0.273053914 -0.140452787 5.81408531e-05 21 51 16 0.180388987 
0.0624318384 0.45270133 -0.178074986 1.22475903e-05 17 47 12 0.0952797309 
0.0505964793 0.470008492 -0.179711103 8.90748925e-06 13 35 9 0.091578491 
-0.0228848793 -0.249151066 0.140906498 3.79267149e-05 9 25 6 0.816882312 
0.0119198449 0.0249623302 -0.0358451605 1.17546879e-05 13 33 9 0.417033255 
0.0593680926 0.444610178 -0.165259913 6.7242654e-06 23 59 17 0.124270096 
-0.0267252009 -0.128367364 0.049658414 1.53538422e-05 28 75 20 0.610460162 
-0.0220037196 -0.284965068 0.0994692519 3.07779264e-05 23 57 17 0.723142624 
-0.0114212632 -0.419652492 0.172244221 8.14109808e-06 21 60 15 0.887774825 
0.0452223383 0.470480174 -0.200899884 1.05524741e-05 24 64 17 0.0436450467 
-0.0394848995 -0.208720043 0.0923289061 1.63978548e-05 11 24 8 0.706989706 
-0.00698952656 -0.0362250544 0.0621329285 1.50286796e-05 11 23 9 0.6386801 
-0.0237879828 0.0710952431 -0.0121649941 2.85397982e-05 20 49 14 0.470602721 
0.00540855713 0.315243274 -0.12224111 -3.1384785e-05 21 53 15 0.221587598 
0.019904308 0.0478541143 -0.0257894266 -8.47340561e-05 19 52 13 0.439781427 
-0.0167789571 0.00608124211 0.00987539068 -9.28106601e-05 20 50 14 0.520462692 
0.00886690244 0.207301199 -0.0929716378 1.68819679e-05 18 48 13 0.287801236 
-0.0162137579 -0.160875142 0.108310804 4.70005907e-05 18 46 13 0.743144095 
0.063643828 0.425392568 -0.165062711 7.20046228e-06 21 54 15 0.124716207 
-0.0102741485 -0.150516346 0.0930885226 4.47442289e-06 24 58 18 0.708708167 
0.0356240869 -0.0524841771 0.0100227892 1.41514465e-06 14 34 10 0.52079612 
-0.0052314233 0.256325781 -0.0974223539 1.79201597e-05 21 55 15 0.27773279 
0.064578183 0.451437205 -0.184763893 9.48214438e-06 12 32 9 0.0801480263 
0.0693680793 0.415213019 -0.173461035 2.98740342e-05 19 51 14 0.10571745 
-0.0287328195 -0.456183553 0.174931973 3.95507086e-05 22 56 17 0.893855095 
0.0624127351 0.432550907 -0.165446162 8.00774433e-06 25 64 18 0.123848759 
0.0388076827 0.315077513 -0.153512493 9.52458795e-05 22 57 16 0.150845215 
0.0222872607 -0.061752554 0.0399136581 2.01001531e-05 23 60 16 0.588415504 
-0.0559823997 -0.287222832 0.134113163 2.69102165e-05 18 47 13 0.801514447 
0.0182522703 -0.0887874365 0.0144181298 3.67152097e-05 22 58 16 0.530739307 
-0.0517402627 -0.429183483 0.196481988 -7.55501096e-05 21 57 15 0.942605674 
0.00935964473 0.450408697 -0.140629798 2.11772858e-05 26 65 19 0.179988548 
0.0113352071 0.0498246141 -0.00606554234 -1.98609778e-05 25 60 18 0.484400958 
-0.0492150709 -0.208911225 0.113518663 2.86628492e-05 11 27 8 0.75492537 
-0.0280192122 -0.3952187 0.15584743 3.19088576e-06 15 39 11 0.850681841 
0.0317456722 0.293311 -0.0994315743 1.36167509e-05 12 33 9 0.273187518 
-0.0170107204 -0.0597178526 0.0677128658 1.58012408e-05 13 33 10 0.651303113 
0.00281831692 -0.0867151693 0.0496410467 -9.98385076e-05 23 63 16 0.610420883 
-0.00549990125 0.101754636 -0.00033066576 3.38596292e-05 16 39 12 0.497374445 
-0.0124074742 0.0264223032 -0.0155973127 2.26814882e-05 17 42 13 0.462838113 
-0.0400163233 -0.464168876 0.187049389 1.21722696e-05 15 34 11 0.921267211 
-0.0258994978 0.0849486664 0.00342036434 2.02503288e-05 26 69 18 0.50586009 
-0.0254945569 0.143747345 -0.030119149 1.5966827e-05 25 61 18 0.429986686 
0.021272039 0.143694609 -0.0793013051 -3.22061533e-05 19 52 13 0.31872642 
-0.0165429581 -0.0558919013 0.0678479224 2.32016464e-05 16 40 11 0.651608646 
-0.0146551663 -0.378201962 0.135889232 8.49504941e-05 20 50 14 0.805532277 
-0.0115830032 -0.31556794 0.110326692 4.47610801e-05 9 23 7 0.747704446 
0.0643999428 0.388713986 -0.16876331 3.75281088e-05 28 77 19 0.116344683 
-0.0236236248 -0.335206687 0.125194043 5.97455073e-06 20 52 14 0.7813375 
-0.0442210287 -0.27383402 0.115506314 3.08104791e-06 26 72 18 0.759421885 
-0.0400083251 -0.271826893 0.109059721 1.14145223e-05 22 58 16 0.744838297 
-0.0260147974 0.0521953292 0.0136641543 4.99427551e-05 18 40 13 0.529033661 
0.00481318077 0.0567722283 -0.0430333279 1.66590326e-05 17 43 12 0.400772125 
0.00175681547 -0.268407524 0.108282939 3.55526572e-05 20 49 14 0.743081093 
-0.0451227091 -0.310657591 0.132975847 1.98694179e-05 22 49 17 0.798941553 
-0.010020745 0.26831463 -0.0843037963 5.56607265e-05 20 53 14 0.307409704 
-0.0483206138 -0.166132331 0.0991121158 6.86459243e-05 28 76 20 0.722334743 
0.0326358415 0.139853641 -0.0715397596 6.53505704e-05 20 50 14 0.336284637 
0.024155695 0.379688889 -0.185211346 1.97420013e-05 14 36 10 0.0791357905 
0.00376706384 0.0957799479 -0.00187709439 3.80091369e-05 28 70 21 0.4938761 
-0.0315829478 -0.225630611 0.0873772353 6.51704613e-06 24 56 18 0.695787966 
-0.0113921249 0.106387161 -0.0274668783 -0.000105412095 27 72 19 0.435986668 
-0.0483216681 -0.173634306 0.106898963 6.68819994e-05 17 44 12 0.73995024 
-0.0151771689 0.045106113 -0.0143076032 1.74855813e-06 15 39 10 0.465755701 
0.0183281358 -0.0122310156 0.0241943803 2.84973648e-05 18 48 13 0.552855194 
-0.0202886891 0.079034701 0.00723489374 6.99695665e-05 23 58 16 0.514489353 
-0.0347535759 -0.195785582 0.0798510909 1.60732598e-05 24 62 17 0.678762317 
0.0146879656 -0.130548999 0.0548547357 6.64405525e-06 34 94 23 0.622215271 
-0.0369816087 -0.324557662 0.17495656 2.02147057e-05 25 74 17 0.893910706 
0.0126788663 -0.0464941151 -0.0187836923 2.30681435e-05 11 30 8 0.455629855 
-0.0254895985 0.075050652 -0.00392721919 2.92978948e-05 22 53 16 0.489238292 
-0.0103959879 -0.16065526 0.0541595481 -7.34156347e-05 20 49 14 0.620642662 
0.01690658 -0.132381037 0.0503309108 3.06381844e-06 22 53 16 0.611981511 
0.0156229874 0.294453144 -0.137926459 1.70367712e-05 23 54 17 0.186104074 
0.0125493715 0.0504388027 -0.0382239781 -7.23680341e-06 24 63 17 0.41165185 
-0.00919366349 -0.092605941 0.0228512697 -4.4531771e-07 17 44 12 0.549816847 
-0.0216598716 0.188443244 -0.0516747236 4.08909982e-05 20 49 14 0.38122347 
-0.00375095545 -0.175047383 0.0505509116 5.51082703e-05 22 57 16 0.61247915 
-0.00791284814 0.13003929 -0.016161399 2.82789697e-05 24 66 17 0.461562037 
-0.0316541046 -0.43969363 0.206364378 2.01567891e-05 16 31 13 0.964961708 
-0.0558308661 -0.387437552 0.188855976 2.50327867e-05 20 49 14 0.925354064 
0.0687660798 0.433449924 -0.181421071 1.10170804e-05 21 54 15 0.0877101868 
0.00283767655 -0.152574182 0.0408105813 4.26360602e-05 25 65 18 0.590444505 
-0.0541636087 -0.399034113 0.181620419 2.12140731e-05 19 48 14 0.908985734 
0.0312717743 0.182340816 -0.0607780553 1.70187559e-05 16 42 11 0.360629857 
-0.000632145093 0.135386243 -0.0624501407 1.14513095e-05 23 61 16 0.356847227 
-0.0235476848 -0.0828298926 0.0638590381 -0.000176669535 16 41 11 0.64258498 
-0.0134153236 0.152145728 -0.0509199202 2.41049565e-06 16 36 12 0.382930994 
-0.00200462807 -0.152518392 0.0838123858 1.75219611e-06 19 45 14 0.687723577 
0.0512082949 0.374378234 -0.180831924 3.78962723e-05 20 52 14 0.0890429616 
0.02783259 -0.022501776 0.0134547167 7.10057793e-06 17 42 12 0.528559864 
0.00677839806 -0.193089783 0.0851223394 1.31803099e-05 27 75 19 0.690687001 
0.00156822929 0.140861914 -0.0659141764 9.75420699e-06 14 38 10 0.349010855 
-0.0278896578 0.0910585001 -0.00900222547 5.22094779e-05 24 57 17 0.477757573 
0.0132715087 -0.110800683 0.0234782863 8.15208477e-05 22 58 15 0.551235259 
-0.028199859 -0.405810505 0.154820785 3.43583524e-05 10 25 7 0.848359346 
0.0674843267 0.394909531 -0.191989169 1.16080046e-05 15 37 11 0.0638029426 
-0.020207921 -0.31964463 0.117423482 1.98755879e-06 16 42 12 0.763758838 
0.0100606037 0.28447178 -0.0849243924 1.71094416e-05 20 47 15 0.306005776 
0.0704670772 0.399813503 -0.187957749 2.47640419e-05 28 79 19 0.0729228556 
-0.0266169831 -0.354204357 0.176961869 1.10219116e-05 19 50 13 0.898447156 
-0.0285236221 -0.134597257 0.0551938713 1.29053369e-05 21 54 15 0.622982502 
0.0554566979 0.352147847 -0.157805115 2.55257473e-05 18 49 13 0.141134396 
0.000845539675 -0.266643494 0.111387156 4.7502399e-05 21 51 16 0.750103474 
0.0263696127 0.111791052 -0.0700583756 0.000110229637 16 45 11 0.339635819 
0.0675340295 0.417740881 -0.206016809 1.92750322e-05 17 45 12 0.0320694968 
0.0224338453 0.0257702153 -0.0385908894 2.20661605e-05 16 42 11 0.410821825 
0.00612891139 0.338980794 -0.14882654 1.96113251e-05 27 65 20 0.161445811 
-0.0252975095 0.0911887139 -0.017957909 2.07452103e-05 17 45 12 0.457497954 
0.0108629717 0.368367791 -0.158097655 1.3492594e-05 17 47 12 0.140472621 
-0.041638121 -0.434899718 0.182258189 8.01403075e-06 20 53 14 0.910428524 
-0.00915469788 0.206606463 -0.0755086467 3.06912698e-05 19 47 13 0.327306151 
0.0493189357 0.44295305 -0.150793463 1.93073647e-05 24 63 17 0.15699622 
0.0708311424 0.404338777 -0.191752344 2.23556417e-05 24 60 18 0.0643386915 
0.0183096975 0.0342447832 -0.00374556473 1.35831651e-05 20 51 14 0.489649206 
-0.0301656313 -0.265009046 0.0983827412 6.81355596e-06 20 46 14 0.720684767 
-0.0445526615 -0.0490950309 0.0439044833 3.4171273e-05 22 59 15 0.597443581 
0.0234906375 0.441297889 -0.135232806 3.7874197e-05 17 40 13 0.192197666 
-0.017913986 -0.36600247 0.131280035 2.37001805e-05 21 49 16 0.795105278 
-0.00853448082 -0.269876659 0.129441768 -4.61318996e-06 22 56 15 0.790946722 
0.0584075637 0.382131726 -0.163868442 3.13189812e-05 21 48 16 0.127417892 
-0.00206892262 0.341525078 -0.133262962 2.13723979e-05 16 39 12 0.196653873 
-0.0161370225 0.209825322 -0.0589421205 6.44987449e-05 22 53 16 0.364783108 
-0.00740532856 0.351783425 -0.122105919 2.06425393e-05 23 60 16 0.22189343 
-0.0591946244 -0.317236483 0.180394262 7.23057601e-05 7 19 5 0.906211913 
-0.015619142 0.249074176 -0.0778491944 3.01490072e-05 30 83 21 0.322011381 
-0.0106452787 0.189494416 -0.0762336031 1.21720368e-05 17 43 12 0.325666189 
0.0708002448 0.400116831 -0.181653142 1.60690979e-05 27 74 19 0.0871851891 
-0.0389398783 -0.0376622565 0.0628305599 2.46108975e-05 13 31 10 0.640258312 
-0.026267929 0.146843135 -0.0284228697 4.38118586e-05 18 46 13 0.433824033 
0.00535972044 -0.167621851 0.0879990831 2.52714381e-05 21 57 15 0.697194755 
-0.0238474682 -0.227949485 0.126556665 -2.07178527e-06 15 36 11 0.784420073 
-0.0172100719 0.0604541041 -0.013605346 -4.18766576e-05 18 45 13 0.467344373 
-0.012294245 -0.00365796033 0.000295833277 -8.45922477e-06 17 43 12 0.498791724 
-0.0165094398 -0.311777472 0.146424279 -4.00841818e-05 24 60 18 0.829364717 
0.0237447079 -0.0459435768 -0.017356243 7.22866971e-05 22 57 16 0.458859026 
0.0106299985 0.0783557817 -0.0556970686 4.88571823e-05 13 33 10 0.372124106 
0.025128141 0.0315610729 -0.0153401606 6.23943197e-06 9 22 7 0.463419825 
-0.0136146694 0.235711589 -0.0659782141 6.65960833e-05 14 33 11 0.348866016 
-0.00211186404 0.0673299134 -0.0444302298 5.32760168e-06 27 74 19 0.397612035 
-0.00908790063 -0.00775626907 -0.00437792297 1.58414769e-05 22 56 15 0.488218725 
-0.0509197153 -0.375183046 0.175040275 -4.92389081e-05 16 43 11 0.89410007 
-0.0466775596 -0.305885524 0.128365859 1.94106833e-05 18 48 13 0.788512766 
0.000892288052 0.241616294 -0.104537517 1.18994503e-05 36 98 25 0.261636823 
-0.0141409468 -0.355467469 0.124820419 4.70693631e-05 19 47 14 0.780492306 
-0.00209843577 0.374853641 -0.136763051 3.51909548e-05 8 18 6 0.188735932 
0.00865700655 0.399794787 -0.186234474 -7.03323167e-06 19 50 13 0.0768212602 
-0.0242230464 0.0199285951 0.0094485553 1.34466682e-05 24 65 17 0.519497097 
-0.0478020497 -0.343515694 0.152296305 -1.86136458e-06 25 64 17 0.842648506 
0.0533488207 0.46528244 -0.174604237 3.09334719e-05 26 64 19 0.103131287 
0.0148507226 -0.0904657692 0.0141226305 3.30375624e-05 21 54 15 0.530070841 
-0.00255040312 0.0433271527 -0.0262066107 -2.56029889e-05 20 54 14 0.438837647 
-0.00246427697 0.344198376 -0.13502863 9.40834434e-06 16 40 12 0.192659557 
0.0126378173 0.193196684 -0.0434356853 2.12868617e-05 25 64 18 0.399861872 
-0.00895664468 0.186269328 -0.0334040262 7.1342969e-05 25 63 18 0.422555625 
-0.0530405752 -0.392715573 0.180196762 6.69236761e-06 28 71 21 0.905765116 
0.00631732773 0.4599576 -0.15091452 2.56252824e-05 13 33 9 0.156722367 
-0.0129684769 0.161751524 -0.0544509403 -3.31989722e-05 10 23 7 0.374943078 
0.00050218089 0.417259872 -0.136441529 2.65645504e-05 18 50 12 0.189463288 
-0.0271544028 0.0499112345 0.0106887473 3.58044344e-05 23 61 16 0.522302687 
-0.057277713 -0.338596612 0.16428192 -2.06019031e-05 18 49 13 0.86976248 
0.0116350884 0.346843988 -0.105305038 4.32434026e-05 15 40 10 0.25990051 
-0.0484996997 -0.466010779 0.199785426 3.75885284e-05 8 20 6 0.950078785 
0.0602595098 0.435188025 -0.214503914 4.08171909e-05 23 63 16 0.0128698954 
-0.0305215009 -0.017120894 0.0576406159 2.61936802e-05 24 57 17 0.628517568 
0.0712877139 0.402331293 -0.185003594 1.11572444e-06 29 77 21 0.0796057731 
0.0690435991 0.437103957 -0.199508786 3.33514763e-05 20 55 14 0.0467920005 
0.00133271934 0.0740320161 -0.0494849607 2.85728602e-05 21 55 15 0.386177152 
-0.0101832906 0.0261981934 -0.0180406645 2.93280464e-05 19 48 14 0.457310766 
0.0659340546 0.388570756 -0.173805669 5.63006033e-05 21 50 15 0.104937814 
-0.0245623104 -0.295884222 0.101697393 5.84571098e-05 30 84 21 0.72818315 
0.0102291377 0.0486739799 -0.00282085361 9.61992191e-06 23 53 18 0.491741121 
-0.010742195 -0.0119796991 0.0517201871 1.75347668e-05 22 56 16 0.615124285 
0.0628332943 0.433027357 -0.212493479 2.20547809e-05 24 59 17 0.0174179189 
-0.0556353144 -0.265489519 0.145971164 2.58526998e-05 22 57 16 0.828339636 
-0.00452717394 0.114198014 -0.0442499332 2.1973683e-05 35 96 24 0.39801991 
0.00992579479 -0.0903492942 0.0404303856 -0.000101215439 23 63 15 0.58958447 
-0.0145999091 -0.135060713 0.089312382 1.53745932e-05 25 59 18 0.700165689 
0.0573057011 0.454048842 -0.210352123 1.82891963e-05 20 54 14 0.0222621132 
0.0166777987 0.0304472446 0.000566306117 2.03343807e-05 18 47 13 0.499403566 
-0.0270697977 -0.38181138 0.147160441 2.54306797e-05 23 59 17 0.831030071 
-0.0220401045 -0.381910592 0.14302364 4.75402339e-05 20 51 14 0.821671784 
0.0394698456 0.468716085 -0.20494467 9.46273212e-06 16 39 12 0.0344948992 
-0.054913491 -0.369573653 0.18176581 5.67523894e-05 20 49 15 0.909314692 
-0.000740002666 0.105914213 -0.0412981808 -0.000100880046 15 38 11 0.404697388 
0.0101638865 0.00854443759 -0.0268668421 2.25488548e-05 20 49 15 0.437344104 
0.0287196375 0.230304152 -0.0809077248 6.89201988e-06 14 35 10 0.315092325 
-0.00286817295 -0.256679595 0.0992471799 5.40328911e-05 16 44 11 0.722640336 
-0.0190551411 0.196499825 -0.0419547744 5.97629696e-05 27 71 19 0.403212041 
-0.0152380923 -0.313899904 0.144160196 -0.000100106467 16 40 11 0.82424289 
0.0537902527 0.466866583 -0.198177069 4.44243196e-05 25 67 18 0.0498046242 
-0.0451706946 -0.162253246 0.0889500305 3.70182097e-05 18 45 13 0.699346006 
-0.0516588837 -0.256638855 0.151240781 5.33066923e-05 12 29 9 0.840260684 
0.0272630602 0.270759195 -0.097011447 -5.13780396e-05 24 59 18 0.278662354 
0.0274124462 -0.0553202294 0.0318536982 1.40874181e-05 28 75 20 0.570182204 
-0.00478201499 0.181545228 -0.0330314748 3.02381213e-05 14 38 10 0.423398376 
-0.0613788404 -0.332358867 0.169415325 1.0117772e-05 15 41 11 0.881375253 
-0.0126011642 -0.125902206 0.0877199769 2.01074872e-05 23 55 17 0.696563363 
-0.0566981547 -0.342292279 0.164959759 -6.56128395e-06 21 52 15 0.871295869 
0.0181685183 0.04980205 -0.0357270464 -8.95993726e-05 18 40 13 0.417300433 
-0.0144516826 0.257886887 -0.0806130767 1.99330389e-05 28 78 20 0.315758884 
-0.0029584819 0.157587975 -0.0690399185 -3.74927185e-06 20 50 14 0.341939807 
-0.00553191546 -0.244362161 0.0944147855 -8.98865983e-06 19 50 13 0.711708426 
0.0321549028 0.35603267 -0.118219331 1.1079479e-05 17 43 12 0.230685696 
-0.0226255823 -0.434892058 0.187953293 5.0382223e-06 18 51 13 0.923312008 
-0.000922206556 -0.265018672 0.0958525091 7.74362125e-05 18 47 12 0.714960873 
0.0673709586 0.390883654 -0.17589657 3.00980173e-05 20 53 14 0.100207761 
0.000853960344 0.178270966 -0.0869428217 2.20428337e-05 12 29 8 0.301439673 
-0.00622717431 0.282861114 -0.0948522761 7.62497075e-06 22 59 15 0.283546865 
0.0119923763 -0.0275266301 0.0456412397 2.62926333e-05 12 30 9 0.60137248 
-0.000527519849 0.375372261 -0.139649659 2.41177622e-05 14 34 11 0.182205826 
0.0246795099 -0.0217904616 -0.00974221434 3.73872463e-05 14 35 10 0.476083547 
0.031920284 0.278120667 -0.0992484763 3.8842205e-05 20 52 14 0.273601741 
0.0651663244 0.45114091 -0.188166231 3.05582653e-05 21 54 15 0.0724512264 
0.0330399536 0.116666362 -0.0661445335 0.000103964383 19 54 13 0.348489761 
-0.0464824438 -0.272421122 0.118247233 1.61711941e-05 25 66 18 0.765622377 
-0.059601631 -0.357410043 0.17627503 1.17783784e-05 14 33 10 0.896893382 
-6.92460526e-05 0.315069824 -0.114452094 1.68799888e-05 28 68 21 0.239207983 
-0.0461410247 -0.227086529 0.121917948 2.8743525e-05 12 30 8 0.773926258 
-0.0460755453 -0.165932357 0.0888965577 2.87995208e-05 16 37 11 0.699225008 
-0.0194472484 -0.304669589 0.102460518 2.00634095e-05 25 72 17 0.729909599 
-0.0256057605 0.138688937 -0.022046838 8.3351857e-05 30 81 21 0.448247939 
0.00638434291 0.00143708591 0.0216759034 3.41476407e-05 16 39 12 0.547157884 
-0.00555241061 -0.076448001 0.0592419691 2.03854288e-05 24 61 17 0.632140219 
0.0607025847 0.438183635 -0.164674848 1.00915786e-05 27 71 19 0.125593632 
0.0332498439 0.428462058 -0.135714546 1.46940001e-05 14 36 10 0.191107884 
-0.00963438023 0.168736294 -0.0703096017 2.05868273e-05 20 51 15 0.339067489 
-0.0434435196 -0.414383233 0.169967279 1.53766014e-05 18 44 13 0.882623851 
0.0362146087 0.475048065 -0.171664402 2.49501027e-05 24 67 17 0.109781809 
0.0339819081 -0.0380415618 -0.00138274068 2.67979922e-05 15 39 11 0.494994432 
-0.0114472611 0.212820679 -0.0500303991 8.96853744e-05 25 60 18 0.384943306 
-0.0421616733 -0.309411883 0.167014405 -0.000161698845 19 49 14 0.87594384 
-0.0633120537 -0.327957928 0.17384769 2.52355821e-05 19 48 14 0.891402245 
-0.0267430376 -0.228966549 0.127998516 -1.06761872e-05 23 61 16 0.787681758 
-0.041603718 -0.234551936 0.111138932 -3.03926063e-05 14 37 10 0.749541938 
0.00656793267 0.0420425497 0.00800379645 1.21316407e-05 12 30 8 0.516228735 
-0.0176201034 0.167287037 -0.0399209931 5.76998573e-05 20 49 14 0.407812893 
0.024321435 0.179590493 -0.0517997444 3.50130722e-06 21 48 16 0.380940646 
-0.00249810796 0.31740272 -0.105395794 4.6632209e-05 27 70 19 0.259695202 
0.0207573194 0.24593249 -0.121907987 2.10988801e-05 22 58 16 0.222341195 
0.0224683806 0.042508278 -0.0254359245 1.94571912e-05 18 45 13 0.440581113 
0.0633208677 0.447079092 -0.207067788 4.17598058e-05 20 54 14 0.0296919644 
-0.0219650771 -0.223717749 0.0774023905 1.92837324e-05 23 54 17 0.67322284 
-0.00685317954 0.220139444 -0.0707455501 -1.38046453e-05 20 54 14 0.33808127 
-0.0616467446 -0.326386482 0.16787225 2.64098635e-05 12 33 9 0.877884507 
0.053462442 0.349052787 -0.167805418 4.88210353e-05 24 61 17 0.118511632 
-0.0231292602 0.138757259 -0.0160027593 0.000143750338 20 48 15 0.461920887 
-0.0444085002 -0.234375477 0.123068072 -9.4677991e-05 11 29 8 0.77652812 
0.0239349809 0.0536351763 -0.0447710343 0.000105245184 18 41 13 0.396841079 
-0.0196409263 -0.265666693 0.0927972868 1.71764113e-05 17 42 13 0.708049297 
-0.0162524823 -0.216341183 0.0721171424 2.77458457e-05 24 66 17 0.661266506 
-0.0241951663 -0.311506569 0.108960517 3.55713419e-05 13 32 10 0.744613886 
-0.0263247844 0.152027354 -0.0252886824 3.69183253e-05 16 39 12 0.440914184 
-0.00137771107 -0.111775137 0.0724701211 8.67259223e-06 22 62 15 0.662065029 
0.0165579151 0.0334776342 -0.000577452243 1.0058051e-05 22 57 15 0.496816158 
0.0120630348 0.321138144 -0.139704913 9.15315468e-06 18 47 13 0.182080835 
0.0139628956 0.0374440923 -0.0356479585 2.82047258e-05 18 48 13 0.417479366 
0.00997518934 0.163008109 -0.0882857442 6.18211925e-06 14 37 10 0.298401713 
-0.039611768 -0.034134645 0.0612573624 7.1206945e-05 12 28 9 0.636699378 
-0.063795127 -0.32571879 0.176546946 0.000130861299 27 75 19 0.897508502 
-0.0236122794 -0.000697153271 0.0149664348 2.71871686e-05 18 47 13 0.53197968 
-0.0136554344 0.181147188 -0.070336625 2.12807208e-05 23 61 16 0.339006364 
-0.0126636345 0.105934724 -0.00392474281 5.06831275e-05 24 65 17 0.489243895 
-0.0525366254 -0.242763937 0.137639999 2.56190542e-05 18 44 13 0.809492886 
-0.0221371688 -0.385317802 0.148948446 4.06410873e-05 26 74 18 0.835074961 
0.0314987972 0.332557917 -0.116679303 1.04240025e-05 13 32 9 0.234169558 
0.00996317435 0.220527127 -0.104647651 1.47786923e-05 22 54 17 0.261387676 
0.028185932 0.204757333 -0.10200917 -0.000140195974 24 63 17 0.267356455 
0.0113927517 0.156107143 -0.0842057765 3.5583158e-05 19 48 14 0.307631463 
-0.0600700378 -0.316942692 0.167630062 2.80281529e-05 16 40 12 0.877336621 
-0.0212227162 -0.466063082 0.178176954 0.000162454642 25 62 18 0.901195943 
0.00545952469 0.0137843322 -0.0271278545 3.0762254e-05 9 23 6 0.436753601 
-0.0101623321 0.00427992828 4.40326658e-05 -0.000173614244 17 41 12 0.498222083 
-0.0489622578 -0.169808865 0.098209165 3.5727513e-05 20 55 14 0.720292091 
-0.00966036785 0.21584405 -0.0659676343 3.18735838e-05 25 65 18 0.348889947 
-0.0493886732 -0.21555984 0.117497243 1.14680734e-06 10 25 7 0.763925731 
0.0138265137 0.275066614 -0.130874768 1.80645147e-05 20 48 15 0.202056468 
0.0174130965 0.011063274 -0.0326989852 7.05418643e-07 21 48 16 0.424150556 
-0.00642162096 0.163603827 -0.0708194003 3.06753791e-05 28 73 20 0.337914199 
0.0303014293 -0.0267272107 0.00977630075 1.18907192e-05 10 28 7 0.520238519 
0.00277236244 -0.300450444 0.12053521 2.42783863e-05 30 85 21 0.770798266 
0.0175593179 0.037907701 -0.0358603597 2.86946561e-05 27 65 20 0.416998863 
-0.0526304506 -0.432320297 0.197651178 -6.93602487e-07 17 42 12 0.94525069 
-0.0149169182 -0.322733074 0.120810792 -0.000220722461 19 51 13 0.771421671 
-0.022525806 -0.347595036 0.1269743 2.83622649e-06 21 57 14 0.785364866 
0.06533622 0.451133341 -0.192030862 2.75056227e-05 16 44 12 0.0637086257 
0.0719274357 0.409832269 -0.19029136 9.1411639e-06 24 60 18 0.0676437393 
-0.00908386987 -0.411350399 0.16523461 4.40850854e-05 27 74 19 0.871917605 
0.000422144309 0.398296893 -0.165841177 2.19261856e-05 17 48 12 0.122955151 
-0.0200969372 0.133005872 -0.0355781578 9.1358088e-06 21 55 15 0.417637259 
0.0693983212 0.418413103 -0.174671009 1.00856414e-05 22 60 16 0.102980234 
-0.0110887801 -0.319373816 0.136509567 -5.02646435e-05 23 60 17 0.806935608 
0.0705505461 0.405084819 -0.176110342 2.69651646e-05 18 49 13 0.0997241586 
0.0454525799 0.295022488 -0.124083191 3.41679261e-05 15 40 11 0.217420429 
0.011477787 -0.0196582694 -0.0153537253 5.00700844e-05 16 37 12 0.463389158 
0.0247140117 0.204570279 -0.06468153 4.00457066e-06 22 62 15 0.351799369 
-0.0272458158 -0.000902807747 0.0210870132 6.30892173e-05 23 57 17 0.54582572 
-0.00453478284 0.284748286 -0.108749233 1.30857807e-05 26 63 19 0.252109051 
-0.00341723487 -0.359652847 0.130494013 2.0698295e-05 14 37 10 0.793327212 
0.0220667664 0.0641015321 -0.0565026663 8.77905113e-05 18 44 13 0.370301664 
0.0418440513 0.446935713 -0.218083203 2.51925812e-05 20 45 15 0.00477279816 
-0.0175482798 -0.0305690002 0.0643182769 6.0297898e-06 20 53 14 0.643623829 
-0.0233855657 -0.00604185043 0.0085786581 2.29056459e-05 25 59 18 0.51752919 
-0.035791561 -0.29668203 0.109557465 1.91366998e-05 15 40 11 0.745964348 
0.00565223303 -0.161128968 0.0593436807 -6.69240835e-05 26 66 19 0.632370234 
-0.0291376878 -0.255231529 0.0990651026 1.63498917e-05 17 41 13 0.722228408 
-0.0153560825 0.101071663 -0.0278351456 3.70973721e-05 19 43 14 0.435153574 
0.0719760209 0.409431577 -0.183900312 2.28111167e-05 17 44 13 0.0821016282 
0.0131859817 0.472651005 -0.172279686 1.81014766e-05 30 77 22 0.108389907 
0.0428120866 0.475146979 -0.185055703 1.49499683e-05 19 50 14 0.07948789 
-0.0363741815 -0.137646511 0.0887391642 0.000108693086 14 34 11 0.69886893 
-0.0572650246 -0.349242181 0.167504311 1.30134868e-06 21 51 16 0.877052188 
-0.044195652 -0.379015386 0.16487284 -2.01783841e-05 17 40 13 0.871099234 
-0.0577276237 -0.295929521 0.155477732 4.85097989e-05 19 47 13 0.849845529 
-0.0172099601 0.00656189118 0.0224303044 -0.000137955343 12 28 9 0.548864484 
-0.0616400726 -0.31982702 0.179811954 1.6540871e-05 19 48 14 0.90489459 
0.0188916326 0.240325496 -0.120656714 9.82981874e-06 19 52 13 0.225171834 
0.052234292 0.375216067 -0.164624751 -5.8352598e-05 18 46 13 0.125706971 
-0.0155869126 0.255975276 -0.0777060539 2.80083623e-05 27 74 19 0.322335184 
-0.00775076821 0.147927314 -0.0576244518 2.98710074e-06 18 46 13 0.367763937 
-0.0366140157 -0.304715127 0.113589592 2.97600054e-05 18 48 13 0.755085826 
-0.0129226418 0.194561496 -0.073089391 8.38621054e-06 23 55 17 0.33277905 
0.0699162111 0.396780282 -0.181345358 2.88137235e-05 24 65 17 0.0878814608 
0.0539521948 0.331842065 -0.156712279 3.94142698e-05 15 40 11 0.143606633 
-0.00215814658 0.11880473 -0.0517671928 1.08907843e-05 20 52 14 0.381014287 
0.0491050482 0.462737471 -0.209081709 4.39356663e-05 13 35 10 0.0251360536 
-0.0209350474 0.0772317722 -0.0257323533 1.12284906e-05 19 53 13 0.439910531 
0.0468856357 0.361342341 -0.171308666 2.268143e-05 23 60 16 0.110586554 
-0.0432044677 -0.287150741 0.115954101 1.01985643e-05 14 34 10 0.760434866 
-0.017026335 0.0156556461 -0.00205443241 1.08302047e-05 11 26 8 0.493474901 
-0.0314726345 -0.172689617 0.0657399073 1.11362897e-05 24 59 17 0.646839857 
-0.00472217333 0.0242532901 -0.0229371171 1.25623774e-05 18 46 13 0.446233928 
-0.00470781373 0.0131231965 0.0203829873 4.5728666e-05 27 71 18 0.544233024 
0.00228564232 0.127341673 -0.0220930167 3.55090015e-06 10 26 7 0.448143482 
0.00215952192 0.109519355 -0.0486155339 2.27673445e-06 21 53 15 0.388144016 
-0.0186262019 -0.126968622 0.0913745016 3.84345767e-05 20 51 14 0.704830647 
-0.0596942455 -0.404953748 0.203801706 9.76573792e-05 19 45 14 0.9591645 
0.00155302987 0.354701698 -0.148440138 1.11572444e-05 27 74 19 0.162319928 
-0.00166272931 -0.295466006 0.131498069 1.0546064e-05 16 43 11 0.795598507 
0.00750163384 0.120460056 -0.063740097 1.16950141e-05 24 62 18 0.353929073 
-0.0198154692 0.0286989342 -0.00680362806 1.00041216e-05 16 40 12 0.482731253 
-0.0447179861 -0.198698729 0.102736451 1.20556797e-06 17 44 12 0.730533719 
0.002620921 -0.300334394 0.111129507 5.30026882e-05 13 36 10 0.74952054 
-0.00204644306 -0.0396827273 0.0603366643 9.77258605e-06 15 37 11 0.634616613 
-0.0117339874 -0.0721837208 0.0632858947 2.96810613e-05 26 72 18 0.64128834 
-0.0249315165 0.156860352 -0.0293174144 8.81244196e-05 20 49 14 0.431800395 
0.0133531336 0.157401174 -0.0869522989 1.70574931e-05 21 52 15 0.301418245 
-0.00130001269 0.158137664 -0.0721601024 1.01605547e-05 15 36 11 0.334881306 
-0.0415625796 -0.425012499 0.174607128 8.62724846e-06 18 50 12 0.893120229 
-0.0255477075 -0.201453418 0.0736382008 -1.93011947e-05 27 69 19 0.664707422 
0.0345892608 -0.0399806686 0.00535598677 1.20981131e-05 20 55 14 0.510238826 
0.00329918065 0.344450146 -0.147586972 1.79613126e-05 23 58 17 0.164249972 
-0.0103360759 0.109697528 -0.0260127243 -4.20222059e-05 16 42 12 0.439276278 
-0.0401306823 -0.27514255 0.162628815 2.87382863e-06 18 48 13 0.866022766 
0.0697069392 0.423881322 -0.178404287 2.0210864e-05 23 57 17 0.0945347846 
0.0547446311 0.377566993 -0.164820537 -4.18396667e-07 10 27 7 0.125264049 
-0.0259693004 -0.150538594 0.103572637 3.93582304e-05 22 60 16 0.732425392 
-0.0527435318 -0.286216408 0.128182754 1.58154871e-05 20 50 14 0.788098574 
-0.0574852452 -0.363303542 0.175378323 2.31811955e-05 9 24 7 0.894864798 
-0.00386413187 -0.253497392 0.11158786 5.30730467e-05 15 37 11 0.750557482 
0.0313617699 0.24650754 -0.126117274 7.11358152e-05 34 96 23 0.212818906 
0.00569830276 0.221058175 -0.0990807638 2.50067096e-05 13 32 10 0.273981124 
-0.0376220942 -0.311491311 0.165599555 -6.69930596e-05 20 50 15 0.872743189 
-0.048524417 -0.205545992 0.125416636 8.00726702e-05 20 54 14 0.78184104 
-0.0529936925 -0.28186655 0.1642216 4.44374746e-05 28 76 20 0.869626045 
-0.0113129755 -0.32142058 0.121572562 -0.000147657993 19 52 14 0.77314496 
0.027315408 0.159140065 -0.0951499417 2.73659534e-05 24 63 17 0.282873482 
-0.0416538306 -0.377869666 0.159260482 1.40583143e-05 15 39 11 0.858402908 
-0.00315042189 -0.344653815 0.13907513 3.05350404e-05 16 39 12 0.812739432 
-0.0504878201 -0.301432699 0.161633044 -6.24620588e-05 13 34 9 0.863770127 
0.000814453233 -0.150869131 0.0747761056 -0.000141438446 22 57 15 0.667281628 
-0.013438141 -0.201956138 0.0632001013 3.81570426e-05 18 44 14 0.641094267 
-0.0162034128 0.13926734 -0.0451721139 7.1299728e-06 16 37 12 0.395933747 
-0.026570892 0.078792572 -0.00190337561 6.63714018e-05 22 57 15 0.493816674 
-0.0130382264 0.0695260316 -0.0341601446 8.8190427e-06 27 74 19 0.420845121 
-0.0598961413 -0.359849632 0.185072482 1.41121345e-05 28 79 19 0.916795015 
0.0181657616 0.0704910085 -0.0578393936 4.40995645e-05 16 41 11 0.367277712 
-0.050801184 -0.357031256 0.158068776 2.45847041e-05 18 43 14 0.85570699 
-0.0140990904 0.0217862837 -0.0112463608 1.70105486e-05 21 58 15 0.472680897 
-0.0236170776 0.0547470823 0.0118008666 7.77624664e-05 22 59 15 0.52481848 
-0.0129471878 0.232473612 -0.0716689155 3.91564099e-05 16 40 11 0.335992426 
-0.0389707796 -0.413766682 0.164800808 2.30621663e-05 25 67 17 0.870936215 
0.00632942189 0.0965198725 -0.0476984158 -3.34865181e-05 20 49 14 0.390218735 
0.0184296463 -0.135795802 0.0452752635 1.64277735e-05 24 59 17 0.600544572 
0.0600233376 0.460902184 -0.187680542 1.93663964e-05 18 48 13 0.0735499561 
0.00605495274 0.398693055 -0.179095522 -3.0832598e-07 18 48 13 0.0929710642 
-0.0483939871 -0.43519032 0.190364197 2.10932922e-06 27 70 20 0.928766012 
-0.0138010839 0.169786632 -0.0639909282 1.3857265e-05 25 59 19 0.353361666 
0.0334543176 0.238789707 -0.0869990215 1.80831994e-05 24 62 18 0.301312536 
0.0579651743 0.37820971 -0.175380141 -2.95985956e-07 19 46 14 0.101376027 
0.0115210153 -0.0916082039 0.0140685244 7.91092461e-05 26 59 17 0.529948413 
-0.0202780403 0.195472881 -0.056936603 9.56375152e-06 14 37 10 0.369320005 
0.00845176354 0.27620101 -0.125530526 3.46638844e-05 26 68 19 0.214146256 
0.0305057857 0.0718033314 -0.0560944155 6.39999053e-05 16 40 12 0.371225238 
0.0201335866 0.0527653433 -0.0446468145 4.72834581e-05 23 61 17 0.397122085 
-0.0538161658 -0.279888242 0.130888924 5.45184594e-06 23 62 16 0.794220507 
-0.0352650993 -0.411654979 0.160798386 9.07073263e-06 17 46 12 0.861881971 
-0.0266709346 -0.473006755 0.197377518 6.60498335e-05 15 42 10 0.944631636 
-0.0256385524 -0.0369835645 0.000845976465 1.36763556e-05 27 76 18 0.500036299 
-0.0488354899 -0.309839964 0.142281607 -1.03026978e-05 19 50 14 0.819993198 
0.0276896786 -0.0208351277 0.0105801048 1.63216318e-05 17 41 13 0.522056878 
-0.0144418692 -0.428943187 0.161773965 5.41472982e-05 32 88 22 0.864088893 
-0.0529923327 -0.448390931 0.196061149 2.78316438e-05 19 49 13 0.941653728 
-0.00951217394 -0.314228326 0.135853723 -3.59309779e-05 13 35 10 0.805451989 
-0.0530214719 -0.24644132 0.127724916 2.12554587e-05 13 33 10 0.787062883 
-0.0614175983 -0.338750273 0.17653355 -2.60835513e-05 17 47 12 0.897478163 
0.00180984638 0.0292053297 0.0176098756 1.27835665e-05 25 70 17 0.537959695 
-0.0141612003 0.131946251 -0.0444463044 7.06076389e-06 25 68 17 0.397575676 
-0.0252098236 -0.346880287 0.172552079 7.57572707e-06 17 41 12 0.888471246 
0.033180628 0.180833444 -0.0632634386 2.33136816e-05 14 38 10 0.35500738 
-0.019411549 -0.323776394 0.15474911 2.42090318e-05 13 32 9 0.848197281 
0.00193969393 0.00341752404 -0.0135412216 2.90005701e-05 14 35 10 0.467489421 
-0.0561970472 -0.29338491 0.16054526 3.41247069e-05 19 49 14 0.86130935 
0.00645185821 0.278653055 -0.124712616 3.62044666e-05 25 62 19 0.215996534 
0.0117330858 0.3654266 -0.159569204 1.59126939e-05 14 37 10 0.137143672 
-0.0474567786 -0.224610969 0.11970225 2.36377782e-05 19 49 14 0.768913925 
-0.0123699373 0.195496008 -0.0363350436 5.18782981e-05 15 36 11 0.415925026 
-0.00832653046 -0.411185265 0.159117565 8.2494691e-05 18 40 13 0.858079553 
-0.0145225292 -0.017495228 0.056909062 4.12738882e-06 15 39 11 0.626862645 
0.0262424722 -0.0807707906 0.0201970283 2.88935844e-05 18 48 13 0.543812394 
-0.0204838533 -0.336982816 0.123349808 2.07549892e-05 19 51 14 0.777165473 
-0.00268940697 -0.256481975 0.112982385 3.01648397e-05 18 44 13 0.753712237 
-0.0590213798 -0.287368387 0.157715753 9.65537038e-06 21 56 14 0.854908407 
0.0592749864 0.455370128 -0.173106283 1.03426864e-05 19 45 14 0.106519967 
0.00492676673 0.0488860235 -0.0323164053 -0.000143929385 20 53 14 0.425016046 
-0.0504928865 -0.304251373 0.161364391 -6.63222745e-05 16 42 12 0.863162398 
-0.0154258441 -0.236225724 0.118733235 -0.000133727444 17 47 12 0.766721785 
0.021141883 0.323331684 -0.155715063 3.42364656e-05 19 48 13 0.145862535 
0.0654906332 0.423235357 -0.16762422 2.47766729e-06 24 65 17 0.118921541 
-0.0120982882 0.12604703 -0.0434868298 1.2455188e-05 21 59 15 0.39974618 
-0.0353489742 -0.0546753556 0.0655042529 2.99660023e-05 15 37 11 0.646306753 
0.00114339369 0.129565954 -0.061919786 3.77686229e-06 16 40 11 0.358047038 
-0.0240963101 -0.0474413224 0.0687034279 2.91997494e-05 25 65 18 0.653544009 
-0.0210925601 0.138932824 -0.0375121832 2.27327691e-05 20 51 15 0.413262099 
-0.028494766 -0.334379882 0.128540978 2.73998594e-05 25 69 18 0.788908958 
-0.0187686626 0.0547651425 -0.00460771192 7.66152516e-06 19 51 14 0.487698883 
0.00719057443 0.112747341 -0.0581121854 1.44537771e-05 15 34 11 0.366660595 
-0.0493161716 -0.32146439 0.149496749 1.81123614e-05 22 60 15 0.836315334 
-0.0140389865 -0.276666045 0.140803203 4.44240868e-07 18 47 13 0.816648662 
-0.00400769059 0.295004636 -0.0842539147 9.16257559e-05 25 64 18 0.307522565 
0.00962249562 0.319497973 -0.130691469 -5.071552e-05 16 40 12 0.202471122 
-0.0482696369 -0.424522549 0.18495357 5.86977694e-06 24 61 17 0.91652602 
-0.026971031 0.0385479629 0.00404831581 2.95050559e-05 23 64 16 0.507280648 
0.0061645587 0.108497441 -0.0525570959 1.82111398e-05 19 50 14 0.37922737 
-0.0441165902 -0.369114071 0.154566437 1.91823929e-05 18 42 14 0.847783983 
-0.0493947603 -0.359972209 0.157059491 4.26926999e-06 26 64 19 0.853423774 
-0.0498565398 -0.24089244 0.127765492 4.22962694e-05 17 42 13 0.787154675 
-0.00620334316 -0.280651033 0.131165236 8.42299778e-06 29 78 20 0.794845581 
0.00452669151 0.281068295 -0.123521596 3.63272848e-05 26 67 19 0.218690872 
-0.0406125113 -0.365998805 0.148880869 1.35302544e-05 20 54 14 0.834922075 
0.0153859872 -0.0116293235 0.0289995801 2.23357929e-05 24 56 18 0.563725591 
-0.0315152705 -0.338402212 0.13188228 1.1989905e-05 21 52 15 0.796467721 
-0.0132403905 0.198284015 -0.0722743347 3.2278127e-05 21 56 15 0.33462289 
-0.00339273806 -0.0474480093 -0.0142741883 7.26548024e-06 24 65 17 0.46583128 
-0.0246992614 0.143789187 -0.0173959266 1.77850889e-05 21 52 15 0.458769262 
0.0568724684 0.465262771 -0.189471662 2.08209967e-05 19 53 13 0.0694980696 
0.0284403395 -0.0669891536 -0.00655676471 6.52713352e-05 19 51 13 0.483289719 
-0.00276771514 0.240624413 -0.0996147171 1.50840497e-05 21 52 16 0.272773206 
0.0674418733 0.411991149 -0.168455094 1.65265519e-05 11 29 8 0.117041931 
-0.0350390449 -0.253821254 0.151248306 6.07572729e-05 18 48 12 0.840277672 
-0.00979883969 0.115827225 -0.0365133546 1.30147964e-05 31 85 22 0.415521652 
0.00944278203 0.00370948599 0.00650809286 -0.000258259359 18 44 13 0.512845159 
-0.0169674568 -0.0668842494 0.0663788542 2.59392546e-05 20 51 14 0.648285329 
-0.0137404939 0.0591574945 -0.0228688214 2.87701259e-05 20 49 15 0.446388423 
-0.0460753143 -0.198910475 0.124754928 2.80951499e-05 22 50 16 0.780344188 
-0.0595456921 -0.44801113 0.214731649 3.71479837e-05 26 64 19 0.983890295 
0.0219023842 0.418825924 -0.131072715 1.6340724e-05 24 61 18 0.201608673 
-0.0431075394 -0.317902267 0.141557127 -5.42331254e-05 13 31 10 0.818354249 
-0.0499211513 -0.28154856 0.124467194 3.29176692e-06 21 53 16 0.779693246 
-0.0300192926 -0.316863567 0.119571015 2.09296122e-05 21 49 15 0.768617034 
-0.00481751282 0.407635659 -0.163727 4.20826691e-05 15 38 10 0.127737865 
-0.043418359 -0.197504133 0.12587516 6.44613174e-05 20 50 15 0.78287828 
-0.0182634052 0.202260777 -0.045370508 5.9897895e-05 21 56 14 0.395484924 
-0.0215458386 0.183561251 -0.0503375009 2.59078224e-05 19 46 14 0.384248585 
-0.0225293562 0.0223009586 0.00192865776 1.10175461e-05 19 49 14 0.502485514 
-0.0247315001 -0.279582173 0.15539141 2.61425157e-05 17 44 13 0.849650264 
-0.0258126091 -0.252906412 0.144788012 7.83870928e-06 19 46 14 0.825663149 
-0.0218903683 -0.310137033 0.106709808 2.13346648e-05 21 56 15 0.739522338 
0.0200162418 -0.131085694 0.0412505902 5.383393e-05 16 41 12 0.591439903 
-0.0588053055 -0.360156953 0.188117772 6.70118025e-05 22 57 16 0.92368412 
-0.0148819732 -0.365434319 0.130121142 1.06798361e-05 18 43 14 0.792483628 
-0.00404515117 -0.361405313 0.140407979 -4.20503784e-06 20 53 14 0.815754592 
0.0028239449 -0.1348598 0.0733822808 7.26895814e-06 26 70 18 0.664128542 
-0.000596995989 0.255635679 -0.0619302616 3.43406573e-05 12 28 9 0.358023286 
-0.0555178635 -0.264102906 0.134508893 1.13452552e-05 25 67 17 0.802409589 
-0.0469696112 -0.289699703 0.120138414 2.07126141e-05 16 38 12 0.76990062 
-0.0110117644 0.163265511 -0.0621323176 1.59487827e-05 21 48 15 0.357566237 
-0.0158060919 0.180180416 -0.0662447438 1.07376836e-05 26 70 19 0.348263025 
-0.0344562605 -0.0713286102 0.0323412232 1.16340525e-05 11 27 8 0.571285069 
-0.025425408 0.0526484996 0.00979550835 3.31957126e-05 22 57 16 0.520281971 
-0.0202956814 -0.0908539817 0.0371171013 -9.095727e-05 14 37 10 0.582089067 
0.0177490395 0.111756779 -0.0409426466 9.51526454e-06 15 40 10 0.405501693 
-0.0130097996 0.117682591 -0.0314966068 2.3828703e-05 22 59 16 0.426870584 
-0.00736701395 0.110069796 -0.0339693092 -1.99474089e-05 27 72 19 0.421276808 
0.0162320919 -0.0470459647 -0.0188148208 3.26379959e-05 10 25 7 0.455559433 
0.0209992249 -0.0487506613 0.0405605212 1.85732497e-05 16 42 11 0.589878798 
-0.00922066439 0.0136882523 -0.0117800031 1.2327102e-05 22 57 16 0.471473634 
-0.0156108821 -0.368804723 0.13137874 4.12740046e-05 20 51 15 0.795328557 
-0.0207249485 0.148319259 -0.0409095399 2.73564365e-05 17 42 12 0.405576557 
0.028953325 0.0645714253 -0.0553413704 7.9124351e-05 17 43 12 0.372928768 
-0.0523169301 -0.266247511 0.126553059 3.6144047e-06 23 59 16 0.784411907 
-0.0355328768 -0.164159253 0.115488894 4.48454812e-05 13 32 9 0.759382427 
-0.0357650854 -0.364291489 0.14332661 2.74832128e-05 23 67 16 0.822357178 
-0.0541544259 -0.25182265 0.147353873 7.41039403e-05 19 43 14 0.831467628 
0.00241509406 -0.193001837 0.0918008089 1.23787904e-05 20 56 14 0.70579505 
-0.0304653347 -0.344313443 0.13263689 8.43196176e-07 13 32 10 0.798174739 
-0.0100472244 -0.157085478 0.100363269 1.4910358e-05 11 29 8 0.725165129 
0.0122212283 0.153141692 -0.081810452 1.26506202e-05 18 49 13 0.313050181 
-0.0222123656 -0.235140294 0.1261857 -9.99336771e-05 13 29 10 0.78358084 
0.0144371726 0.100464404 -0.0236263033 1.94071326e-05 23 65 16 0.444674879 
-0.061179623 -0.337391347 0.182923168 3.86531465e-05 13 31 10 0.911932826 
0.0702804253 0.411585182 -0.175327599 1.25767256e-05 14 37 11 0.101494893 
0.0216379166 0.266759723 -0.088921234 -3.39837279e-05 16 44 11 0.296964109 
-0.0420006476 -0.0193865765 0.0467971489 3.64966691e-05 20 54 14 0.603987396 
-0.00639594113 0.157419413 -0.0217017308 9.67847882e-06 28 79 19 0.449028671 
-0.0260476694 0.0891071483 0.00338218547 0.000119694625 23 57 17 0.505773723 
-0.00987195596 0.159133762 -0.0587063991 -4.25705657e-05 18 49 12 0.365316361 
-0.000768597063 0.146927267 -0.0647208765 3.79281119e-06 19 51 13 0.351710379 
-0.0296690445 -0.322814494 0.166877478 1.32616551e-05 22 60 15 0.875634134 
-0.0279411115 -0.148539513 0.100468241 3.05811191e-05 17 42 12 0.725402594 
-0.0173624549 -0.3508147 0.124535307 1.69273553e-05 28 76 20 0.779847264 
0.00551566808 -0.146782726 0.067058228 -3.98344127e-06 14 34 10 0.649822176 
-0.0149627589 0.00520026311 0.00654329266 -1.21697303e-05 20 52 15 0.51292479 
0.055957865 0.457610279 -0.168918774 2.37689819e-05 25 67 17 0.115992993 
0.0415093489 0.216320246 -0.113125034 9.48405359e-05 24 61 17 0.24221006 
