ply
format ascii 1.0
comment created by gply, a Houdini tool.
comment converted from .[b]geo
comment for more information about Houdini, try:
comment www.sidefx.com
element vertex 601
property float x
property float y
property float z
property float depth
property uchar red
property uchar green
property uchar blue
property float length
element face 0
property list uchar int vertex_indices
end_header
-0.00429883692 -0.0348493941 0.0141898468 -7.90285412e-06 13 32 9 0.821003914 
0.0065058819 0.0429233573 -0.0203260388 8.2195038e-06 16 38 12 0.0401826426 
-1.12533162e-05 0.0222480334 -0.0100151645 2.79067317e-05 19 49 13 0.273436099 
0.00606849371 0.0420389622 -0.0211266819 3.08837043e-05 16 36 12 0.0220704414 
-0.00129971374 -0.0164192002 0.010222476 1.70744606e-05 13 31 9 0.731253684 
0.00104020338 0.0103901252 -0.00579788769 5.39833563e-05 22 56 15 0.368839681 
-0.00266244845 0.00785785168 -0.00246312632 3.99722558e-06 18 50 12 0.444278955 
0.0026493331 0.0158025138 -0.00963415019 7.94900334e-05 22 54 16 0.282055438 
-0.00463923207 -0.0278425626 0.0163183548 3.2865988e-05 18 46 13 0.869155228 
-0.00504325191 -0.0459749438 0.0189767424 2.85701826e-05 24 60 17 0.929293513 
-0.00185521261 0.0208884533 -0.00502225617 0.00011303238 21 50 15 0.386386096 
-0.000277493469 -0.00472332211 0.00586905563 2.43722461e-05 30 81 21 0.6327703 
-0.00321317767 -0.0431722216 0.0164833367 1.87733094e-05 18 48 13 0.872887492 
-0.00250866381 -0.0324700922 0.0121112429 -9.62859194e-05 20 49 14 0.773981571 
-0.00347107719 -0.00690237153 0.00632667961 3.0569965e-05 17 43 12 0.643122673 
-0.00176148966 -0.0245815832 0.0122040221 9.71613917e-06 15 37 11 0.77608043 
-0.000603502791 -0.0193522256 0.00966928434 5.90068521e-06 19 47 14 0.71873939 
-3.40979313e-05 0.0142670823 -0.00258572586 2.1137821e-05 16 43 12 0.441505492 
0.00100762898 0.0378482677 -0.0168346968 6.3709449e-06 18 47 13 0.119164079 
-0.000211627645 -0.0295367762 0.0121749053 5.02043404e-05 20 54 14 0.775421739 
-0.00427876227 -0.039012678 0.0162530672 -2.12416053e-05 11 26 8 0.867678285 
-0.00345557486 -0.0316301025 0.0116010541 4.40025469e-05 34 100 23 0.762440026 
-0.00218647555 -0.0364003517 0.012930437 3.73175135e-06 21 55 15 0.79251343 
0.00204008073 0.0108400136 -0.00688733766 8.5018517e-05 17 42 13 0.344194055 
-0.00156794069 0.0140429335 -0.00530030485 2.09033606e-05 23 61 16 0.380096018 
-0.00178286375 -0.0425445437 0.0155534362 0.000109130866 18 43 14 0.851851106 
-0.00229683658 -0.00900231954 0.00696600182 3.1243253e-05 21 53 15 0.657585502 
0.000521509151 0.0141210202 -0.0073493435 7.29679596e-06 16 38 12 0.333742529 
-0.00572760124 -0.0311079435 0.0161082521 -0.000192360254 13 35 10 0.864402235 
-0.00297193229 0.0153312432 -0.00244850689 9.78300814e-05 18 44 13 0.444609672 
-0.00211669249 0.0183883868 -0.00662445184 8.76499689e-06 24 68 16 0.350141078 
0.000624659588 0.0273293369 -0.00852786936 -0.000162420169 21 51 15 0.307081819 
-0.00483043352 -0.0331884101 0.0142836124 1.05518848e-05 18 46 13 0.823125064 
-0.0011487531 0.0259449258 -0.00942502357 2.34646141e-05 22 60 15 0.286786288 
-0.00494279247 -0.0391011089 0.0169200413 -3.31562478e-06 21 49 15 0.882766664 
-0.00406664656 -0.0378697142 0.0151102785 1.66187529e-05 15 36 11 0.841826022 
-0.00458126375 -0.0354086608 0.0146037303 -2.59489752e-07 26 70 18 0.83036679 
0.0010960442 0.0269286241 -0.0128975734 1.50657434e-05 20 48 15 0.208229989 
-0.00146143953 0.0268354323 -0.00818300806 1.70991989e-05 13 31 10 0.314883322 
2.05665128e-06 -0.0141775561 0.00700751785 1.47691462e-05 15 38 11 0.658524632 
-0.00181393663 -0.00950523652 0.00712003792 3.00455722e-05 28 74 20 0.661070108 
-0.000688534521 -0.0151713211 0.00806156732 -5.47150848e-05 16 40 11 0.682369411 
0.000360668579 0.0200154465 -0.00446956279 2.82534165e-05 24 68 16 0.398889154 
-0.00421150634 -0.0434338041 0.0176447965 -2.03843229e-05 15 39 10 0.899162114 
0.000856299303 0.00298430538 0.000486102799 1.68603729e-05 28 75 20 0.51099664 
0.000207814446 0.00877151545 -0.00522664841 5.84048103e-05 18 47 13 0.381762296 
7.10930908e-06 0.016841149 -0.00877832901 5.18967863e-06 19 51 14 0.30141589 
0.00127267058 0.00190445804 -0.00378441717 2.46483251e-05 21 56 15 0.414388597 
-0.00236245291 0.0163811278 -0.00313106575 3.28282476e-05 25 66 18 0.429168761 
-0.000917037425 -0.0375274159 0.0140492953 0.000108890221 18 48 13 0.817824304 
-0.000531126338 -0.0281982385 0.0099123884 2.45231204e-05 20 49 15 0.724238873 
-0.00110703916 0.0424210615 -0.0148590524 3.09891766e-05 11 27 8 0.163857251 
0.00301358965 0.0179100186 -0.0105099175 7.68086175e-05 18 44 13 0.262243748 
-0.00427592173 -0.0104545336 0.00654179929 1.60186319e-05 23 61 17 0.647989154 
5.19937312e-05 -0.020101618 0.00830439758 -4.57647257e-05 22 54 16 0.687862813 
-0.0039458815 -0.0440141074 0.0176328514 -4.57995338e-05 19 47 15 0.898891866 
-0.00525616854 -0.0458085425 0.0191662181 1.44089572e-05 21 51 15 0.933579862 
-0.0056796181 -0.0371802524 0.0169368964 1.0427786e-05 11 27 8 0.883147895 
-0.0051948945 -0.0443311259 0.018797759 4.68897633e-06 16 36 13 0.92524451 
-0.00214476697 -0.0346550494 0.0121880621 8.96379061e-06 19 47 13 0.775719345 
-0.00113041326 0.00552744325 -0.00307698618 6.34841854e-06 17 40 13 0.430392176 
-0.000722019235 0.0353722461 -0.0141014289 6.49585854e-06 31 89 21 0.180996269 
-0.00183180114 0.0145850647 -0.00506100198 1.07386149e-05 27 75 19 0.38550958 
2.71827157e-05 0.0332738832 -0.01423195 1.15451403e-05 26 72 18 0.178043619 
-0.0039301943 -0.0472225733 0.0207901224 9.77269956e-05 19 50 13 0.970315933 
-0.00608145865 -0.0453565083 0.0218683053 0.00012444926 21 57 15 0.99470675 
-0.0039247917 -0.0474910475 0.0192262568 2.24406831e-05 16 38 11 0.934938014 
-0.00310472469 0.00950418599 -0.000757348258 7.47619197e-05 14 37 10 0.482867211 
-0.000877258251 0.0370143093 -0.0133972066 4.05871251e-05 22 58 15 0.196927249 
-0.00119221886 0.0155529361 -0.00613825815 -2.90055759e-05 18 46 13 0.361139804 
-0.000517646316 0.0451543815 -0.0179722179 2.45771371e-05 11 29 8 0.0934309959 
-0.00207510032 0.0243372079 -0.00698993774 4.84710326e-05 15 39 11 0.34187302 
-0.00125366054 0.0119975386 -0.00192576705 8.9255409e-05 23 57 17 0.456435144 
0.00153234822 0.0211944934 -0.0108780758 3.370177e-05 19 44 14 0.25391525 
-9.10266244e-05 0.0210724231 -0.00882667955 -2.31154845e-05 21 48 15 0.300322086 
-0.00115055311 0.0131836254 -0.00550456578 8.25467578e-06 25 61 18 0.375475228 
-0.00460246671 -0.041849155 0.0168545824 2.14554893e-05 21 55 15 0.881285787 
-0.000533725834 -0.0344581194 0.0133291902 4.18848358e-05 15 37 11 0.801534116 
-0.00222488912 -0.0408765823 0.0181208681 1.0396936e-05 15 35 11 0.909931839 
0.000581195927 0.00734351669 -0.00560679985 4.73158434e-06 17 46 12 0.373162478 
-0.0020058495 -0.0383751132 0.0140327578 7.7537894e-05 11 25 8 0.817450285 
0.00187480822 0.0134734232 -0.00797050446 2.74124541e-05 20 44 15 0.319690555 
-0.00100497552 -0.0154430596 0.00903038494 2.4931971e-05 21 52 15 0.704286158 
-0.00251144776 0.00135572418 0.000727556297 2.4296809e-05 21 51 15 0.516458869 
0.000946306041 0.00925059151 -0.00519648939 -5.51935591e-06 18 44 13 0.382444561 
-0.000709546846 0.0228090938 -0.00940359104 1.65184028e-05 29 80 20 0.287271172 
-0.00663347589 -0.0336895809 0.0175063815 9.99320764e-06 11 29 8 0.896030843 
-0.000136155431 0.0319380648 -0.0113282409 -9.44872882e-05 25 62 18 0.243731573 
-0.0012991922 -0.00275285449 0.00582956756 2.06768163e-05 17 41 13 0.631877005 
-0.00394737534 -0.0410301462 0.0159300882 4.25043982e-06 13 32 10 0.860371828 
0.00126813108 0.0203840695 -0.00995721482 -2.12513842e-05 21 58 14 0.274747044 
-0.00360976602 -0.00458638696 0.00668175332 3.63105646e-05 19 46 14 0.651155174 
0.00160900271 0.0265923869 -0.0130196409 2.2000997e-05 15 33 12 0.20546858 
0.0009063076 -0.000100827034 -0.00159147952 0.000102054168 21 54 15 0.463997394 
-0.00469061546 -0.0344165601 0.0185154825 5.75371087e-06 16 41 12 0.918858767 
-0.0031358616 -0.0170838367 0.0116084106 2.27936398e-05 21 56 15 0.762606502 
-0.00364946085 -0.0056043691 0.00663969014 1.85915778e-05 15 41 11 0.650203645 
-0.00296690199 -0.0357055962 0.0131687615 7.90087506e-06 16 37 12 0.797904789 
-0.005972018 -0.0341447741 0.0161137506 2.23016832e-06 20 56 14 0.864526629 
-0.000185104291 -0.0183474962 0.00939038396 1.34767033e-05 21 56 15 0.71243006 
-0.00251419819 0.0180888101 -0.00540229259 2.20168149e-05 27 73 19 0.377788872 
0.00209991238 0.00228059804 -0.00388577743 4.976747e-05 17 42 12 0.412095606 
-0.00374430022 -0.0404762886 0.0157122817 1.71035063e-05 17 44 12 0.855444551 
-0.000628107344 -0.00923658069 0.00137696986 2.5006957e-05 20 51 14 0.531149924 
-0.00406866521 -0.0456620343 0.0178878661 1.7235463e-05 21 46 16 0.904660881 
0.000727454433 0.0105055626 -0.00567681761 4.6221423e-05 20 49 14 0.371578544 
-0.00241172127 0.00370047544 -0.000955390744 2.85533388e-05 24 59 18 0.478387058 
0.00199724315 0.0182355978 -0.0104757054 2.46668351e-05 15 41 10 0.263017684 
-0.0011003206 -0.0249026269 0.0098582115 1.56138558e-05 19 52 13 0.723013282 
-0.00384842604 -0.0380970761 0.0151138008 2.22885865e-05 13 30 10 0.841905713 
0.00355119677 0.0270599592 -0.0140037704 6.0987426e-05 21 52 16 0.183205515 
-0.000875076745 -0.036953155 0.0143524678 3.34170763e-05 22 56 16 0.824682713 
0.00163210253 -0.00870369654 0.00266991323 1.50454871e-05 14 36 9 0.560398996 
0.000429530162 -0.0174484532 0.00835772324 3.05031426e-05 15 39 11 0.689069152 
-0.000618314429 0.0203891471 -0.00848839711 8.9147361e-06 15 36 11 0.307974756 
-0.000451472646 0.0110760322 -0.00491009094 1.90675491e-05 25 63 18 0.388923526 
-0.00264928979 0.0082082944 -0.00254599447 1.95690227e-05 12 33 9 0.4424043 
-0.00189102022 0.0209716465 -0.00627191411 6.47115376e-05 10 24 7 0.358116239 
-0.00460415287 -0.0237886589 0.0112771746 -3.31455958e-05 9 23 6 0.755113184 
-0.00411772262 -0.0428511947 0.0170036647 1.32669229e-05 15 39 10 0.884658337 
-0.000487398589 0.044118695 -0.0187139995 1.54549489e-05 21 49 16 0.0766503215 
-0.0026742362 -0.037741486 0.0136933886 2.47763237e-05 8 20 6 0.809772968 
0.0023506931 0.00597371999 -0.00546099432 0.0001135973 19 51 13 0.37646094 
0.000550316181 0.0173730198 -0.00391464913 2.16886401e-05 15 38 11 0.411442459 
-0.000857056351 0.000313818338 -0.000852895784 -1.10577676e-05 30 81 21 0.480705708 
0.00561306719 0.0450948067 -0.0173138436 6.63814717e-06 21 52 16 0.108324781 
-0.000842821086 -0.0335907601 0.0136002144 3.45252338e-05 19 51 13 0.807665169 
-0.00290982681 0.0151876751 -0.002120886 7.89436235e-05 17 44 12 0.452021122 
-0.00156755617 0.00760463346 -0.00391087122 8.55477992e-06 16 40 11 0.411527932 
-0.00254517677 -0.0289776996 0.0154657485 2.87570292e-05 21 49 16 0.849867523 
0.00237015309 0.0357852951 -0.0171937365 2.21129012e-05 23 59 16 0.111041836 
-0.00304970122 0.00958711002 -0.0004640978 0.000101532787 11 23 9 0.489501119 
0.00177953485 0.0168248899 -0.00503523834 6.64114486e-06 28 66 21 0.386092424 
-0.00375747727 -0.00901452266 0.00691072084 5.53631689e-05 26 67 18 0.656334877 
8.73164972e-05 0.0254300199 -0.0109590245 7.49554965e-06 19 49 14 0.252084017 
-0.000818304135 0.00340140169 0.00201301998 2.56407657e-05 14 35 10 0.545538723 
0.00140454434 -0.0118266959 0.00425728736 3.50874034e-05 10 24 7 0.596308708 
-0.00484418962 -0.0370823927 0.0187785942 6.91716996e-05 9 19 7 0.924810946 
0.0012677646 0.037386436 -0.0118314978 1.09673711e-05 8 21 6 0.232346833 
-0.00547666335 -0.0267270859 0.0154162291 2.15246109e-05 13 34 9 0.848747253 
-0.00628265133 -0.0409348533 0.0193578545 1.91594008e-05 29 77 20 0.937915087 
-0.00583938928 -0.0304803029 0.0143568637 1.99906062e-05 22 54 16 0.824782252 
0.000781814684 0.0135292178 -0.00323139131 1.45300291e-05 21 57 15 0.426899195 
-0.00249870867 0.0160328429 -0.00377220148 5.04538184e-05 19 46 14 0.414664954 
-0.000356534612 0.00634559337 -0.00465370947 1.8404593e-05 22 63 15 0.394723386 
0.0012645321 0.000466384983 -0.000499033195 2.65953131e-05 10 24 7 0.48871085 
-0.00126839103 -0.00407480681 0.0062967483 2.67564901e-05 20 48 15 0.642445624 
-0.00627586478 -0.0358096845 0.0171811618 2.30178703e-05 15 39 11 0.888673723 
-0.0009152157 -0.00470353244 0.00624462171 2.17069937e-05 20 49 14 0.641266346 
0.00306333974 0.0396888889 -0.0137224691 8.84616747e-06 20 54 14 0.189569131 
-0.00236170692 0.0182032585 -0.0040576295 3.46691231e-05 20 50 15 0.408207953 
-0.00310092885 -0.0439683907 0.0198015347 2.38856301e-05 22 63 16 0.947952032 
-0.00355436257 -0.0392028317 0.0157253165 -5.07899676e-05 15 37 11 0.855739415 
0.000777619774 -0.0176645275 0.00769043574 1.06630614e-05 17 43 12 0.673973739 
-0.00635112775 -0.0294132102 0.0148678366 2.69266311e-05 19 47 14 0.8363415 
0.00124363718 0.0220501442 -0.0113634113 2.7793576e-05 18 46 13 0.242935926 
-0.00159997155 0.0115610352 -0.00235809316 4.41122684e-05 15 38 11 0.446655035 
-0.00144736364 -0.00594455237 0.00650898693 8.38586129e-06 15 39 11 0.647246838 
-0.00283913314 -0.00687333057 0.00656115869 3.9665043e-05 24 66 16 0.648427069 
0.000220863963 -0.0187318884 0.00876268093 2.90105818e-05 19 54 14 0.698230088 
-4.92044783e-05 0.0318626203 -0.0117042102 -9.63988714e-06 18 44 13 0.235226363 
-0.00340298726 -0.0475696065 0.0195933972 4.33535424e-05 11 27 8 0.943243444 
0.000323687855 0.0189330932 -0.0095296884 3.18605453e-06 25 65 18 0.284418583 
-0.0046328688 -0.033911366 0.0142291728 4.68984945e-06 16 37 12 0.821893573 
-0.000552112353 -0.0138538778 0.00770817418 1.31627894e-05 28 74 19 0.674374998 
-0.00144151901 -0.00927873794 0.00649786787 1.05178915e-05 25 68 17 0.646995306 
-0.00365113025 -0.0411001258 0.0157180633 7.68798782e-06 16 43 11 0.855575323 
0.00178313907 0.00611838186 -0.00197893777 1.29764667e-05 23 63 16 0.455232292 
-0.00118994049 0.0355714485 -0.0127511919 4.06175386e-05 18 46 14 0.211541444 
-9.44127387e-05 -0.0296915788 0.0114105148 3.93387163e-05 9 24 7 0.758129656 
-0.00282133883 -0.00216120272 0.00595264928 1.44292135e-05 18 46 13 0.634661317 
-0.00481686788 -0.0036933613 0.00331615959 3.39825638e-05 26 64 18 0.575018466 
-0.000742826844 0.0261604208 -0.00987517554 8.09272751e-06 8 19 6 0.276602954 
-0.00593384309 -0.0297235567 0.0134729389 2.2796914e-05 18 47 13 0.804786026 
0.00296848617 0.0242495425 -0.0127542336 8.04479059e-05 31 82 22 0.211472645 
-0.00397408661 -0.0400002822 0.0158900451 1.40720513e-05 25 67 17 0.859465957 
-0.00387243624 -0.0423470587 0.0163749792 2.4434441e-05 24 57 18 0.870436192 
2.6157737e-05 0.0316341706 -0.0120201875 -3.43093416e-05 16 38 12 0.228078306 
0.000479997718 0.0251882505 -0.0113736847 1.72986183e-05 18 48 13 0.242703542 
-0.00305882632 -0.0464191511 0.0175691471 5.96072059e-05 24 61 17 0.897450745 
-0.00530917896 -0.0422873758 0.0181948785 1.48375984e-05 24 61 17 0.911606133 
-0.00484367646 -0.0406338163 0.0167343225 7.37264054e-06 14 34 10 0.878565252 
-0.00203018356 0.013268277 -0.00436846772 1.15869334e-05 20 47 15 0.401176155 
-9.27773945e-05 -0.0206640791 0.00850715954 2.18406785e-06 20 54 14 0.692449629 
0.0031405699 -0.00578788947 0.000964207051 3.42183048e-05 14 35 10 0.521812379 
-0.00299933227 0.0073870495 -0.000851873192 9.95770097e-06 28 74 20 0.480728865 
-0.000659668643 0.00175075664 0.00197313423 5.14139138e-05 15 40 11 0.544636428 
9.36836004e-05 0.0319438577 -0.0120688267 -6.28180205e-05 24 59 17 0.226977974 
0.00345238741 0.0186754279 -0.00775400084 1.68578699e-05 21 54 15 0.324588329 
-0.000290725555 -0.0130179673 0.0074427207 2.18796195e-05 17 42 13 0.66836983 
-0.00202721753 0.00457828119 0.00225749402 6.86512503e-05 24 67 17 0.55106926 
0.000964890583 0.0366396606 -0.0161694791 3.79653648e-06 14 40 10 0.134212688 
-0.000596679922 -0.0165575109 0.00954643637 2.9981893e-05 19 46 14 0.715960324 
-0.00349894143 -0.00881248806 0.00674859481 0.000121363846 21 54 15 0.652667284 
-0.000830775476 0.0359113105 -0.0139188338 1.30303088e-05 31 79 23 0.18512696 
-0.00221719174 0.0172615051 -0.0041495529 3.16346996e-06 22 56 16 0.406128466 
-0.00123688171 0.0033807077 -0.00229848037 9.53814015e-06 19 46 13 0.44800359 
-0.00215216866 -0.00647840882 4.43069366e-05 1.22358397e-05 14 34 11 0.501002312 
-0.00106940418 0.0365580358 -0.0131106209 2.72619654e-05 15 37 11 0.203410402 
-0.00214671181 0.0201947968 -0.00635812292 2.12795858e-05 18 47 13 0.356166005 
-0.00103373337 -0.0253237914 0.011573419 2.86635477e-05 21 50 16 0.761814833 
0.00256832642 0.0220661703 -0.00849364046 8.18888657e-06 14 36 10 0.307856172 
-0.00647090981 -0.034244407 0.0173074324 1.52376015e-06 13 30 10 0.891530216 
-0.0062139011 -0.0365859903 0.0182363354 3.802625e-05 23 63 16 0.912543893 
-0.00497347396 -0.0350229032 0.0149811795 -1.80280767e-06 16 41 12 0.838905513 
-0.0046437392 -0.0298231896 0.0163901821 5.22859045e-06 20 53 14 0.87078011 
-0.00186787196 0.0261134282 -0.00785216037 6.1391911e-06 27 73 19 0.322367787 
-0.00241002883 0.00663512293 -0.00224574888 2.39197398e-05 12 30 9 0.449196458 
0.00109381392 0.00394363329 -0.00353509607 -7.48744715e-05 19 48 14 0.420028746 
-0.00663827313 -0.0335113667 0.0181344319 4.93639382e-05 15 36 11 0.910238683 
-0.00190403673 0.0238857735 -0.00773608079 3.73123621e-05 15 40 10 0.32499373 
-0.0034535469 0.00358998403 0.00190197467 1.24911312e-05 22 54 16 0.543026626 
-0.00214009313 -0.0446952954 0.0176529977 7.86556629e-05 18 45 14 0.899347603 
-0.00161795306 0.0144197512 -0.00530875288 6.52088784e-06 23 63 16 0.379904926 
0.00212188717 0.0329876132 -0.0165673476 1.04158535e-05 13 34 10 0.125212073 
-0.00543289026 -0.0380631238 0.0179430526 2.98863743e-05 20 49 14 0.9059093 
-0.00504054874 -0.038333565 0.0170283262 -1.99467177e-05 17 43 13 0.885216296 
0.0017962337 0.00406398531 -0.00297806528 4.31407243e-05 30 83 20 0.432629943 
-0.00182211108 0.00175185967 -0.00103539496 1.46399252e-05 19 47 13 0.476577193 
-0.000492619583 -0.0156427789 0.0085042445 1.08144013e-05 20 50 15 0.692383707 
-0.00308629661 0.014765515 -0.00264192396 7.61566916e-05 20 54 14 0.440234184 
-0.000288877869 0.0329236351 -0.0126378816 1.8521212e-05 13 35 9 0.214104757 
-0.00241566333 -0.0434043594 0.0164198522 1.12811395e-05 22 56 16 0.871451318 
-0.00111225026 -0.0156954601 0.00948147941 3.046653e-05 18 44 13 0.714490831 
-0.000418713258 0.00345973531 -0.0029690552 5.47594391e-06 24 65 16 0.432833791 
-0.00268236129 -0.0303323921 0.0101630464 1.42839272e-05 30 80 21 0.729909301 
-0.00198634993 0.000932159892 0.000135665527 4.38885763e-07 20 53 14 0.503069043 
0.0030769601 -0.00442626234 0.000651669339 5.83007932e-06 25 66 17 0.514742136 
-0.00075098942 0.0361960232 -0.0140692294 1.37477182e-05 34 92 24 0.181724697 
-0.00100213871 -0.00650608307 0.00625837175 2.95858481e-05 19 50 14 0.641577363 
-0.000936583325 0.0286721811 -0.00876724347 3.98914563e-05 19 42 15 0.301666677 
-0.0035306022 -0.00697942404 0.00212791143 1.16827432e-05 8 19 6 0.548137784 
0.00238941447 0.0199299697 -0.0102348011 -9.61962942e-05 28 74 20 0.268467456 
-0.0023386064 0.0200202297 -0.0058439537 2.99355015e-05 24 55 18 0.367797583 
-0.00241005304 0.0175033137 -0.00539849885 6.62920356e-05 17 43 13 0.377874702 
-0.000553199556 -0.0210955795 0.00996766239 1.19155739e-05 19 45 14 0.725489318 
-0.00306499447 -0.000391215726 0.00425430993 4.94733686e-05 22 58 15 0.596241355 
-0.002520398 0.0194708612 -0.00479208538 6.85421983e-05 27 73 19 0.391593039 
-0.00271115103 0.0130813261 -0.0028103902 8.58074054e-06 16 39 12 0.436423123 
-0.00180800725 0.0210927706 -0.00534469867 3.66884051e-05 21 51 15 0.379091769 
-0.000952288567 0.00241940981 0.0022339928 2.58394284e-05 23 61 16 0.550537586 
0.000936617027 -0.00053005066 0.00188388606 3.18951788e-05 20 47 15 0.54261744 
-0.00517519936 -0.0270098876 0.0117298784 1.55528542e-05 25 65 18 0.765354335 
-0.00168804522 0.025345929 -0.00863167271 9.290874e-06 22 57 15 0.304733574 
0.000528632954 -0.00188581587 -0.00151861331 2.49681034e-05 17 45 12 0.46564579 
-0.00216416363 0.00905118417 -0.0031097699 4.92478648e-06 24 64 17 0.429650515 
-0.00215380965 -0.0386094004 0.016069714 -4.1383857e-05 15 42 10 0.863530457 
-0.00195769314 0.00583595736 -0.00205221842 1.51339918e-08 20 51 14 0.453574568 
-0.00532658072 -0.0398998596 0.017294012 1.04187056e-05 16 41 11 0.89122659 
-0.00120174955 0.0187888891 -0.00806054752 1.95900211e-05 21 54 15 0.317653596 
-0.0016223134 -0.0306076631 0.0144414864 2.18114874e-05 21 55 15 0.826696515 
-0.00192090834 -0.0152741596 0.00980826933 3.23291169e-05 24 60 17 0.721883476 
-0.00537905842 -0.0452442542 0.0191185251 4.88496153e-06 22 56 16 0.932500899 
0.00106785877 0.0226616468 -0.0115297539 8.4504718e-06 18 50 13 0.239172921 
-0.004120294 -0.0294520725 0.0163697898 2.95056816e-05 24 64 17 0.87031883 
-0.000701425131 -0.0233939476 0.0103475694 6.33310992e-06 21 59 15 0.734083593 
-0.00179859321 0.024361765 -0.00827588048 9.44861677e-06 22 61 16 0.312782347 
-0.0025657306 -0.00317349355 0.00641010515 1.98313792e-05 17 43 12 0.645009935 
-0.00443001045 -0.0408300236 0.0163154267 2.54202168e-05 19 50 14 0.869088948 
0.001496432 0.0452904142 -0.0207181163 2.68534641e-05 17 47 11 0.0313130207 
-0.00600697799 -0.031260144 0.0169543196 4.73153777e-05 17 43 12 0.883542061 
0.000856552739 -0.00705941627 -0.00114966847 1.18812432e-05 13 34 9 0.473992109 
-0.0010230483 -0.0246159509 0.00970258843 -0.000112922629 24 65 16 0.719492793 
0.001265325 0.0317616835 -0.0145869162 2.21964438e-05 16 41 11 0.170013532 
0.000933041214 0.039468158 -0.0195790268 1.21492194e-05 27 70 19 0.0570816025 
0.00286876899 0.0313129835 -0.0153190736 3.21574298e-05 19 44 14 0.153450623 
-0.00172108132 -0.00155898102 -0.000649037538 2.70192977e-05 25 59 18 0.485317409 
-0.00513845449 -0.0222085547 0.0125221629 7.88807811e-05 12 27 9 0.783277452 
0.0012079787 0.00489917537 -0.00394630618 5.83569927e-05 23 60 16 0.410726339 
0.00679095555 0.0414898917 -0.0191395264 2.2620894e-05 15 43 10 0.0670240223 
-0.00538155949 -0.03876682 0.0176052898 1.28967804e-06 25 61 19 0.898268342 
0.000862922985 0.0348648056 -0.0162197277 1.2084347e-06 23 59 17 0.133075967 
2.31955783e-05 -0.01880816 0.00904345512 3.40852421e-05 15 39 11 0.704581857 
-0.0014615868 -0.0407610089 0.0154071348 9.47731314e-05 19 44 14 0.848541498 
-0.00215737801 -0.00486289104 0.00671198824 1.27274507e-05 27 69 20 0.651839197 
0.000229921599 0.00446147425 -0.00327474787 -1.80780771e-05 13 31 9 0.42591837 
-0.00671382388 -0.0333490707 0.017445663 2.5825575e-05 20 49 14 0.894657254 
-0.00281539443 0.0155381933 -0.00225596665 0.000117747753 19 46 14 0.448965341 
-0.00233284244 0.0044010221 -0.000980457407 1.95723842e-05 15 40 11 0.477820009 
-0.000380107347 0.0120915519 -0.00581147708 5.22637856e-06 17 45 12 0.36853227 
-0.00657693483 -0.0354637094 0.0183251742 7.48558668e-05 21 47 16 0.914553702 
-0.00324892462 -0.0211559292 0.0127684223 2.05792021e-05 17 42 13 0.788848341 
-0.00468420703 -0.0443145446 0.0182625372 8.28271732e-06 11 27 8 0.913136661 
-0.00108083733 0.0184883997 -0.00816655904 2.5275629e-05 24 56 18 0.315255404 
-0.000722072669 0.0421007015 -0.0140720503 8.64209142e-06 21 49 15 0.181660876 
-0.0017840768 -0.0182706863 0.0109793413 2.70923483e-05 15 39 11 0.748375595 
-0.00610129302 -0.0276957434 0.0137745561 2.92066252e-05 18 40 13 0.811609209 
0.000406584993 0.00193311158 -0.00334792957 5.00152237e-05 22 53 16 0.424262881 
-0.0030341458 -0.0290383454 0.0101168649 1.5100406e-05 30 81 22 0.728864551 
-0.00529889157 -0.0200818516 0.0115765473 5.25265932e-05 24 61 17 0.761885643 
-0.00284582423 0.0147083644 -0.00354812201 3.959483e-05 22 54 16 0.419734091 
0.00105853204 0.0200170185 -0.00505432254 7.38538802e-06 25 61 18 0.385660678 
-4.33464593e-05 -0.00850533694 0.00495595718 -3.16341757e-05 28 72 20 0.612114072 
-0.00202074461 0.0256358292 -0.00758144492 4.76220157e-06 20 49 14 0.328491926 
-0.000384011597 0.0394424386 -0.0153468046 1.13998249e-05 22 55 16 0.152823284 
-0.00520747108 -0.0418857299 0.0176974796 8.64325557e-06 21 51 15 0.900353849 
-0.00133906491 -0.021241745 0.00677389698 -8.03930307e-05 16 41 11 0.653239667 
-0.00112818321 -0.00579997664 0.00638620229 1.2608929e-05 16 39 11 0.644469202 
0.00111682643 0.0192342009 -0.0100557236 1.62284996e-05 16 43 11 0.272518545 
-0.00359261408 -0.0164726432 0.0114580607 5.60150438e-05 17 45 12 0.759205163 
-0.00638560811 -0.0349331349 0.018846035 0.000150504464 27 71 19 0.926336646 
-0.00160105911 0.00647126604 -0.00343574001 1.86573889e-05 24 60 17 0.422276407 
-0.00580020389 -0.0364827178 0.0165133178 2.98678642e-05 17 42 13 0.873565733 
0.0026426937 -0.00757742533 0.00073292508 3.84316663e-05 22 59 15 0.516580284 
-0.00183410593 -0.0250873584 0.0130433235 2.30997102e-05 14 32 10 0.795067132 
-0.000636210025 0.00925604533 -0.00447571045 2.09802092e-05 15 37 11 0.398750067 
-0.00114038098 -0.0237623826 0.00751202414 5.65450246e-05 20 53 14 0.669937611 
0.00132041797 0.0369986631 -0.0164495558 -6.82186801e-05 19 49 14 0.127876773 
0.00117336342 0.0101424968 -0.00527635589 4.6069661e-05 18 46 13 0.380637825 
-0.0030668627 -0.0159313735 0.0110663129 5.28899109e-05 15 40 11 0.750343084 
-0.00175036152 -0.0431036875 0.0166371558 5.80976484e-05 24 67 17 0.876367092 
-0.000287155213 0.0335543565 -0.0138063608 6.86338171e-06 27 67 19 0.187671319 
0.00142336264 -0.00512584066 -0.00190982933 5.74165242e-05 8 20 6 0.456795663 
-0.000504597905 -0.0232408624 0.0100910738 3.02988337e-05 19 52 13 0.72828114 
0.00119002 0.00753112743 -0.00586349564 4.28141502e-05 10 27 7 0.367355525 
-0.00351254782 -0.0427845903 0.0163706336 2.53673061e-05 29 71 21 0.870337903 
0.000321749598 -0.0181023851 0.00865220837 5.19468449e-06 18 42 13 0.695730984 
-0.00141425943 -0.00440927316 0.00643505855 8.0063819e-06 25 70 17 0.64557445 
0.0015028551 0.040839199 -0.0212485809 2.23779352e-05 20 52 14 0.0193128325 
-0.00152814004 -0.0314460136 0.0138281733 -3.09904572e-05 26 72 18 0.812822104 
-0.00506409537 -0.0326834098 0.0145165436 1.13898423e-05 15 38 11 0.828394473 
-0.00173939054 -0.0315080509 0.0140842265 -6.51004957e-05 12 32 9 0.818614602 
-0.00599395251 -0.0357054956 0.0165037755 2.82563269e-05 16 43 11 0.873349845 
-0.00409552269 -0.003350819 0.00620791037 2.25763361e-05 15 37 11 0.640435815 
0.00152711559 0.0133780679 -0.00413265871 7.3229894e-06 24 60 17 0.406510621 
-0.00269965222 0.00961177889 -0.00206532958 1.05837826e-05 26 72 17 0.453277946 
-0.00452185515 -0.0116304895 0.00890013296 0.000106458669 23 58 16 0.701339543 
-0.00289423438 -0.0364904478 0.017562665 2.09468126e-05 16 41 11 0.897304118 
-0.00504337763 -0.0313139148 0.0138181392 2.02906085e-06 14 34 10 0.812595129 
0.00200199499 0.02468629 -0.0124410093 3.85018066e-05 27 66 20 0.218558431 
-0.00133269583 0.029236665 -0.00913688354 4.95069544e-05 25 58 18 0.293304622 
-0.00333756837 -0.0426518992 0.0161393862 1.30067929e-05 27 61 20 0.865106583 
-0.00615221588 -0.0354200825 0.0167468656 1.21275516e-05 21 55 15 0.87884903 
-0.00248506037 -0.0321586952 0.0152683025 -1.24592334e-05 14 34 10 0.84540087 
0.000991152483 -0.00888964813 0.0035996926 -5.36511652e-06 21 52 15 0.581432581 
-0.00224422291 0.0158957671 -0.00438327296 6.71623275e-06 10 27 7 0.400841206 
0.00333480281 0.0265892278 -0.0135608222 -4.93765765e-06 20 49 15 0.19322592 
-0.000506138895 0.0332883485 -0.0125466781 1.81091018e-05 18 46 13 0.216167986 
-0.00475249719 -0.0335460342 0.0142589435 2.8953189e-05 15 39 11 0.822567046 
0.00145726313 0.0197884385 -0.0101112565 9.7991142e-06 15 34 12 0.271262288 
-0.000354722084 -0.0053790831 0.00597557845 7.12880865e-06 21 54 15 0.635180056 
-0.00141469087 0.0148616955 -0.00559945218 2.17136185e-05 15 37 11 0.373328716 
0.00289157336 0.0234250799 -0.0127613442 7.38898234e-05 22 59 16 0.211311787 
0.000927272253 0.00265206164 -0.00376688875 2.40266963e-05 22 56 16 0.414785117 
-0.000888586044 0.016293101 -0.00745828357 1.45467639e-05 25 60 18 0.331278086 
-0.00386791863 -0.0375502743 0.0146221463 6.39693462e-06 15 37 12 0.830783486 
-0.00619130209 -0.0456740521 0.0213083867 3.49117909e-05 19 43 14 0.982040167 
-0.00217877934 -0.0235782024 0.0120360665 -0.000270196586 13 30 9 0.772280931 
-0.00525356224 -0.0307146814 0.0130372914 3.60598788e-05 17 43 13 0.794930696 
-0.00646451768 -0.0346008427 0.0174077824 -3.83285806e-06 12 30 9 0.893800318 
-0.000566033297 0.0059583257 -0.00419315556 2.53614271e-05 18 47 13 0.405142069 
-0.00508228224 -0.0449924953 0.018701518 2.0227104e-05 25 68 17 0.923067331 
-0.00222736038 -0.0251999721 0.0136285415 2.07967823e-05 13 35 9 0.808306038 
0.00171717745 0.0195853766 -0.0102503803 1.56562019e-05 11 26 8 0.268115044 
-0.00625242619 -0.0297337994 0.0147599569 8.38281121e-05 22 62 15 0.833900988 
-0.00384026812 -0.0458541699 0.0177745521 2.33441824e-05 22 50 17 0.902097464 
-0.00535166031 -0.0313836895 0.0148762334 7.73649663e-06 16 39 12 0.836531401 
-0.00153563637 0.0232846532 -0.00825788081 2.77590007e-05 17 44 12 0.313189507 
-0.00205870927 -0.0192537419 0.011061118 -2.11769366e-05 18 49 13 0.750225544 
-0.00461409427 -0.0439786948 0.0182104073 -4.43134923e-06 15 41 11 0.911957383 
-0.000663498417 -0.0196916014 0.00963526405 -1.59383017e-05 22 55 16 0.717969775 
0.000732862507 -0.0077557154 0.00477375695 2.77429353e-05 17 45 12 0.607992291 
-0.000227729455 -0.0305607785 0.0110254716 9.76904994e-05 19 50 13 0.749419153 
-0.00101794209 0.0349174663 -0.0113955867 5.05276257e-05 24 56 18 0.242208079 
-0.000883079134 0.02173719 -0.00779966172 -5.7400699e-05 23 62 16 0.32355538 
8.35140236e-05 0.0361400582 -0.0153909791 3.94967174e-06 23 61 17 0.151823968 
-0.00562841585 -0.0385265462 0.0182459205 3.22811829e-05 20 49 14 0.912760735 
-0.00114025711 -0.0109982723 0.00762077468 1.34319271e-05 28 68 20 0.672397792 
-0.00533582363 -0.039520774 0.0173384193 1.71232969e-05 18 47 13 0.892231226 
-0.00231867842 -0.03933274 0.0172926132 1.69001869e-05 22 57 16 0.891194999 
-0.00470552873 -0.0322552659 0.0141277108 -6.19728817e-05 18 46 13 0.819598258 
0.0010914224 0.00122621702 -0.00342734996 2.42923998e-05 14 34 10 0.422466218 
-0.00476149563 -0.0348384194 0.0147111332 -5.86081296e-06 16 38 12 0.832796454 
0.00201407284 0.00713968975 -0.0059508956 7.40089745e-05 23 62 16 0.36537832 
-0.00154940179 -0.0180885494 0.0108124539 1.40111661e-05 20 55 14 0.744600236 
0.000213398773 0.0227860287 -0.0106879845 1.00120669e-05 26 71 18 0.258215517 
-0.00152834866 0.0154574513 -0.00552803418 -3.45917651e-05 10 26 7 0.374944329 
0.00102694554 0.00301009766 -0.00379065657 3.80753772e-05 17 45 12 0.414247423 
-0.0057548983 -0.0404531173 0.0179887079 1.46607636e-05 15 38 11 0.90694207 
-0.00228756713 0.00799141359 -0.00308410218 1.94484601e-05 11 30 7 0.430231184 
0.00116126169 0.00915937498 -0.00157259183 1.73752196e-05 18 42 13 0.46442467 
-0.000593027333 -0.0199934635 0.00949020498 -1.88020058e-05 27 66 20 0.714688241 
0.00016515312 -0.0159196835 0.00579198729 1.17045129e-05 22 55 16 0.631026864 
-0.00304517895 -0.0205113739 0.0124855908 3.73403309e-05 11 30 8 0.78245008 
0.000214213564 -0.0225076433 0.00857274234 5.20778121e-05 18 47 13 0.693933249 
-0.00207681162 -0.00100384338 0.00501944683 3.22966225e-05 23 59 16 0.613550305 
-0.00116439303 -0.0173432678 0.0104135703 4.34639333e-06 23 58 17 0.735576689 
0.00395103497 0.037526615 -0.0191994701 3.38376849e-05 14 32 10 0.0656679943 
-0.00208463613 0.0164892431 -0.00480630714 -1.4232588e-05 20 49 14 0.391271323 
-0.00370369968 -0.0385725088 0.0155364834 -3.59906117e-05 13 30 9 0.851467609 
-0.00192939024 0.0134354709 -0.00460188324 1.29838008e-05 21 52 15 0.395895779 
-0.00583724165 -0.0437042415 0.0198259205 1.71972206e-05 13 35 10 0.948503613 
-0.00401857402 -0.0475668684 0.0198493619 3.11296026e-05 14 35 10 0.949033976 
-0.00632144092 -0.0362104177 0.0176758375 3.07533774e-05 10 27 7 0.899864256 
-0.000730699394 0.0416226909 -0.0141594782 2.04106327e-05 20 51 14 0.179683074 
-0.00570252119 -0.0301177334 0.0159717649 4.91495011e-05 16 42 11 0.861314595 
0.00154561247 0.0204624217 -0.0101585137 -3.94149683e-05 17 41 12 0.270193249 
-0.00107070175 0.0115908151 -0.00452076411 5.18839806e-06 31 88 21 0.397730917 
-0.00189951377 -0.0204204451 0.0115363859 2.58923392e-05 25 64 18 0.760977089 
-0.00289222784 0.00937200058 -0.00183460407 5.88491093e-06 15 41 11 0.458497435 
-0.00304863113 0.0142098311 -0.0027512596 7.40690157e-05 20 49 14 0.43776077 
0.000311734038 0.00253092893 -0.00343510043 2.85921851e-05 13 37 9 0.422290862 
0.00537609076 0.0440907292 -0.0162654817 1.34443399e-05 26 67 19 0.132040918 
-0.00177429989 0.0255201366 -0.00841128174 2.95004575e-05 24 63 17 0.309719294 
-0.000813824125 -0.0368856452 0.0140012428 2.56564235e-05 23 64 16 0.816737294 
-0.00143056968 -0.00828046445 0.00584641704 -9.31550749e-05 22 56 15 0.632258117 
-0.00197298708 0.0181682836 -0.00684809312 1.64471567e-05 20 53 14 0.345081866 
-0.00118920056 0.043281097 -0.0154020544 5.23717608e-05 23 54 17 0.151573405 
0.001066781 0.0286943391 -0.0137948366 1.63516961e-05 23 56 17 0.187932029 
7.24417041e-05 -0.0230335239 0.0088757053 3.20242252e-05 19 47 14 0.700786948 
0.00270067318 0.0151649639 -0.00885447301 4.7012174e-05 23 58 16 0.299693376 
-0.00246399385 -0.00504652038 0.00676862476 1.38419564e-05 25 66 18 0.653120399 
-0.00552683277 -0.037703719 0.0178096164 -1.03202183e-06 20 49 14 0.902890742 
-0.000477330119 -0.0149352653 0.00750947837 -6.1264378e-05 16 40 11 0.669880033 
-0.00655702827 -0.0320874192 0.0168367717 3.54136573e-05 9 22 6 0.880882919 
-0.000856198836 0.00374864577 0.001931326 1.75309833e-05 20 50 15 0.543690622 
-0.00307540805 0.0142298331 -0.00238118321 8.02081195e-05 27 68 20 0.44613266 
0.000506442972 0.0153779481 -0.00821325835 1.67107792e-05 18 50 13 0.314198941 
-0.00538724149 -0.0406407453 0.0174546149 1.57536124e-06 18 46 12 0.894859791 
0.00149670884 0.00619406579 -0.00564269209 5.51773119e-05 18 48 12 0.372350514 
-0.00357142393 -0.0180000868 0.0117007839 3.13804703e-05 8 18 6 0.764696121 
-0.00188588595 -0.0455378629 0.0181611385 2.86226277e-05 23 57 17 0.910842776 
-0.0024536578 -0.0158658847 0.0107708517 3.42091662e-05 30 86 20 0.743659139 
-0.00291249808 0.0150010502 -0.00336729526 1.99333335e-05 21 53 15 0.423824787 
-0.00231156428 -0.0110639604 0.00855592638 3.01180989e-05 27 68 19 0.693552911 
-0.00353008718 -0.041711051 0.0158042889 1.80808711e-05 23 63 17 0.857526004 
0.00195144699 0.0250568315 -0.0123558138 2.9418472e-05 28 70 20 0.220485732 
0.000517463952 0.0265166368 -0.0115416702 -9.88401007e-05 12 32 9 0.238903344 
0.00254672742 0.00653737364 -0.00306103658 2.44691037e-05 19 46 14 0.430752963 
-0.00506309001 -0.0330523588 0.0145328976 2.22302624e-05 16 37 12 0.828764379 
0.00102366519 0.0184984412 -0.0100175608 1.63200311e-05 22 53 16 0.273381889 
-0.00634772656 -0.0326056592 0.016152015 3.41621926e-05 11 28 8 0.865392208 
-0.00177667162 -0.0064231283 0.00656635035 1.93213637e-05 20 53 14 0.64854455 
-0.00249876967 -0.0309013706 0.0103710005 1.80053758e-05 25 67 18 0.734613657 
-0.00040347359 0.0243504532 -0.0105109047 3.75956733e-06 37 101 26 0.262221396 
-0.00458362 -0.0473979153 0.0199689958 3.365468e-05 13 35 9 0.951740324 
-0.00169520301 -0.00979140308 0.00726734893 1.04523497e-05 30 84 20 0.664402604 
-0.00593215646 -0.0283145532 0.0131980693 1.17318705e-05 21 52 15 0.798567832 
0.000335093646 0.0107577667 -0.00281704543 -0.000197072688 20 49 14 0.436272562 
-0.00578928133 -0.0424025655 0.0197164007 3.00862594e-05 22 54 17 0.946026087 
-8.71004595e-05 -0.029953571 0.0116931945 2.4512352e-05 19 52 14 0.7645244 
-0.00164453476 -0.0429484472 0.0163450632 8.72825476e-05 25 67 18 0.869759381 
-0.00507096713 -0.0456431322 0.0188678857 1.25747174e-05 18 46 13 0.926830947 
-0.00439638132 -0.0438728966 0.0179909449 5.33591083e-06 20 56 14 0.906992674 
-0.00419672485 -0.0256656222 0.0151926624 1.70055428e-05 20 49 14 0.84368968 
-0.00420130277 -0.0386965945 0.016117936 -2.22442904e-05 15 39 10 0.864621341 
0.000789239304 -0.00947062764 0.00192834157 -2.04378739e-06 13 30 9 0.54362309 
-0.000376567157 0.0294984858 -0.00839202292 5.34240353e-05 27 74 19 0.310154945 
-0.0046477397 -0.0459550619 0.0185179897 2.00200884e-05 26 71 18 0.91891557 
-0.00158644991 0.022965014 -0.00681994855 2.97993538e-05 19 47 14 0.345718533 
-0.00109816226 0.0348760746 -0.0117331743 2.90186726e-05 23 59 17 0.234571129 
0.00232548499 0.0205919649 -0.0105260229 -0.000138813368 14 36 10 0.261879414 
-0.00284305029 -0.0461862646 0.0173902828 6.57875644e-05 23 58 17 0.893404424 
-0.000367155881 0.0379840434 -0.0128568485 8.87283823e-05 16 38 11 0.209151283 
-2.51195452e-05 0.0415506698 -0.0190258585 -3.6173733e-06 9 21 7 0.0695954263 
-0.00241102208 -0.0123288492 0.00390196242 2.09138307e-06 13 37 9 0.588270545 
-0.00123041891 0.00711009977 -0.00414879061 3.11736949e-06 23 58 16 0.406145722 
-0.00114005385 0.0208057221 -0.00772582972 1.76338945e-05 16 39 12 0.325225592 
-0.00601563603 -0.0457638055 0.020459475 3.02745029e-05 19 50 14 0.962835968 
0.00117693376 -0.00788008515 -0.000502974202 4.0951003e-05 21 56 15 0.488621682 
-0.000968067674 0.012808132 -0.00553385634 1.00973994e-05 25 65 18 0.374812633 
0.00282074302 0.0323674604 -0.0165527631 8.07887409e-06 28 71 20 0.12554203 
-0.00610464811 -0.0363626331 0.0171321165 8.98091821e-06 10 27 7 0.887564182 
-0.00162434322 -0.0296597686 0.00983776245 1.42422869e-05 15 37 11 0.72255069 
-0.00168974465 0.0157302599 -0.00533560198 -6.86772401e-05 6 16 5 0.379297554 
-0.00402316358 -0.0383366533 0.0156253148 -2.96983053e-05 14 37 10 0.85347718 
0.000166962272 0.00842753705 -0.00531029562 4.01149155e-05 15 41 11 0.379870027 
-0.00171043281 0.016993273 -0.0067666159 2.81106913e-05 25 61 19 0.34692505 
-0.00176644721 0.0063494863 -0.00312793348 9.46747605e-06 33 93 22 0.429239601 
-0.000548288925 0.00720624253 -0.00480538234 3.16871447e-05 19 50 14 0.391292244 
-0.00629591895 -0.0393038467 0.0196073074 9.09576192e-05 25 67 18 0.943558156 
0.000129018386 -0.0196691509 0.00552981161 5.34599239e-05 23 58 17 0.625095844 
-0.00270774378 -0.00742986519 0.00133661495 9.51066613e-06 17 42 13 0.530237019 
0.00134351966 0.0230837464 -0.0119200693 7.12970359e-06 21 60 14 0.230343178 
-0.000457392802 -0.0100121005 0.00228614034 -0.000123353559 16 41 11 0.551717281 
-0.00336704915 -0.0335385241 0.0170614049 -1.93307642e-07 11 30 8 0.885964572 
-0.00224373629 0.0162124839 -0.00420745509 9.61474143e-07 15 37 11 0.404818594 
-0.000341350649 0.0203986671 -0.00873962604 9.52201663e-06 16 46 11 0.302291423 
-0.000660867081 -0.0357637592 0.0134425731 2.86055729e-06 20 46 16 0.804099023 
-0.00303588668 0.0149481865 -0.00230920129 3.90340574e-05 15 34 11 0.447761029 
-0.00515093701 -0.0381517746 0.0189581644 -3.62284627e-05 14 36 10 0.928873241 
-0.000850963057 0.0231056958 -0.00940260198 3.65427695e-06 28 76 19 0.287293553 
0.00218387297 0.00266653346 -0.00162670668 1.77471666e-05 13 36 9 0.46320051 
-0.00200269092 0.0255266409 -0.0067406497 0.000130078872 13 34 10 0.347512454 
-0.00495967036 -0.0399560817 0.0168253575 1.03795901e-05 14 33 10 0.880624712 
-0.00132014242 0.00373375858 -0.00223501679 3.86727042e-05 25 68 18 0.449439257 
-0.00658683805 -0.0323516466 0.0181212369 0.000105677871 17 45 12 0.909940183 
-0.00165424438 -0.041528102 0.017352527 3.03028282e-05 12 31 9 0.892550409 
-0.000781179289 0.0139832869 -0.00618541613 2.03802483e-05 15 39 11 0.36007297 
0.00036839518 0.026424285 -0.0112400148 -7.67192687e-05 11 30 8 0.24572742 
-0.000418337295 0.0276563242 -0.0113588702 2.34610598e-05 17 45 12 0.243038654 
-0.000502401788 0.0228126701 -0.00972772948 9.71893314e-06 23 58 17 0.279938459 
-0.00363960909 -0.0194039773 0.00726065133 8.42061127e-06 10 25 7 0.664251089 
-0.00115321111 0.0285685118 -0.010311381 2.25321564e-05 23 50 17 0.266735077 
-0.00503498269 -0.0374953412 0.0160466526 2.15000473e-05 18 40 14 0.863008678 
-0.00088954228 0.0194941759 -0.00841221306 2.2653403e-05 11 26 8 0.309698194 
-0.00253911712 -0.0150031475 0.00982017815 2.4771376e-05 16 40 11 0.722152889 
-0.00434011966 -0.0428162701 0.0172340572 1.84078817e-05 14 36 10 0.889870346 
-0.000523723604 -0.0307129677 0.0127372146 2.67818104e-05 25 64 18 0.788142383 
-0.00217859773 -0.0108149266 0.00833639409 1.59065239e-05 29 77 20 0.688586593 
-0.000641093065 -0.0110081416 0.00705431961 3.08828021e-06 22 58 16 0.65958339 
-0.00129288784 -0.00895422697 0.00596898654 -8.10984639e-05 23 62 16 0.635030925 
-0.00127669657 -0.0244688317 0.0107479244 -5.56343002e-05 20 48 15 0.743140459 
-0.00496120797 -0.00416557537 0.00416119769 4.24939208e-06 24 67 17 0.594134986 
-0.000507003744 -0.0214550607 0.0100798495 2.7156435e-05 20 51 14 0.728027225 
-0.00138137257 0.00697220722 0.000545087038 3.22507512e-05 22 56 16 0.512331009 
-0.000375380769 0.0260262601 -0.0103326207 -9.79172182e-06 13 34 9 0.266254574 
-0.00317478715 -0.0242930334 0.00958606321 -6.63059764e-05 18 46 12 0.716856718 
-0.0060354704 -0.0460367315 0.021217959 5.97812468e-05 20 49 14 0.979994535 
0.00199798658 0.0157068055 -0.00947137363 5.37415908e-05 27 68 20 0.285737783 
-0.00644002948 -0.0399419405 0.0198304281 0.000104814302 22 53 16 0.948605657 
-0.00458901143 -0.0273818988 0.0160726551 3.1564472e-05 22 57 16 0.863596976 
-0.00217343611 -0.0134573579 0.00901203323 5.08665107e-06 19 44 14 0.703870952 
-0.000414677081 -0.0264324415 0.0110627161 3.11355507e-05 24 52 18 0.750261724 
0.000546704803 0.00591404876 -0.00506358128 1.00346515e-05 15 35 11 0.385451227 
-0.000646151369 0.0452066436 -0.0173646715 2.17494089e-05 26 69 18 0.107174948 
-0.00244020182 0.0178124253 -0.00555679575 1.93254091e-05 16 37 12 0.374293685 
-0.00578220608 -0.0413975343 0.0183749367 6.87851571e-06 25 63 18 0.915679455 
-0.00380990771 -0.0145216631 0.00888777338 -0.000214142608 19 50 14 0.701059937 
-0.00433063088 -0.0401957966 0.0161625911 7.19708623e-06 21 51 15 0.86563158 
-0.0016602939 0.0119771985 -0.00393050257 1.31514389e-05 15 43 11 0.411083847 
-0.000256382511 -0.00758521585 0.0055675921 2.78202933e-05 28 71 19 0.625950515 
-0.00224634446 -0.0113991722 0.00364090363 6.01040665e-06 19 50 14 0.582364857 
-0.00138592965 0.0107523715 -0.0029853466 -8.97490827e-05 14 36 10 0.432465255 
-0.000170078507 -0.0139854494 0.00725991232 1.21139456e-05 22 57 15 0.66423434 
-0.00432692049 -0.00290985941 0.00206325063 2.07527773e-05 21 61 14 0.546675026 
0.000123019039 0.038619969 -0.0156727787 1.78016489e-06 16 41 11 0.145449057 
-0.00354194967 -0.0356886387 0.0180948358 1.34871807e-05 17 43 13 0.909342945 
-0.0032115737 -0.03010986 0.0103705442 1.75111927e-05 21 57 14 0.734603286 
0.00155996578 0.0224294662 -0.0118285567 1.99887436e-05 20 51 15 0.232413381 
0.00185462064 0.000616963429 -0.0030042876 0.00010288709 15 36 11 0.432036757 
-0.00038126015 -0.0166635513 0.00933245569 8.50175275e-06 22 60 16 0.711119592 
0.00289507769 -0.00362593425 -0.000288880081 2.05808901e-05 14 38 9 0.493464947 
-0.000310414005 0.0122279329 -0.00225057616 4.42766468e-05 8 22 6 0.449087292 
-0.00103737717 -0.0117218141 0.00792897586 2.84813577e-05 17 46 12 0.679369926 
-0.000592290482 0.0209667087 -0.00828261394 -4.01407597e-05 25 70 17 0.312629998 
0.00631006528 0.0443842001 -0.0188652296 1.20273326e-05 20 49 15 0.0732291788 
-0.00449584052 -0.00202897121 0.0048868903 4.64072218e-05 23 61 16 0.610551655 
0.00199054321 0.016299922 -0.00985165685 3.03030247e-05 15 36 11 0.277134985 
0.00217902986 0.0121029308 -0.00774136977 6.55518379e-05 18 45 13 0.324874073 
-0.0060410453 -0.0459364392 0.0207875166 1.68723054e-05 20 48 14 0.970256984 
0.00194065715 0.019361075 -0.0103653502 2.01857038e-05 23 62 16 0.265514165 
-0.0062946137 -0.0294602867 0.0154162422 2.65932176e-05 14 33 11 0.848747551 
-0.00396170747 -0.0307495613 0.016075559 -7.09269661e-05 27 74 19 0.86366266 
0.00146551046 0.0152606545 -0.00883525796 3.03657725e-05 20 51 14 0.300128043 
-0.000599979889 0.0412804671 -0.0178671386 8.47427873e-06 23 62 16 0.0958080888 
-0.00340162427 -0.0185319576 0.011664656 2.22207746e-06 12 32 9 0.763878822 
0.000336848199 0.00650604768 -0.00525552081 2.58532527e-05 21 50 15 0.381109178 
-0.00492195971 -0.0238829069 0.0136536751 -1.6601407e-06 11 28 8 0.808874547 
-0.00233750604 -0.00743883476 0.00633131387 2.41055241e-05 18 41 14 0.643227518 
-0.00584829319 -0.0369958505 0.0171520095 1.95790781e-05 11 24 8 0.888014257 
-0.00151507731 0.026356481 -0.00860214327 5.82914799e-06 20 49 14 0.305401564 
-0.00169186946 0.0238237642 -0.00625893613 7.61366682e-05 22 53 16 0.358409822 
-0.000997593743 -0.012440091 0.00811161567 2.15633772e-05 11 25 8 0.683501661 
-0.00124504138 0.0233113151 -0.00887229294 1.05953077e-05 24 63 17 0.29929024 
-0.00129467645 0.00955504924 -0.0038021002 2.24749674e-05 13 30 9 0.41398856 
-0.00155159901 -0.02209091 0.0116562881 2.26998236e-05 16 42 11 0.763689578 
0.000153123925 0.0197740328 -0.00932450406 2.71053868e-05 18 52 13 0.289060265 
-0.00448730728 -0.0398442261 0.0163218025 1.79008348e-05 11 24 9 0.869233251 
-0.00118972 0.0216655582 -0.00688930228 -7.50452746e-05 29 76 21 0.34414959 
0.000574699836 0.038656719 -0.0135006476 -0.000142410863 12 26 9 0.194587201 
-0.000612798089 0.0244517755 -0.0102708265 2.85385759e-05 24 61 18 0.267652482 
-0.00564651471 -0.0383870564 0.0186087675 5.96904574e-05 25 70 17 0.920969129 
-0.00354246539 -0.040781498 0.0155978547 9.42638144e-06 9 24 7 0.85285598 
-0.000778330374 0.034824498 -0.0137243671 8.82789027e-06 14 36 10 0.189526185 
-0.00194226485 0.0152931903 -0.00493781175 3.85334715e-06 15 38 10 0.388296425 
0.00274949265 0.016363902 -0.0100119784 4.24287355e-05 20 51 15 0.273508161 
0.00488541601 0.0372972451 -0.0174733736 3.93341179e-05 19 52 13 0.104715869 
-0.00231959624 -0.0275631603 0.0144501226 -1.11703994e-05 17 41 13 0.826891899 
-0.00149114523 0.00346981175 -0.00205702521 3.05129215e-05 16 38 11 0.453465819 
0.00269349897 -0.0047669597 0.0021686512 1.13401329e-05 13 33 9 0.549059391 
0.0016649107 0.0158607177 -0.00944436807 2.23859388e-05 23 57 17 0.286348701 
-0.00243792264 0.0174799468 -0.00508680986 2.9290095e-05 14 34 10 0.384925723 
-0.00345852412 -0.0434171595 0.019814318 -3.09379539e-05 16 39 12 0.948241234 
-0.00120585342 0.0181898847 -0.00795499515 1.29966065e-05 24 56 18 0.320041418 
-0.000363224477 0.0369692184 -0.0145247923 1.6764563e-05 19 49 13 0.17141892 
0.00089557725 0.0372240208 -0.0160442032 -1.12149573e-05 17 44 12 0.13704668 
-0.00649094721 -0.0349511355 0.0175206829 4.64281766e-05 16 43 11 0.896354377 
-0.00493908441 -0.0240169037 0.0140125072 1.10907131e-05 18 46 13 0.816992104 
-0.00583536224 -0.0460114628 0.0202456284 3.6114885e-05 21 61 14 0.957998335 
-0.00240652054 -0.0436950363 0.0180499572 -1.67676699e-05 26 66 19 0.908327639 
-0.00171516452 -0.0404745378 0.0152600426 9.46654473e-05 24 62 17 0.84521395 
0.000950847752 0.0301352553 -0.0136221871 1.44478981e-05 19 50 14 0.191837728 
-0.00100791315 -0.027666064 0.0125762839 -2.36930791e-05 23 57 16 0.784501731 
-0.00333460793 -0.027378412 0.00979912281 1.19524484e-05 22 61 15 0.721676648 
-0.00401542941 -0.0228683949 0.0129453111 0.000135985843 20 42 15 0.792849898 
0.000823801965 0.0333971456 -0.0156362038 1.03922794e-05 10 21 8 0.146276489 
-0.00425170269 -0.00976166036 0.00786398072 7.822318e-05 18 49 12 0.677899659 
0.000185090757 0.0231235642 -0.0108320108 7.82858115e-06 17 44 12 0.254957318 
-0.00402231934 -0.0396564268 0.0159697924 1.0298565e-05 21 57 14 0.86127001 
-0.000858067593 0.0272931363 -0.00804325752 8.69074429e-05 12 29 9 0.318044722 
-0.00268343161 -0.020976102 0.0124116093 2.08050478e-05 20 50 15 0.780776441 
-0.00135444128 0.0290170144 -0.00983872637 1.12286652e-05 17 41 12 0.277427495 
-0.00064504164 0.0430765003 -0.0184922665 1.35568553e-05 12 31 9 0.0816664025 
0.0013228528 -0.00283494871 0.00376368081 1.57144386e-05 22 61 16 0.585142314 
-0.00480818143 -0.0471770056 0.019766422 5.41465124e-05 6 16 4 0.947157681 
-0.00286057731 -0.0377477743 0.0173709728 -9.92463902e-06 19 50 14 0.892967641 
-0.00230314769 0.0189040657 -0.00626462512 7.92671926e-06 27 76 18 0.358281106 
-0.00667661522 -0.0332407542 0.017155081 1.29523687e-05 18 45 13 0.888083756 
0.000505325792 0.0338822752 -0.0155068096 1.57104805e-05 23 62 16 0.149203628 
0.000390915957 0.0328666456 -0.0145293996 9.90129774e-06 17 40 12 0.171314687 
