ply
format ascii 1.0
comment created by gply, a Houdini tool.
comment converted from .[b]geo
comment for more information about Houdini, try:
comment www.sidefx.com
element vertex 631
property float x
property float y
property float z
property float depth
property uchar red
property uchar green
property uchar blue
property float length
element face 0
property list uchar int vertex_indices
end_header
-0.0250081848 -0.0034961924 0.0132829063 0.0287781525 60 148 0 0.471828789 
-0.042863898 -0.425831527 0.177310109 0.0288673751 57 152 0 0.100764997 
0.00574183883 0.272904634 -0.0790138841 0.028884232 58 139 0 0.680623472 
-0.036266353 -0.401665837 0.160066172 0.0287655387 63 149 1 0.139774457 
0.00944155827 0.461591303 -0.150081292 0.0288396031 51 127 0 0.841392696 
0.00391771225 0.209047303 -0.0471719243 0.0288340505 56 122 23 0.608590245 
0.0386685543 0.182222381 -0.0736137107 0.0288160574 48 140 0 0.668407083 
0.0682850927 0.442705393 -0.194916785 0.0288471468 45 119 0 0.942819893 
-0.00495654764 -0.178348199 0.0503752194 0.0288279448 52 139 0 0.387918234 
0.0528036729 0.469069183 -0.191971242 0.0287571326 47 102 21 0.936156511 
0.0264265034 0.123276331 -0.0499952547 0.0288270656 49 136 0 0.614977181 
0.0447467789 0.229202434 -0.120191045 0.0286869463 52 114 22 0.773774743 
-0.0248569753 0.0503125973 0.0204808731 0.0288097225 67 137 37 0.455545515 
0.0300022922 -0.0247978773 0.00109737716 0.028774133 57 115 31 0.499394953 
0.00141584373 -0.208877534 0.0939865708 0.0288078729 51 144 0 0.289260298 
-0.00892125908 -0.0634219199 -0.00553704752 0.0288082417 58 133 2 0.514403462 
-0.0104686199 0.0292836335 0.0258167237 0.0287649855 56 124 20 0.44347474 
-0.0376126803 -0.0664378181 0.0348359905 0.0288541354 56 126 12 0.423071206 
-0.0276541524 -0.398623586 0.155025944 0.0288579296 49 119 0 0.151176527 
-0.00647267327 0.124432035 -0.0177470762 0.0286440868 61 158 0 0.542025089 
-0.0170461219 0.151828513 -0.0462797321 0.0288525149 57 123 24 0.606571913 
0.0331163257 0.152527526 -0.0840821862 0.0285498556 59 127 23 0.692088962 
-0.0383098125 -0.0999828503 0.0666048974 0.0288067628 59 152 0 0.351203412 
0.0531548969 0.454619408 -0.16192013 0.0288493205 57 162 0 0.868174613 
0.0303879101 0.476047546 -0.170721099 0.0288044047 58 144 0 0.888084233 
-0.0162252802 -0.11838866 0.0358189046 0.0288393721 56 127 11 0.420847684 
-0.0296006948 0.0438270867 0.0135363881 0.0285649337 54 136 0 0.471255451 
0.0168008264 0.294330686 -0.087297149 0.0288289152 53 125 0 0.699361861 
-0.0154413693 0.0517967604 0.0197598506 0.0287653077 58 131 20 0.457176715 
0.00507966522 0.295545846 -0.0830923691 0.0288134217 43 115 0 0.689849734 
0.0261009112 0.272591531 -0.138428137 0.0287064537 47 126 0 0.815030873 
0.0348905586 0.317026436 -0.125237063 0.0293456446 60 125 31 0.785189867 
-0.00625396846 -0.14990887 0.0421890579 0.0288425647 50 117 0 0.40643698 
-0.0434017889 -0.232563689 0.126065925 0.0289158802 56 133 0 0.216690034 
0.0305608884 0.265066057 -0.0999431685 0.0290124472 62 155 0 0.727969766 
0.0369234942 0.217689961 -0.0949324444 0.028852284 50 112 19 0.716634452 
-0.0317582525 -0.108523645 0.0531930812 0.0288246144 63 139 27 0.381543636 
-0.0301971678 0.0409780294 0.0195804052 0.0285529345 53 132 0 0.457582653 
-0.0380996913 -0.317402273 0.132595658 0.0289956797 57 136 0 0.201918498 
-0.0207208041 0.0561257042 0.0134959221 0.0285277534 56 138 0 0.471346915 
-0.0350496545 -0.163025215 0.0709943846 0.0288011227 51 121 0 0.341273457 
0.0413842984 0.361454934 -0.129298389 0.0288018156 64 160 0 0.794377446 
-0.0452899784 -0.356795877 0.151245072 0.028868394 63 170 0 0.159729555 
-0.00784046203 -0.190651357 0.0530233122 0.028772654 55 146 0 0.381927788 
0.0207147114 -0.0873281658 0.016291162 0.0287291557 63 140 24 0.465023488 
0.0202400703 0.270017475 -0.0900106058 0.0293859206 47 114 0 0.705500305 
0.0469245277 0.455848992 -0.155281141 0.028768681 57 134 0 0.853155851 
0.0147224227 -0.032075122 0.0442667715 0.0288429819 52 133 0 0.401736856 
-0.00689967722 0.158291265 -0.0634438843 0.0289914999 56 122 25 0.645400822 
0.0386653207 0.235345662 -0.0951946899 0.0288522374 46 110 0 0.717227697 
0.0231032576 0.11608953 -0.0463594757 0.0287953448 52 120 11 0.606752396 
0.0497429818 0.370017648 -0.161604628 0.0287141129 62 167 0 0.867460907 
-0.00695918314 0.244487882 -0.0946975425 0.028826233 46 112 0 0.716103077 
0.0220598523 0.471381575 -0.158577204 0.0288269725 53 132 0 0.860612214 
0.0111782979 -0.108775467 0.051999785 0.0288489051 60 177 0 0.38424322 
-0.0330030136 -0.328993022 0.132003844 0.0288518667 43 115 0 0.203257278 
-0.0270574335 -0.155032814 0.109158181 0.028816659 52 146 0 0.25493899 
-0.0539582223 -0.304031432 0.150653824 0.0288574677 50 120 0 0.161067173 
0.00753513398 -0.0128870858 0.0407281891 0.0288272966 61 157 0 0.409741819 
0.0538272038 0.344628096 -0.16725795 0.0286074821 59 139 0 0.880249918 
0.0204103701 0.368886352 -0.115312636 0.028835902 39 95 0 0.762738764 
0.0605825409 0.384174496 -0.165482551 0.0287782438 65 152 0 0.876233578 
0.00286877505 0.138499901 -0.023068998 0.0288432129 46 114 0 0.554064393 
-0.0571864098 -0.415280759 0.197523892 0.0288628843 44 111 0 0.0550372638 
-0.0116741955 -0.134933755 0.0363496691 0.0288475621 58 139 0 0.419646978 
-0.0193495285 0.0965073407 0.00520856213 0.0286272317 59 151 0 0.490094692 
-0.0316386148 -0.0108063361 0.0163731091 0.028792616 59 157 0 0.464838058 
0.0256565511 0.477070421 -0.17820859 0.0287187267 61 149 0 0.905022502 
-0.0129960338 -0.0689229742 0.00129366526 0.0288485344 53 136 0 0.498951048 
-0.0397303924 -0.154600635 0.084384501 0.0287800934 52 131 0 0.310982168 
0.0325446352 0.374020159 -0.128562301 0.0288139768 35 83 0 0.792712212 
-0.00760185812 0.285731196 -0.0960802361 0.028697921 59 141 0 0.719231069 
0.0295210201 0.181647897 -0.0583285429 0.0288150404 52 123 0 0.633828819 
0.0452494249 0.279711157 -0.139504284 0.0288336352 54 116 26 0.817465305 
0.0033656403 0.343460888 -0.105707608 0.0287235249 62 157 0 0.741010129 
0.00728409411 0.465294182 -0.158701837 0.0287720524 41 92 13 0.860894144 
0.0275293328 -0.0491150245 0.0305296779 0.0288610328 65 158 0 0.432813078 
0.0122948317 -0.101282477 0.0277090762 0.028720988 65 149 4 0.439193815 
0.0210022312 0.00389304594 -0.0227093194 0.0285962094 57 114 32 0.55325079 
0.0367006622 0.290905207 -0.104653336 0.0288208667 47 112 0 0.738625169 
-0.0342318006 -0.173037082 0.0686845332 0.0287957136 57 134 8 0.346498698 
-0.0398630425 -0.382753909 0.162628308 0.0292278379 51 129 0 0.133978397 
-0.0121171912 -0.0798308849 0.00971718878 0.0288580693 39 105 0 0.479895234 
0.0437273271 0.401932567 -0.141020343 0.0288202651 49 116 0 0.820894897 
0.0290414337 -0.0234094318 -0.00150752603 0.0287048388 56 131 0 0.505287886 
0.001036042 0.00714373775 0.0179161374 0.0295045748 54 135 0 0.46134755 
-0.0167811904 0.131428957 -0.0148334773 0.0286423359 67 169 0 0.535433948 
0.0711183548 0.42511639 -0.186707541 0.0288339127 55 140 0 0.924248874 
0.0419186465 0.303681195 -0.128382608 0.0286912806 62 160 0 0.792305708 
-0.0365575142 -0.0341698267 0.0164669678 0.0287746396 56 125 18 0.464625686 
0.00859685335 0.0909007788 -0.00373777212 0.0287468359 63 142 20 0.510333121 
0.0316996761 0.0813839361 -0.0475079305 0.0287983492 56 130 0 0.609350324 
-0.0140458904 -0.153591365 0.0525895283 0.028929092 46 114 0 0.382909 
-0.0353707336 -0.426216722 0.168353379 0.0288155489 55 129 0 0.121027105 
0.028089935 -0.036990162 0.0254007671 0.0288473777 55 137 0 0.444415599 
0.0297002923 0.249945402 -0.0852319747 0.0288718194 52 133 0 0.694689989 
-0.034540955 -0.132003337 0.093412295 0.0286540836 57 137 0 0.290559322 
-0.0289808884 -0.215925872 0.0815846995 0.0288153179 47 123 0 0.317315996 
0.0423635915 0.183307469 -0.0945501626 0.0287110209 58 142 0 0.715769768 
-0.0207337104 0.129478365 -0.0304588005 0.0288150404 54 132 0 0.570781648 
0.0212706625 0.352770865 -0.109773479 0.0287983492 63 186 0 0.750207961 
-0.0291037764 -0.238228425 0.13616845 0.0287348796 56 117 27 0.193836048 
0.0155845992 0.259298533 -0.0751403719 0.0288740899 62 160 0 0.671860754 
0.0308669172 0.225279406 -0.0843003392 0.0288148094 47 115 0 0.692582428 
0.00639557 -0.152329266 0.0405738018 0.0284499153 62 154 0 0.410091162 
-0.0127842873 -0.057631053 -0.00582269672 0.0288455263 56 128 6 0.515049756 
0.0123316823 0.18339093 -0.0404651724 0.0288032945 64 152 0 0.593418181 
-0.000193575659 -0.00981536042 -0.0090849828 0.0288800169 56 125 13 0.522429645 
0.00613935525 -0.0443888307 -0.0178904906 0.0288015381 54 138 0 0.542349458 
-0.0401982516 -0.122032046 0.072545521 0.0288800634 49 126 0 0.337764353 
0.018556824 0.126846582 -0.0388896652 0.0288587175 63 164 0 0.589854062 
0.0156644434 0.284980118 -0.137217805 0.0288601071 64 171 0 0.812292814 
-0.0231785979 -0.471973449 0.186856493 0.0285636 55 118 23 0.079169184 
0.0187139045 -0.0786886737 -0.00226094038 0.0286432113 57 132 0 0.506992221 
0.0320042595 0.184809566 -0.0624379665 0.0288595501 45 125 0 0.643125236 
-0.0215051807 -0.399160653 0.152880967 0.0286899433 54 121 18 0.156028837 
-0.0518347546 -0.45576039 0.196849927 0.0287166033 57 142 0 0.0565619469 
-0.00361810671 -0.201102719 0.0590681806 0.0286204629 64 163 0 0.368252963 
0.0341957025 0.2566517 -0.0978227332 0.0287496056 56 134 0 0.723172963 
0.0580302477 0.395987034 -0.154756337 0.0288497843 58 152 0 0.851968646 
-0.00381988054 -0.364500552 0.139298573 0.0287279096 55 145 0 0.186754987 
0.015128077 0.163756713 -0.0443413928 0.0290315915 57 131 15 0.602187037 
-0.0484904312 -0.375084728 0.167479485 0.0288712177 53 131 0 0.123004034 
-0.0104835546 -0.425112575 0.164758682 0.0288529769 67 177 0 0.129159033 
0.0100080622 0.202214807 -0.0459010489 0.0288291015 62 144 4 0.605715215 
-0.014594499 -0.246581987 0.0922794864 0.0296461154 60 160 0 0.293122023 
-0.00715877861 -0.208797157 0.0673476756 0.0294874758 44 106 0 0.349523067 
-0.00796257425 0.268509448 -0.0692058355 0.0285587721 59 128 25 0.658435583 
-0.00459764758 -0.0997747555 0.0675649419 0.0288674682 60 155 0 0.349031597 
-0.0206596367 -0.00241771876 0.00879349094 0.0287515465 60 130 19 0.481984884 
0.0441573523 0.239735976 -0.111307129 0.0287961755 62 160 0 0.753677428 
-0.00207631895 0.172217771 -0.0336135775 0.0290109608 49 138 0 0.57791841 
0.0342857689 0.349928021 -0.118058264 0.0288555231 54 136 0 0.768949926 
-0.0223476551 0.158278003 -0.0364752077 0.0286633912 52 134 0 0.584392071 
-0.0539663099 -0.258307785 0.148979515 0.0286400802 62 144 12 0.164854825 
-0.033312697 -0.332555234 0.132518664 0.0288734417 45 116 0 0.202092692 
0.0173074845 0.118169531 -0.0381905846 0.0288446005 56 138 0 0.588272631 
0.0199728571 0.375130087 -0.119307645 0.0288661253 50 124 0 0.771776319 
-0.000462543539 0.0477458239 -0.0278497785 0.029110441 57 134 0 0.564879596 
0.00503069535 0.217630386 -0.0575905144 0.0289427731 50 104 26 0.632159233 
-0.0312638246 -0.0717889667 0.0609280728 0.0286889747 49 112 9 0.364045471 
0.0199293625 0.0904805586 -0.0202883054 0.0288506169 58 151 0 0.547773957 
-0.0536050089 -0.453855544 0.198886827 0.0287205726 50 127 0 0.0519540422 
-0.00988936331 -0.0480113067 -0.0109397341 0.028868394 56 144 0 0.526625454 
-0.0201004725 -0.0472354442 -0.00323126977 0.0288503859 61 158 0 0.509187281 
0.0673133358 0.390081078 -0.17949675 0.0288510341 55 138 0 0.907936633 
0.00153162505 0.319056392 -0.0977983773 0.0286961216 63 161 0 0.723117828 
0.0292417444 0.313034832 -0.109981149 0.0288375206 49 126 0 0.750677824 
0.0468448102 0.277457833 -0.124699861 0.0288326629 44 114 0 0.783974648 
-0.0295842309 -0.157010913 0.1112644 0.0288139768 50 131 0 0.250174165 
0.0163031071 -0.028806055 0.0409636274 0.0287946966 55 147 0 0.409209132 
-0.0528435558 -0.293772072 0.129575923 0.0288272034 51 141 0 0.208749786 
0.0188042875 0.381952405 -0.125176862 0.0287484527 60 167 0 0.78505367 
0.0412000231 0.400774986 -0.139466271 0.0288326629 46 115 0 0.817379296 
-0.0260996986 -0.0223696735 0.00297203334 0.0288380757 58 141 0 0.495154232 
0.0151602849 0.00667911395 -0.0013257548 0.0288877524 46 119 0 0.504876614 
-0.0326181836 -0.154510319 0.0725477636 0.0289566424 68 136 38 0.337759346 
0.0073444508 0.298385412 -0.0839416832 0.0288207754 44 106 0 0.69177115 
0.0123619987 0.420950353 -0.130558297 0.0287753791 60 153 0 0.797227621 
-0.0311312191 -0.0432911478 0.00927778333 0.0288570039 50 124 0 0.480889201 
-0.00473873923 0.367600083 -0.114768855 0.0288198963 55 134 0 0.761508584 
-0.0448191948 -0.223092899 0.106482424 0.0287968703 61 154 0 0.26099208 
0.0101308972 -0.00785434991 0.0325926729 0.0288372431 63 174 0 0.428146005 
-0.0536639988 -0.331205338 0.155101627 0.028826233 51 133 0 0.151005268 
0.00997542869 0.224358916 -0.0651829317 0.0291083921 46 131 0 0.649334908 
0.00215640129 0.0467327684 0.00985984132 0.028831413 53 134 0 0.479572564 
0.0346240886 0.210278779 -0.0975287706 0.0290342402 60 152 0 0.722507894 
0.0253812019 0.208219722 -0.070146136 0.0288652908 65 150 9 0.660562694 
-0.00837413222 0.19216454 -0.0345471278 0.028771406 61 157 0 0.580030262 
0.0259905774 0.154890597 -0.0586823672 0.0289757159 60 150 0 0.634629309 
0.0260932352 0.39671883 -0.133969739 0.0288207754 52 136 0 0.804945052 
-0.0363212563 -0.224435493 0.0926332474 0.0288284533 51 129 0 0.292321861 
0.0280179735 0.258692384 -0.0892459378 0.0288012605 57 149 0 0.703770459 
-0.0359835774 -0.470430642 0.188697934 0.028746374 59 150 0 0.0750034153 
-0.00119968469 -0.150209755 0.0782312527 0.0292980168 50 125 0 0.324902177 
0.0401396751 0.174979344 -0.0758681446 0.0288568661 56 154 0 0.673507094 
0.0086969668 0.136626795 -0.071082592 0.0288077798 57 126 23 0.662681103 
-0.00319067482 0.2217976 -0.0836571231 0.0290264338 56 131 0 0.6911273 
-0.0320035256 -0.278022885 0.103513919 0.0289135147 57 147 0 0.267707497 
-0.0413931422 -0.186237276 0.0836640894 0.0287448969 58 134 13 0.312611848 
0.00691010337 0.0234833229 0.0134593006 0.028807411 54 147 0 0.471429676 
-0.0129058454 0.0234046243 0.0261807051 0.0287114829 51 112 18 0.442651242 
0.00208028103 -0.233070791 0.0946279243 0.0287909061 56 137 0 0.287809432 
-0.021382859 -0.402148098 0.152160808 0.0287578721 64 153 0 0.15765813 
0.00630958192 0.384918422 -0.129806474 0.0288225785 48 118 0 0.795526803 
-0.0202954933 -0.17780143 0.0565570295 0.0288589485 59 149 0 0.373933822 
-0.0530967787 -0.428833187 0.200248063 0.0290393997 57 136 0 0.0488746278 
-0.0538026094 -0.301463395 0.137819707 0.0287280008 52 122 5 0.190100685 
-0.014596859 0.172248393 -0.034922149 0.0288237352 48 113 0 0.580878675 
0.0238882005 0.332029462 -0.111812115 0.0288146697 55 144 0 0.75481987 
-0.0207262225 0.0806522146 -0.0269065313 0.0288010295 40 114 0 0.56274569 
-0.0340452492 -0.135551885 0.065430887 0.0288092587 64 131 32 0.353859276 
-0.0156483371 0.243648306 -0.0757927075 0.0287432801 54 160 0 0.673336446 
0.0247745868 0.0369706303 -0.0322830416 0.0287137423 61 158 0 0.574908495 
0.0558800511 0.347798258 -0.158144876 0.0288008917 52 94 36 0.859634221 
0.00672498299 -0.225133881 0.0836502835 0.0288030636 62 138 24 0.312643021 
0.0125841871 0.100492775 -0.0495305583 0.0293446146 54 123 15 0.613925993 
-0.0223668423 -0.197140604 0.11967954 0.028791368 59 131 22 0.231137365 
-0.0271135718 -0.240882769 0.137885973 0.0287455898 48 113 0 0.189950734 
0.0333726369 0.15814805 -0.0682715252 0.0288007986 45 106 0 0.656321943 
-0.00209144666 -0.339318126 0.13493064 0.0287514534 55 132 0 0.19663626 
0.0303363204 0.077445969 -0.032774549 0.0288670044 52 143 0 0.57602036 
-0.0295489114 -0.283549905 0.103539035 0.0290530231 66 141 32 0.267650664 
0.0169575699 -0.0723599419 -0.00823898055 0.0288398806 52 117 15 0.520515859 
0.0400342643 0.355275542 -0.124928877 0.0288815461 53 140 0 0.784492671 
-0.0419004485 -0.192424342 0.0920501277 0.0288929399 49 115 0 0.293640822 
0.0547842532 0.334801614 -0.155530423 0.0287797228 50 112 21 0.853719771 
0.0143440831 0.278926522 -0.0873403102 0.028877655 33 85 0 0.699459493 
0.0278203115 0.145102158 -0.0790450647 0.028702626 39 104 0 0.680693984 
0.013762123 0.063025631 -0.0535441041 0.0287011489 61 163 0 0.62300545 
0.0575802736 0.456703633 -0.207907632 0.0287737623 59 143 0 0.972207963 
-0.0388016514 -0.334260434 0.138305947 0.0288282223 58 138 0 0.189000726 
-0.0564909391 -0.406238973 0.187638298 0.028783327 49 143 0 0.0774004683 
-0.0326400287 -0.110356614 0.0917956159 0.0288066249 48 128 0 0.294216603 
-0.00907963049 0.186499387 -0.0779116377 0.0288125891 58 150 0 0.678129911 
0.000547711446 0.421062469 -0.135818511 0.0287568104 48 127 0 0.809127271 
0.011761941 0.0967192799 -0.0120172463 0.0287896581 52 120 12 0.529063106 
-0.0325965397 -0.077629447 0.0390220881 0.0288338196 63 153 0 0.413601398 
-0.0277790986 -0.158608481 0.0654953048 0.0289170854 54 126 0 0.353713363 
-0.0167340785 -0.129555613 0.0905669555 0.0287753791 63 144 0 0.296996176 
0.020710215 -0.0174161531 -0.0104241818 0.0286663864 50 123 0 0.52545923 
0.0379067138 0.475071937 -0.193290636 0.0287659559 68 137 38 0.939141273 
-0.0232864693 -0.201053277 0.0706795529 0.0288232733 61 165 0 0.341985673 
0.0288022701 0.0573686995 -0.0479404218 0.0284802802 53 126 0 0.610328674 
0.0333483107 0.213579252 -0.0920793936 0.0291735288 56 146 0 0.710180283 
0.0402617827 0.184597731 -0.0786166266 0.0287658628 56 153 0 0.679724634 
-0.0249726549 0.0227118265 0.0075955186 0.0288671441 59 159 0 0.484694809 
-0.0151538393 -0.175076678 0.0535311066 0.0288579296 56 133 0 0.380779058 
0.00670536654 -0.140726984 0.0674273595 0.0288535785 50 109 21 0.349342823 
0.0127671948 0.244700685 -0.116451949 0.028851727 60 153 0 0.765316069 
0.0128366677 0.133144692 -0.0320292674 0.028825216 60 149 0 0.574334443 
-0.0035716088 -0.287040353 0.101745524 0.0289359558 44 122 0 0.271708041 
0.0364151783 0.388741583 -0.139480695 0.0290238764 49 124 0 0.8174119 
0.0150111262 0.122389607 -0.0347173288 0.0288646892 62 145 0 0.580415308 
0.0123529295 -0.173264489 0.0615922809 0.0287074223 55 138 0 0.362542927 
-0.00351713574 -0.125230342 0.0801605582 0.0288532563 46 94 25 0.320537537 
0.0698633194 0.411467403 -0.199616492 0.0288155489 54 142 0 0.953451633 
-0.0514296405 -0.386018485 0.180087969 0.0288118031 67 145 33 0.0944809914 
0.00760024833 0.115875542 -0.0282980688 0.0289926156 64 151 0 0.56589359 
-0.0211509373 -0.0794296116 0.018115161 0.0287952516 59 127 25 0.460897207 
-0.0160087105 -0.094217509 0.0742977411 0.0287607368 60 146 0 0.333800495 
0.0281967707 0.0154628558 -0.0199599862 0.0288503859 66 146 22 0.547031164 
-0.0237511173 -0.198423713 0.0684538856 0.0288317837 64 139 27 0.347020537 
-0.0323471352 -0.450557768 0.175740704 0.0288332645 57 139 0 0.104315445 
-0.00599932857 0.119312473 -0.0470077954 0.028855199 59 151 0 0.608219028 
0.0310116503 0.147589132 -0.075598985 0.0287255086 51 114 17 0.672898173 
-0.00195044908 0.249653831 -0.0598168261 0.0287592579 58 151 0 0.637195706 
0.0111229047 -0.00334211509 0.0240428373 0.0287652165 47 118 0 0.447487533 
0.00133184611 0.00203924743 0.0285549257 0.028771637 55 130 0 0.437280208 
0.000871068332 0.276319176 -0.0821517482 0.0291276723 59 126 28 0.687721848 
0.0280934442 -0.0385972671 -0.0140222646 0.0288279448 59 129 25 0.53359884 
-0.0254730489 0.0360103548 0.00101048814 0.0287916008 51 129 0 0.499591619 
0.0236419328 -0.0467129834 0.0363012031 0.0288183242 56 138 0 0.419756562 
-0.0220299736 -0.188814029 0.11500939 0.0289158802 54 140 0 0.241702244 
-0.0337786898 -0.0754394755 0.052099485 0.028793864 51 131 0 0.384017676 
-0.0246008914 -0.251913816 0.0975562185 0.0290251784 60 145 0 0.281185091 
-0.042430602 -0.313022882 0.132216826 0.0288730711 53 135 0 0.202775553 
0.055356022 0.44798559 -0.160688594 0.0288413148 48 125 0 0.865388632 
-0.00019886595 0.0999514312 -0.00190130423 0.0288563576 66 164 0 0.506178617 
-0.00589516154 0.308264464 -0.108800784 0.0287308637 45 111 0 0.748007596 
-0.00980692729 -0.0896400884 0.0185054187 0.0287991799 55 132 0 0.460014492 
-0.0117222276 0.192577943 -0.0351997241 0.0286402181 54 120 19 0.58150667 
0.0328454375 0.380617559 -0.135504946 0.0290883295 52 116 20 0.808417976 
-0.0109720584 0.239725277 -0.0859796703 0.0288450643 60 134 22 0.696381509 
-0.0155397803 -0.285015911 0.0976767242 0.0288951173 34 97 0 0.280912399 
0.0277648829 0.427115679 -0.133187503 0.0288328025 63 147 0 0.803175449 
0.0202641618 0.193079934 -0.0511716567 0.0288442764 54 135 0 0.617638469 
-0.0361290835 -0.0104268426 0.0256232377 0.0287548713 53 137 0 0.443912417 
0.0330498666 -0.0334832668 0.00478859758 0.0288520064 47 106 17 0.49104467 
0.0278767813 0.472194374 -0.160165042 0.0288372431 48 108 15 0.864204228 
0.0548411645 0.350968868 -0.163938284 0.0287024863 61 147 0 0.872740149 
0.0379476547 0.213453457 -0.100343347 0.0286577232 59 143 0 0.728875101 
0.00710829487 -0.16666919 0.0582369976 0.0288012605 63 132 30 0.37013337 
0.0280734226 0.154701695 -0.0618779287 0.0290134698 62 144 11 0.64185828 
-0.00326033891 0.119367331 -0.0204505194 0.0287076999 52 135 0 0.548140824 
0.0536189862 0.464202136 -0.203743875 0.0286449157 61 145 0 0.962788641 
-0.0177272726 0.173783764 -0.0583677329 0.0288105998 66 163 0 0.633917451 
0.0104956655 0.140597016 -0.0306010786 0.0288070869 57 124 23 0.571103513 
0.0112353629 0.3170937 -0.0958934277 0.0287441574 54 162 0 0.718808472 
0.0159043483 0.244106874 -0.0682801157 0.0286449157 47 105 17 0.656341374 
0.0504202619 0.330162525 -0.165520534 0.0287230629 55 120 27 0.876319468 
-0.0171590876 0.190767914 -0.03761141 0.028772885 49 97 27 0.586962342 
0.0341650061 0.121963598 -0.0677006766 0.0288235955 54 121 17 0.655030608 
0.0435555205 0.409471393 -0.140927643 0.0288246144 54 121 19 0.820685208 
-0.0156324264 0.105030678 -0.0228727218 0.0288496446 53 126 0 0.553620338 
0.0457108133 0.360105842 -0.134427682 0.028787395 63 158 0 0.80598098 
0.00789164845 0.46248585 -0.152870402 0.0288313217 39 98 0 0.847702265 
-0.0356845707 -0.0285910349 0.0150872385 0.0288537182 48 115 0 0.467747092 
-0.0268103629 0.000539095781 0.0348640159 0.0287927557 64 167 0 0.423007965 
0.034635555 0.189951047 -0.10336481 0.0287146196 56 134 0 0.735710263 
-0.00429562293 -0.22179389 0.0686480328 0.0286745448 60 152 0 0.34658125 
0.0410664342 0.245481998 -0.122643702 0.0288173985 44 114 0 0.779323101 
0.023373777 0.0610956401 -0.0215849616 0.0287304018 57 132 15 0.550707221 
-0.0115987165 0.107538581 -0.00753164152 0.028792616 43 112 0 0.518915594 
0.000779951806 0.311863035 -0.088926658 0.0286492929 61 145 4 0.70304817 
-0.0356176384 -0.212588236 0.087823227 0.0288485344 49 120 0 0.303202957 
-0.0202382505 0.159686252 -0.0398571566 0.0286403093 47 113 0 0.592042744 
0.00394830015 -0.133653268 0.0270357393 0.0287646167 48 100 24 0.440717071 
-0.00834289286 -0.0379611477 -0.0131040523 0.0288089365 62 157 0 0.531521678 
0.00875834469 -0.0858066753 0.0450387746 0.0289480146 61 146 0 0.39999038 
0.014623615 -0.0394926146 -0.0192820858 0.028782079 51 140 0 0.545497596 
-0.047392454 -0.277354479 0.121191546 0.0288541354 62 149 0 0.227717057 
0.0158263128 -0.0846234709 0.0377226062 0.0288325697 51 124 0 0.416541189 
-0.0149047431 0.141334295 -0.047594808 0.0288810357 58 132 14 0.6095469 
0.0379423387 0.379722983 -0.14025639 0.0291471928 50 140 0 0.81916672 
0.0204107966 0.0970852152 -0.0393471569 0.0288431197 62 129 30 0.590889037 
0.0324356258 0.0787859112 -0.0496246368 0.0286094621 62 143 0 0.614138782 
0.00936658122 -0.0603991263 0.0539329201 0.0288568661 53 126 0 0.379869908 
0.043297939 0.269020647 -0.125951394 0.0286635291 60 163 0 0.786805868 
0.0269131958 0.439567506 -0.135451093 0.028827481 56 151 0 0.808296144 
0.0294061527 -0.0563499369 -0.0115137622 0.0286712255 41 99 0 0.527924001 
0.0300225504 0.0577425808 -0.0445580408 0.0288160574 62 132 27 0.602677107 
-0.0185432043 -0.321632355 0.15167354 0.0288801566 49 103 23 0.158760324 
0.0126158111 0.16319862 -0.0421146415 0.029095171 54 133 0 0.597149611 
0.0116600012 -0.169483811 0.0732853785 0.0287412032 56 155 0 0.336090714 
-0.0518824048 -0.268667072 0.156594023 0.028721448 40 93 0 0.147629142 
-0.0203733053 0.10502845 -0.00965949707 0.0288019087 51 126 0 0.523729324 
-0.0596366599 -0.341610253 0.185967281 0.0287681725 51 120 0 0.0811806843 
0.033404313 0.0658094063 -0.0499864258 0.0288037583 52 134 0 0.614957273 
0.0342920534 0.15314737 -0.0781323463 0.0287204329 57 118 31 0.67862922 
-0.0393278375 -0.189441383 0.0820662752 0.0288297944 54 133 0 0.316226453 
-0.0232748184 -0.418228239 0.154887289 0.0288347453 57 151 0 0.151490211 
0.0312251076 0.144609466 -0.0731813163 0.0289807301 50 124 0 0.667428911 
0.00299096503 -0.200385034 0.0597930662 0.0287410654 63 148 0 0.36661315 
0.0224761777 0.178633332 -0.0496339798 0.0288233645 68 162 0 0.614159882 
-0.0325865634 -0.175972313 0.0671095178 0.0287691895 62 141 20 0.350061804 
0.0190374833 0.0952824503 -0.0245485306 0.028810462 58 158 0 0.557411432 
0.00647155009 -0.227795422 0.0822478607 0.0287426803 64 168 0 0.315815777 
-0.0212497935 0.0981160998 0.00318075554 0.0285193473 57 154 0 0.494681954 
0.0123673221 0.169453233 -0.0410288684 0.0288878456 53 136 0 0.594693422 
0.0139051164 -0.0185037218 0.0377392508 0.0288384929 58 156 0 0.4165034 
0.0590390898 0.438644499 -0.162098765 0.0288494136 67 170 0 0.868578732 
0.0424631685 0.23405616 -0.124451846 0.0286024213 43 103 0 0.783413529 
0.00470638648 0.251812667 -0.0627223924 0.0287779663 53 131 0 0.643768609 
0.0309278443 0.149835557 -0.0697639436 0.0289799403 65 151 12 0.659698129 
0.0312122237 0.193201676 -0.0652123466 0.0288025085 62 136 24 0.649401426 
0.0546668135 0.334883898 -0.159047991 0.0287694205 49 131 0 0.861677229 
0.015316247 0.0988893732 -0.0482604019 0.0297477022 56 127 15 0.611052692 
0.0104294708 -0.0527405627 0.053076338 0.0288647823 55 143 0 0.381807715 
0.0334991664 0.161049068 -0.0665760413 0.028759351 53 130 0 0.652486384 
0.0347704366 0.462117136 -0.150633469 0.0288401116 59 133 11 0.84264183 
-0.00738252187 -0.193678111 0.103169829 0.029203428 50 141 0 0.268485755 
-0.0597089007 -0.394804537 0.198444501 0.0285586342 59 151 0 0.0529547036 
-0.00984458905 -0.0547033586 0.0659171343 0.0288344212 51 129 0 0.352759272 
0.0605934747 0.417013168 -0.158275887 0.0288657546 65 141 29 0.859930634 
0.0167670082 0.0876847655 -0.0126874764 0.0288222544 62 154 0 0.530579209 
-0.0163757596 -0.166716054 0.05547956 0.0288093518 53 141 0 0.376371145 
0.0374527574 0.284498066 -0.104678266 0.0288096294 59 132 23 0.738681614 
0.0269825999 0.0732819736 -0.024496695 0.0287731159 58 147 0 0.557294071 
0.0266721547 0.305046797 -0.09889061 0.0288331714 64 168 0 0.725588679 
0.0406924225 0.168135151 -0.0793164074 0.0288096294 53 112 26 0.681307733 
0.0427059345 0.173944935 -0.0860632136 0.0287821721 53 149 0 0.696570456 
0.0261471719 0.0198190752 -0.0136007741 0.0288481638 57 138 0 0.532645345 
0.0329486057 0.201342583 -0.0985290185 0.0291193351 58 144 0 0.724770725 
0.0298774075 0.178446755 -0.0584201254 0.028830396 58 138 0 0.634036064 
0.060090825 0.381111354 -0.170291826 0.0287469737 61 129 28 0.887113154 
-0.0193605907 -0.000354103802 0.0419679508 0.0287611522 65 172 0 0.406937242 
0.0334383249 0.377936363 -0.133383304 0.0288672354 48 113 0 0.803618371 
0.0289771426 0.375820518 -0.126700357 0.0287363101 50 116 11 0.78850013 
-0.0507834442 -0.276073277 0.126569986 0.0289832819 68 171 0 0.215549752 
0.000638547877 -0.077197738 -0.0014615244 0.0288084727 51 130 0 0.505183816 
0.00501489826 -0.123064689 0.0695439726 0.0288204048 52 106 28 0.344554514 
-0.00119469501 -0.0268438142 -0.015559053 0.0288135596 59 136 0 0.537075341 
-0.0410238393 -0.3465271 0.145086139 0.0289580356 52 114 16 0.173662469 
-0.00285567832 -0.0615978837 -0.0100076878 0.0288177691 57 120 26 0.524517059 
0.0131331477 0.314478904 -0.133105293 0.0290243421 48 116 0 0.802989423 
0.00287902937 -0.0112285959 -0.0105102146 0.0288755707 59 146 0 0.525653839 
-0.0496021844 -0.377505064 0.185321778 0.0285810735 50 128 0 0.0826409683 
0.00865302328 -0.170239553 0.08275868 0.0288425647 55 139 0 0.314660162 
0.026388159 0.283903807 -0.0935706198 0.0287174806 60 159 0 0.713553727 
0.0529445894 0.356105804 -0.147588849 0.0287872553 61 126 31 0.835754275 
0.0430503562 0.413514853 -0.140671834 0.0288345143 49 103 26 0.820106506 
0.00354648125 0.236738563 -0.0606810264 0.0287708063 48 115 0 0.639150679 
-0.0222789794 -0.0646200255 0.00724311639 0.0288545974 56 133 0 0.48549211 
-0.00671089394 0.258191764 -0.0950213969 0.0288514048 60 143 0 0.716835797 
-0.0614910088 -0.348955035 0.17969282 0.0287866555 59 148 0 0.0953748375 
0.0277402177 0.14006409 -0.0553429164 0.0288635325 66 158 0 0.627074718 
-0.0249037743 -0.142016977 0.0550987348 0.0288730711 54 131 0 0.377232671 
0.0407042243 0.351397395 -0.124314368 0.0288293324 53 144 0 0.783102512 
-0.00314986706 -0.270064622 0.09332674 0.028673945 49 114 0 0.290753007 
0.05552499 0.422497034 -0.152933374 0.0288717281 53 144 0 0.84784472 
-0.0147391893 -0.0787977129 0.0110786082 0.0288491361 39 116 0 0.476815462 
-0.0114075523 0.183150247 -0.0337143354 0.0285704043 59 154 0 0.578146398 
-0.0143971434 0.209638342 -0.0648499727 0.0287793074 58 136 0 0.648581624 
-0.00278030219 0.14181295 -0.0192305241 0.0288108774 52 131 0 0.54538095 
-0.0293711945 -0.0820860863 0.0425421074 0.0288527459 57 133 0 0.405638456 
0.0162410978 0.113100566 -0.0384765193 0.0288441833 49 118 0 0.588919461 
-0.0101205464 -0.37459448 0.133665189 0.0286311451 60 153 0 0.199498937 
-0.0186485406 -0.373301476 0.134073243 0.0286586918 55 121 24 0.198575959 
0.0127633521 0.389790893 -0.134156287 0.0295142531 48 132 0 0.805366993 
0.0224302374 0.453550011 -0.140193328 0.0288162883 59 130 24 0.819024026 
0.0295651276 0.133269265 -0.0562891588 0.0288309511 65 141 28 0.62921536 
0.00328824297 0.408421993 -0.182879984 0.0288753398 57 135 0 0.915590167 
0.0261143353 0.126604706 -0.0493861437 0.0288031567 48 140 0 0.6135993 
0.0108971782 -0.0868043527 0.00567922276 0.0286753289 39 95 0 0.489029914 
0.0226290654 0.0729286745 -0.0174662303 0.0288663097 68 166 0 0.541389823 
-0.00740369176 -0.0918733627 0.0198878217 0.0288160574 58 136 0 0.456887186 
0.0187085755 0.329244912 -0.158347443 0.0287672952 59 125 28 0.860092461 
0.00913139526 -0.119103253 0.0614962392 0.0288645513 50 141 0 0.362760186 
0.0332780704 -0.0686536729 0.00900531746 0.0287551936 50 132 0 0.481505573 
0.0179304425 0.0994527042 -0.0352254845 0.0289400369 56 135 0 0.581564963 
0.0184360258 0.346760839 -0.107493028 0.0287879016 63 160 0 0.745049179 
0.0532598719 0.389787704 -0.151172519 0.0288471468 55 128 13 0.843861282 
-0.0335244834 -0.0335027948 0.0112497928 0.0288239662 57 153 0 0.476428151 
-0.0161198229 -0.318804413 0.115173891 0.02867602 47 113 0 0.241330147 
-0.0238004737 -0.331624687 0.125156924 0.0288376138 61 134 26 0.218746543 
0.0174650848 -0.0512276329 0.0455196574 0.0288614482 59 130 23 0.398902655 
0.0037922631 -0.00129569054 0.0316954926 0.0287226941 61 143 0 0.430175722 
0.0141134346 -0.082288295 0.0005975737 0.0287076999 44 96 15 0.500525713 
0.00494398596 0.213202864 -0.0517274849 0.0287968703 64 176 0 0.618895888 
-0.0518051498 -0.359139502 0.160177976 0.0287704356 55 129 0 0.139521509 
0.0425257012 0.23872532 -0.104724579 0.028771406 51 121 0 0.73878634 
0.0703776181 0.424228609 -0.181360453 0.0288248453 66 155 15 0.912152708 
0.0144424643 0.213131711 -0.102051884 0.0288357623 58 128 22 0.732740164 
0.0414941013 0.323164701 -0.130733415 0.0288089365 51 128 0 0.797623813 
0.0514016449 0.437043071 -0.151178703 0.0288383532 56 136 0 0.843875229 
-0.0339078531 -0.155006334 0.109175518 0.0287027173 61 129 30 0.254899681 
0.0717804506 0.418540239 -0.193820819 0.0287263859 39 103 0 0.940340638 
0.0259193815 0.38177073 -0.130264848 0.0288817771 59 128 28 0.796563745 
0.00713717937 0.0205579922 0.0131899733 0.0288289152 47 119 0 0.472038954 
0.0624721237 0.413664609 -0.160268053 0.0288627911 60 150 0 0.864437282 
-0.0380100422 -0.200964272 0.12867853 0.0286625624 61 147 0 0.210779771 
-0.00822734553 0.227895886 -0.0813559517 0.0287619829 54 117 22 0.685921669 
0.0176551491 -0.013597887 0.0271768421 0.0288357623 54 127 0 0.440397918 
0.0123437354 -0.193012059 0.0692691579 0.028797701 56 123 26 0.34517622 
0.0463635661 0.400582939 -0.142920554 0.0288589485 55 125 15 0.825193644 
-0.0343412831 -0.173863292 0.117934726 0.028636165 45 117 0 0.235084444 
-0.0379649997 -0.0269683097 0.0598869137 0.0288401116 48 121 0 0.366400838 
-0.0239506178 -0.394104987 0.183975622 0.0287850369 57 119 31 0.0856863186 
-0.0355811901 -0.360409945 0.142158017 0.0288429819 52 122 10 0.180286407 
-0.0270060301 0.0851351917 -0.0135637801 0.0288481638 53 126 0 0.5325616 
-0.00510820234 0.0345671885 -0.0248764995 0.0288599208 58 138 0 0.558153331 
-0.0279753543 -0.306389362 0.107568771 0.0288038962 52 117 15 0.25853458 
0.0270040389 0.0122999009 -0.018334832 0.0288013071 60 150 0 0.54335469 
0.00836246088 -0.147531107 0.0350718722 0.0285037346 51 125 0 0.422537565 
-0.0593000092 -0.289970607 0.144635648 0.0288537648 63 159 0 0.1746815 
0.0358908251 0.250631064 -0.124179788 0.0284213573 61 147 0 0.782798111 
0.0183713306 0.418028921 -0.130537152 0.0288235042 59 142 0 0.797179818 
0.0108953714 -0.0431129858 0.05130044 0.0288472846 49 107 20 0.385825276 
0.0148688238 0.324152559 -0.14923577 0.0288221166 55 139 0 0.839479923 
0.024433041 0.124778181 -0.0468740501 0.0288295634 46 128 0 0.607916415 
0.00461948477 0.278051853 -0.121589258 0.0287985802 68 151 27 0.776937723 
0.0447967052 0.297923863 -0.126554564 0.0288019087 49 117 0 0.788170338 
0.0466430597 0.451243848 -0.152088538 0.0288653839 64 141 23 0.845933497 
-0.0243616905 0.0188172385 0.012803738 0.028708946 60 151 0 0.472912669 
-0.0361879356 -0.111326203 0.0609177873 0.0288235042 55 139 0 0.364068717 
-0.00777572859 -0.117767788 0.0287714358 0.0288373828 57 136 0 0.436790466 
-0.0184799153 0.150287583 -0.014867926 0.0286574475 43 114 0 0.535511911 
-0.0575647727 -0.281778127 0.160169363 0.0287124049 68 157 0 0.13954097 
-0.0579188243 -0.295632154 0.144764155 0.0288347453 65 172 0 0.174390823 
-0.0199906379 -0.262270123 0.0930781141 0.0288365036 56 161 0 0.291315347 
0.0348483734 0.202634424 -0.0870977417 0.0288334955 56 134 0 0.698910773 
-0.00158455945 0.379009634 -0.12963064 0.0286071151 65 162 0 0.795129061 
-0.0171034373 0.125800341 -0.0345492214 0.0288458038 53 130 0 0.580035031 
0.00774298608 -0.0813577026 -7.37984519e-05 0.0288334955 67 179 0 0.502044499 
0.010168232 0.125853091 -0.0290745199 0.0288375206 60 140 0 0.567650139 
0.0684245676 0.398156196 -0.193395317 0.0287859607 54 149 0 0.939378083 
-0.020491967 -0.37493214 0.135772258 0.0286355205 45 105 14 0.194732323 
0.0219264422 0.0951992273 -0.0341303721 0.028662147 46 116 0 0.579087496 
0.0405526683 0.367107451 -0.131971836 0.028822856 61 135 21 0.800425351 
0.0180804096 0.231122479 -0.0700144693 0.0288018156 59 142 0 0.660264909 
0.0187198874 -0.0179729033 0.0297897216 0.0288446937 51 128 0 0.434487075 
0.0689234734 0.416418314 -0.203243226 0.0287517756 55 137 0 0.961656094 
0.0265148114 0.456365973 -0.142739251 0.0287526995 59 156 0 0.824783444 
-0.014520538 -0.406073898 0.151483834 0.0283273868 50 139 0 0.159189448 
0.0248368401 -0.029259773 0.0276127476 0.0288539957 39 107 0 0.439411849 
0.0181330107 -0.140412897 0.0416854732 0.0287811551 62 161 0 0.407576412 
0.0371299647 0.197979271 -0.0838618651 0.0287503451 47 121 0 0.691590548 
-0.0505958498 -0.372395605 0.168121934 0.0288231336 50 132 0 0.121550567 
0.0375072435 0.174521163 -0.0700266585 0.0288581625 56 146 0 0.660292447 
0.051391881 0.463696957 -0.206639022 0.0287302174 55 135 0 0.969338059 
0.0686476305 0.393199384 -0.181769624 0.0287907682 61 127 31 0.913078308 
0.00217222399 -0.0447542481 -0.0167191885 0.0288562179 58 143 0 0.539699793 
0.0267288517 0.116369464 -0.0515659675 0.0287898891 57 137 0 0.618530512 
-0.0169767756 -0.0842117295 0.0186101608 0.0287868865 44 100 5 0.459777564 
-0.0228387844 -0.0840613618 0.0263713617 0.0287909992 51 127 0 0.442219943 
0.0219992902 0.0544240363 -0.047570236 0.0287148971 57 155 0 0.609491348 
0.068046242 0.409451753 -0.202586591 0.0287743639 58 128 19 0.960170627 
-0.0407531783 -0.28882429 0.11344742 0.0288460348 55 124 15 0.245235845 
0.0423597135 0.184945479 -0.091212526 0.0288483948 48 114 0 0.70821923 
-0.052070301 -0.307005316 0.158113927 0.0290997792 59 148 0 0.144190863 
-0.0179414805 -0.0747449249 0.0104866214 0.028846452 49 131 0 0.47815451 
0.00344790309 0.266824722 -0.0700190291 0.0287907682 60 143 0 0.660275161 
-0.0100044133 0.254139155 -0.0606611893 0.0288583003 66 169 0 0.639105737 
-0.0233876463 0.0749111623 -0.019359421 0.0288191568 54 126 6 0.545672536 
-0.0592446998 -0.278426588 0.144553557 0.0286899433 53 118 22 0.174867168 
0.0244899765 0.246541351 -0.0777236894 0.0288491361 64 151 0 0.677704692 
-0.0186951086 0.039083764 0.0273422636 0.0286677685 59 150 0 0.440023631 
0.0207595713 0.157938749 -0.0510718822 0.028978223 55 128 9 0.617412746 
-0.0142756123 -0.184713542 0.110520601 0.0288615879 41 90 18 0.251856774 
-0.0175569151 -0.0665406957 0.00362891378 0.0288263708 48 123 0 0.493668169 
-0.0250310544 -0.0823153853 0.0274334643 0.0288794152 53 136 0 0.439817309 
-0.0201054141 -0.0964208469 0.0397317708 0.0289296489 52 125 0 0.411995977 
-0.034930978 -0.450527817 0.177432865 0.0288321543 52 142 0 0.100487389 
0.0255154222 0.0631753206 -0.0558939427 0.0285068117 59 144 0 0.62832123 
0.0489970185 0.468655497 -0.172919199 0.0287540387 59 141 0 0.89305681 
0.0162521526 -0.108333796 0.0394249223 0.0287374184 50 134 0 0.412690133 
-0.0423717462 -0.026125513 0.0294705015 0.028773671 39 82 20 0.435209036 
0.0374695286 0.198387399 -0.0900425091 0.0287969615 56 134 0 0.705572426 
0.00661534956 0.466066539 -0.162139848 0.0287390333 48 113 0 0.868671656 
-0.0402904823 -0.0627794638 0.0394205265 0.0288330335 51 133 0 0.412700027 
0.0411105342 0.185977817 -0.0973474234 0.0287222788 62 176 0 0.722097754 
-0.0194445308 -0.0887077451 0.0300417952 0.0288913194 56 125 11 0.433916807 
0.00997820497 -0.185217246 0.082509324 0.0288587175 56 159 0 0.3152242 
-0.034020368 -0.329822659 0.174251512 0.0288402513 56 143 0 0.107684292 
0.0302475467 0.472923368 -0.162211582 0.02881171 51 122 0 0.868833959 
-0.0359736383 -0.314755142 0.12348175 0.0287761185 61 138 19 0.222535983 
0.0645468682 0.412655711 -0.208522394 0.028748868 64 152 0 0.973598659 
-0.0196916386 0.156615824 -0.017907422 0.0286328942 54 142 0 0.542387843 
-0.0404081568 -0.315451235 0.133339837 0.0289763659 52 119 11 0.200234905 
0.0280837156 0.191244647 -0.0596102253 0.0288160574 48 124 0 0.636728287 
0.0206481572 -0.124192841 0.036452733 0.0287202019 60 163 0 0.419413716 
-0.00956102647 -0.0849023387 0.0590831563 0.0295772646 61 154 0 0.368219137 
0.0293794554 -0.0373957306 0.0227741692 0.0288652908 55 140 0 0.450357676 
-0.0329618007 -0.0520462394 0.0153325181 0.0288632084 65 160 0 0.467192143 
0.011535598 0.207952455 -0.0514718369 0.0287662316 62 145 9 0.618317544 
-0.0038305386 -0.242145926 0.0967008397 0.028873302 55 134 0 0.283120126 
0.0141037581 -0.0919301882 0.0289419405 0.0293342248 60 143 0 0.436404824 
-0.0113834161 0.0159263276 -0.0108616631 0.0287985802 58 128 24 0.526448905 
0.00596117135 -0.227544457 0.0863508061 0.028810462 52 134 0 0.306534022 
-0.00024610979 -0.159756348 0.0911118686 0.0287927557 53 147 0 0.295763463 
-0.020301776 -0.287925452 0.0994658619 0.0289260317 56 124 25 0.276864916 
-0.0233181156 0.13228558 -0.0218237899 0.028743973 56 111 33 0.551247478 
0.0393944383 0.265565544 -0.129131794 0.028547924 53 125 0 0.794000566 
-0.0136914179 -0.21265626 0.118833907 0.0288272034 60 166 0 0.233050391 
0.0384070836 0.332945585 -0.122558951 0.0288094915 59 164 0 0.779131472 
0.00282400427 -0.0607938133 -0.0127669508 0.0288303029 55 127 9 0.530758977 
-0.00157520501 -0.188468173 0.0984202325 0.0288124494 54 122 18 0.279230475 
0.00392177468 0.159782946 -0.0801880211 0.028841177 59 154 0 0.683279574 
0.0125810103 -0.0251775589 -0.0172803458 0.0288769137 66 148 18 0.540969253 
0.0307355765 0.0680739507 -0.0554582588 0.0286164116 45 112 0 0.627335668 
0.0250517726 0.229919612 -0.0768399835 0.0288701076 54 140 0 0.675705612 
0.00971089024 -0.175858125 0.0828352794 0.0287594888 44 118 0 0.314486802 
0.0382435098 0.317682952 -0.130656138 0.0291708261 54 150 0 0.797448993 
0.0697495341 0.43677038 -0.193061069 0.0288043581 61 143 15 0.938621938 
0.0130832661 0.0784538537 -0.00551362382 0.0287906751 46 120 0 0.514350474 
0.0249413177 -0.0178614557 0.0156551227 0.0288656149 61 173 0 0.466462255 
0.0249598566 0.294380605 -0.0930515304 0.0288191568 54 142 0 0.712379456 
0.0208112486 -0.00996113103 0.0118407309 0.0288413148 57 155 0 0.475091368 
-0.0582749397 -0.276623309 0.142119586 0.0287121739 66 131 36 0.180373386 
-0.00257630623 -0.144184723 0.0355390124 0.0288151316 49 127 0 0.421480954 
0.0298954695 0.0215699188 -0.0259991866 0.0286945086 58 142 0 0.560693085 
-0.0387773812 -0.112375364 0.0911030993 0.0286201406 59 109 39 0.295783252 
-0.0479963608 -0.222052887 0.122163892 0.0288092587 48 123 0 0.225517288 
0.0403351299 0.317331672 -0.134751052 0.0289831907 61 140 14 0.806712508 
0.0139685599 -0.00362778432 0.000767966092 0.0293791275 65 165 0 0.50014025 
-0.0057395366 0.150036171 -0.0601765253 0.0288284533 59 147 0 0.638009369 
-0.0540734604 -0.294304907 0.162352309 0.0287963152 55 116 26 0.13460277 
-0.0315023623 -0.142412335 0.092093505 0.028842194 63 148 0 0.293542832 
-0.0382583439 -0.180033311 0.0752443746 0.0288635325 44 109 0 0.331659108 
-0.0297794528 -0.236160427 0.0927361324 0.0288276207 46 108 0 0.292088985 
-0.0562080033 -0.270515859 0.151966065 0.0287831891 56 129 11 0.158098504 
0.0573803708 0.405028105 -0.153004408 0.0288713574 63 162 0 0.848005354 
0.0360371694 0.181214824 -0.067963548 0.0287621208 45 96 21 0.655625165 
-0.0403374135 -0.168050379 0.076830022 0.0287404191 51 130 0 0.328071862 
0.0336964279 0.0728934482 -0.0506189503 0.0286432113 53 107 29 0.616388142 
0.0300379395 0.0194431189 -0.0286273453 0.0286616869 66 139 33 0.566638529 
0.00705447933 0.222258717 -0.0631721839 0.0291927438 44 129 0 0.644786179 
0.00534041831 -0.110062405 0.0621637814 0.0288910884 53 129 0 0.361250103 
0.0335873254 0.0733432174 -0.0411160588 0.0286232252 48 121 0 0.594890594 
-0.0328344591 -0.0611508675 0.0197707713 0.0288906712 55 134 0 0.457151771 
-0.0180195142 -0.245343968 0.0923474804 0.0290640444 41 111 0 0.292968333 
0.0659334585 0.41220212 -0.165631175 0.0288545974 52 119 16 0.876569808 
0.0528355688 0.360387415 -0.151929289 0.0287897512 60 164 0 0.845573246 
-0.0279077124 -0.330437511 0.127895311 0.0288504791 58 167 0 0.212551713 
-0.0079935519 -0.21475704 0.0687018633 0.0288253538 40 102 0 0.346459538 
0.00955846719 -0.0256428923 0.0471742563 0.0287684035 45 115 0 0.395159483 
0.0456103459 0.364858955 -0.137697294 0.0288761724 62 146 0 0.813377559 
0.0114314975 0.458580941 -0.145464346 0.0287858229 64 160 0 0.830948174 
-0.0127602266 0.0602976978 -0.0266040601 0.0288491361 62 157 0 0.562061429 
0.00193650578 0.238397375 -0.104850151 0.0288774241 57 144 0 0.739070415 
0.0265981928 0.277138054 -0.0951540098 0.0288813598 61 150 0 0.717135727 
0.0265072677 0.243621573 -0.0789678544 0.0288180001 69 152 27 0.680519283 
0.0138886962 0.198838323 -0.0471708737 0.0287556555 66 156 0 0.608587861 
-0.017762946 -0.353720129 0.126066342 0.0287759807 66 164 0 0.216689169 
0.00439474732 0.224581331 -0.0626541898 0.0292506274 58 159 0 0.643614352 
-0.000625026005 -0.0944630504 0.0196663663 0.0289695431 53 139 0 0.457388133 
-0.00890859123 0.308022171 -0.0979291573 0.0286961216 67 174 0 0.723413646 
-0.0186216608 -0.09400554 0.0376953445 0.029656345 52 133 0 0.416602731 
-0.0220499039 0.132194847 -0.0301906709 0.0288738571 55 142 0 0.570175052 
-0.0285980385 -0.201202333 0.125852838 0.0287660938 40 96 0 0.217172086 
0.0209636334 0.0932257995 -0.025928339 0.028764708 61 159 0 0.560532749 
-0.0335021727 -0.194668084 0.076761052 0.0287867934 52 108 26 0.328227997 
0.0369244106 0.244428307 -0.0939016044 0.0287973322 64 134 31 0.71430254 
0.0154744647 -0.091346778 0.0198996384 0.0288339127 54 150 0 0.456860244 
0.0700115785 0.406514853 -0.196472466 0.0287601352 51 137 0 0.94633925 
0.0118926307 0.123417191 -0.0689892918 0.0288348831 62 167 0 0.657945633 
0.00740589667 -0.00662864046 0.03452814 0.028842194 63 165 0 0.423767596 
-0.0171623137 -0.320643216 0.148606956 0.0290435385 55 119 20 0.16569753 
-0.00454875687 -0.10933508 0.026068937 0.028759351 60 150 0 0.442904055 
-0.0296817943 -0.268996835 0.0983944908 0.028781848 60 136 13 0.279288709 
0.0290222708 0.081035167 -0.0318658017 0.0288424715 53 134 0 0.573964655 
0.0442157015 0.225546837 -0.119390227 0.0286268629 53 128 0 0.77196312 
0.00578793371 0.419858128 -0.132456437 0.028793633 64 144 17 0.801521599 
0.0286996532 0.412246019 -0.133010656 0.0288646892 46 123 0 0.802775383 
0.00120589463 -0.0801391527 0.0540150031 0.0288280826 66 165 0 0.379684418 
0.0358942375 0.440592617 -0.139342949 0.0288230404 50 113 18 0.817100286 
0.00342024793 0.298945189 -0.0834044963 0.0287326165 61 157 0 0.690555811 
-0.0370740443 -0.101600856 0.0632364228 0.0287535768 58 142 0 0.358823568 
0.0224509966 0.075584352 -0.0587597117 0.0287578721 53 119 14 0.634804249 
0.0559168532 0.41908139 -0.152827874 0.0288657546 60 152 0 0.847606003 
-0.0425779074 -0.296915144 0.116499506 0.0288062543 59 165 0 0.238331333 
-0.0531812832 -0.340776384 0.158628628 0.0289175939 56 140 0 0.143026561 
-0.0402400829 -0.36287868 0.147343174 0.0288305357 50 138 0 0.168556437 
0.0551903136 0.378206402 -0.186696932 0.0287879016 57 135 0 0.924224913 
0.0175086688 -0.134773284 0.0483162403 0.0288328938 64 141 23 0.392576098 
-0.0349897109 -0.0415575989 0.0150015615 0.0288425647 55 154 0 0.467940837 
0.0330747925 0.30857417 -0.110511012 0.0287679415 50 142 0 0.751876473 
0.0388330035 0.160123467 -0.0810920298 0.0287731159 62 135 22 0.685324609 
-0.00690483209 -0.315962136 0.113449186 0.0285203587 53 135 0 0.245231777 
0.0234805942 0.323060036 -0.113080181 0.029430829 55 148 0 0.757688463 
0.0255662892 0.192300841 -0.0569360517 0.0288334955 54 127 0 0.630678713 
-0.054753229 -0.431208223 0.203666717 0.0286264494 52 126 0 0.0411409363 
-0.00943350792 -0.224543482 0.0701781586 0.0287691895 61 174 0 0.343120009 
0.0204869062 0.281653672 -0.0898710862 0.0287928488 43 96 13 0.705184639 
0.00850717723 -0.148983538 0.0611164011 0.0287839286 56 154 0 0.363619536 
0.0486786179 0.358743131 -0.139023334 0.0288351141 52 125 0 0.816377282 
-0.0398360714 -0.420674682 0.203675613 0.028980311 49 108 16 0.0411208272 
-0.0461396873 -0.160631984 0.100969911 0.0287204329 74 152 39 0.273462564 
-0.00848877151 -0.00205059396 0.0416137129 0.0288123582 58 144 0 0.407738656 
0.0199106727 -0.118368685 0.0362222828 0.0287896581 54 137 0 0.419935256 
-0.0246064346 -0.134649575 0.049694635 0.0288570039 71 168 0 0.389457852 
-0.000543868693 -0.0896779299 0.0120372353 0.0288037583 55 130 0 0.474646807 
0.0236267112 0.217627302 -0.0775673613 0.0290293135 49 108 16 0.677351058 
0.0265442785 0.469445854 -0.155654401 0.0288103223 56 135 0 0.85400027 
0.0409328863 0.186111569 -0.0820093751 0.0287672952 59 134 20 0.687399864 
0.0080753509 0.0748598725 -0.000689679 0.0288450643 55 126 11 0.503437757 
-0.031048255 -0.283737868 0.161429718 0.0286900811 49 123 0 0.136689767 
-0.00537731452 0.107146271 -0.00837528612 0.0287891496 51 143 0 0.520824134 
-0.0132109597 0.00089492352 0.0392942913 0.0288128201 56 145 0 0.412985742 
0.00892667659 -0.0451755412 0.0535548814 0.0288454331 55 143 0 0.380725116 
