ply
format ascii 1.0
comment created by gply, a Houdini tool.
comment converted from .[b]geo
comment for more information about Houdini, try:
comment www.sidefx.com
element vertex 630
property float x
property float y
property float z
property float depth
property uchar red
property uchar green
property uchar blue
property float length
element face 0
property list uchar int vertex_indices
end_header
-0.199850217 -0.453048199 -0.103587903 0.000429002976 19 18 14 0.4850218 
0.212419137 0.191933498 -0.0805185959 0.000676940894 35 35 35 0.493902445 
0.565025151 -0.177284196 0.626385093 0.00054894411 35 35 35 0.766028404 
-0.244955599 -0.244366258 0.00648975745 0.000674164039 19 19 19 0.527396739 
0.203413755 0.0356657021 0.0232706014 0.000987775391 33 33 33 0.533856571 
-0.611718297 -0.364027828 -0.52161777 0.000950065383 33 33 33 0.324099213 
0.322331518 -0.130695894 0.29370904 0.000997615396 30 30 30 0.637963176 
-0.611186028 -0.410630435 -0.56003052 7.46937585e-05 35 35 35 0.309312046 
-0.703594387 -0.389997303 -0.775759518 0.000176219153 94 92 113 0.226266131 
0.0322113931 -0.207320526 -0.118940234 0.000655152486 32 32 32 0.47911185 
0.0577143803 -0.00475334888 -0.0338036157 0.000527854951 22 22 22 0.511885583 
-0.435508698 -0.27913031 -0.376919061 0.000703867408 37 37 37 0.379801661 
-0.0292227715 -0.146897122 0.0300960001 0.000865926151 20 27 30 0.536484063 
-1.04326081 -0.534515679 -0.803252816 -0.0026399768 39 39 39 0.215682447 
1.02063441 -0.0757669061 0.996991038 0.000526768854 18 37 61 0.908694863 
0.372322053 -0.0524598658 0.251345336 0.000565633585 7 6 4 0.621655047 
0.10826242 -0.00888725091 0.021757191 0.000959938625 45 45 45 0.533273995 
-0.795142829 -0.444425195 -0.723999798 0.000662969076 88 101 128 0.246191278 
-0.853488266 -0.363894433 -0.886498213 0.000403766579 39 39 38 0.18363674 
-1.07016802 -0.530716479 -0.81804347 -3.61037673e-05 18 18 18 0.209988713 
-0.86960727 -0.380740345 -0.734954655 0.00103407528 22 22 22 0.241974145 
-0.316330105 -0.444502592 -0.0772472769 0.000582920387 55 26 9 0.495161742 
-0.776689827 -0.133438289 -0.969525158 0.000802397786 40 29 33 0.15167512 
1.34030843 0.101669453 1.21775532 0.000326305133 20 34 59 0.993679166 
0.0757219866 -0.00539609045 -0.00687173568 0.000753507251 41 41 41 0.522253156 
-0.290663451 -0.250212431 -0.0486380793 0.000816663844 35 35 35 0.506174982 
-1.01870775 -0.592824399 -0.810612381 0.000110209745 12 20 30 0.212849349 
-0.214149952 -0.235295311 -0.26790458 0.000625528395 35 35 35 0.421767324 
1.38153636 0.0422747321 1.0142014 0.000834911247 3 3 3 0.915320098 
-0.0451509692 -0.356182486 0.137944266 0.000890491181 33 45 55 0.578000724 
-0.356056869 -0.513387859 -0.159700543 0.00101634988 19 21 11 0.463420987 
-0.372880846 -0.18334204 -0.468346268 0.000763314369 30 27 25 0.34460634 
-0.431917667 -0.534701765 -0.192883179 0.000690751942 43 22 11 0.450647175 
-0.513125122 -0.602506459 -0.305174798 0.00021927958 14 18 7 0.40741995 
-0.395747691 -0.223243788 -0.23813273 0.000855223043 20 20 20 0.433228135 
-0.233775184 0.190204382 -0.0320328064 0.000967771397 6 6 6 0.512567282 
-0.554868221 -0.342232883 -0.626750231 0.000533794228 35 35 35 0.283627957 
0.535244405 -0.235922888 0.366443664 0.00059650006 35 35 35 0.665962696 
-1.55839407 -0.335062534 -0.88773483 0.00104320585 2 2 2 0.183160692 
0.499665111 -0.0944697559 0.495954782 0.000788029749 30 30 30 0.715818584 
0.52763176 -0.0771143585 0.533874214 0.000809072168 31 34 36 0.730415881 
-0.0228891298 -0.102270462 -0.201304242 0.000617019308 8 8 8 0.447405428 
0.0552368276 -0.162923738 0.243878633 0.000110371286 22 22 22 0.618780673 
-0.372659892 -0.284960866 -0.349444807 0.00023356278 42 42 42 0.390377998 
1.09871554 -0.0937019959 1.00728798 -0.000232399732 3 3 3 0.912658751 
-0.560144424 -0.362065405 -0.176220939 0.000925611297 18 14 1 0.45706138 
-1.18154812 -0.546033382 -0.94884932 -0.00192727102 27 27 27 0.159634382 
0.946756482 -0.155500054 0.848188579 0.000800931186 33 5 5 0.851412714 
-0.936905861 -0.508032203 -0.700315595 0.000910535338 36 36 36 0.255308628 
-0.744557858 -0.342098981 -0.840631962 0.00041301176 37 37 37 0.20129317 
-0.669833601 -0.464288831 -0.312325805 0.000425051549 27 27 27 0.404667139 
-0.845862508 -0.397214204 -0.913689971 0.0011248861 19 19 19 0.173169136 
-0.371897668 -0.247338831 -0.0544908531 0.000633380725 26 38 60 0.503921986 
-0.678254962 -0.444781691 -0.268004805 0.000723713019 57 34 1 0.42172873 
-1.04292548 -0.190759197 -1.03012395 0.000988460029 29 29 29 0.128347322 
-0.389773935 -0.123360351 -0.607900143 0.00109826564 21 23 27 0.290884405 
-0.195602655 -0.199109614 -0.0716594309 0.00109295594 30 32 33 0.497312814 
-0.533840835 -0.185142189 -0.788643837 0.000409947272 25 25 25 0.221306249 
0.483585626 -0.0377660245 0.396148026 0.000958553981 41 41 41 0.67739749 
-0.561513603 -0.081239365 -0.210871473 0.00102395203 43 48 56 0.443722486 
-0.121690951 -0.41756174 0.0344306603 0.000415847608 43 22 13 0.538152695 
-1.05248988 -0.196141899 -0.981903017 0.000609788403 63 47 44 0.146910205 
0.811625004 -0.168315113 0.612401307 0.000741513213 41 41 41 0.760645211 
0.513246417 -0.0743449554 0.345579296 0.000901247258 43 48 59 0.657930851 
-0.365695089 -0.114010245 -0.563089252 0.00106942316 46 11 12 0.308134556 
-0.168251857 -0.211085543 -0.179485872 0.00114275224 29 29 29 0.455804497 
0.956271172 -0.129659578 0.71225512 0.000751852 6 27 65 0.799084485 
-0.988708675 -0.540712476 -0.8370924 3.78473778e-05 39 39 39 0.202655733 
-0.0224893056 -0.209279865 0.202570409 0.000101733815 36 35 41 0.602878928 
-0.9506616 -0.579163551 -0.744512022 -3.51218041e-05 32 32 32 0.238295004 
-0.70860815 -0.539018393 -0.323013842 0.000881554384 26 13 1 0.40055275 
-0.528606236 -0.346338719 -0.544855177 0.00106638053 41 41 41 0.315153867 
1.2358948 -0.0332290456 1.11301529 0.000869833108 4 4 4 0.953359067 
-0.89669013 -0.506802082 -0.842318296 0.00100057642 39 39 39 0.200644001 
-0.631381214 -0.643274844 -0.388348252 0.00095497031 27 18 9 0.375401944 
-1.22140956 -0.541868329 -0.921594918 0.00106421835 44 44 44 0.170126095 
0.3279275 0.0593799204 0.37048015 0.00074351154 24 24 23 0.667516589 
-0.313521028 -0.251022577 -0.327991217 0.00101381273 31 31 31 0.398636669 
-0.311976045 -0.221103027 -0.103655174 0.00090107508 29 29 29 0.484995872 
-0.950638413 -0.33009997 -0.918080151 4.56717098e-05 23 23 23 0.171479121 
0.699583292 -0.0970309228 0.723064244 0.000763865188 5 9 12 0.803245485 
-0.620150626 -0.351634532 -0.450805157 0.00100574724 33 33 33 0.351358831 
0.516477823 -0.148665518 0.587033033 0.000370302587 14 22 17 0.750879645 
-0.629929423 -0.370282292 -0.247917458 0.000516204862 96 56 4 0.429461449 
1.14410484 -0.0154573703 1.12216878 0.000193179236 31 16 13 0.956882656 
-0.188953951 -0.196649417 -0.0475233644 0.00106296188 8 10 11 0.506604075 
-0.8965289 -0.262650579 -0.960894942 0.000466613943 12 10 10 0.154997364 
-1.13052535 -0.481606036 -1.1775713 0.000511818216 27 27 27 0.0715867579 
0.171048045 -0.18234086 0.3068358 0.00091364223 34 34 34 0.643016338 
0.481122851 0.0792745501 0.279856235 0.000908436719 30 30 30 0.632630408 
-0.253230125 -0.248400539 0.0525462553 0.000616853766 25 40 67 0.545126379 
0.90935868 -0.10564851 0.894385397 9.95416194e-05 105 90 91 0.869196355 
-0.42067498 -0.365194678 -0.0668851659 0.000962640566 41 15 4 0.499150723 
1.19384825 -0.058308199 1.0714308 0.000951923663 21 25 27 0.937350929 
0.100085914 -0.0390714593 -0.0840848386 0.000934960728 12 12 11 0.492529571 
-1.16201806 -0.348040491 -1.1822716 0.000639630598 3 3 3 0.0697773546 
-0.96825999 -0.535877645 -0.591337144 0.000986680272 25 23 48 0.297260404 
-0.537342548 -0.614132822 -0.324520886 0.00104167697 18 23 11 0.399972618 
-0.532554746 -0.338766634 -0.259494126 0.000887751463 41 41 41 0.425004989 
-0.371029764 -0.491784751 -0.134887785 0.000754366047 16 15 19 0.472972751 
-0.133413985 -0.425156265 0.0159253459 0.000613404089 36 19 10 0.531028986 
0.00111956894 -0.171976715 -0.166372746 0.000875815167 7 11 8 0.460852474 
0.392059833 0.0383383185 0.306726307 0.000861981302 44 44 44 0.642974198 
0.0229040775 0.0927768573 -0.170577869 6.31530565e-05 41 41 41 0.459233671 
0.519227266 -0.0750197023 0.437623978 0.00073209015 40 40 40 0.693363905 
0.59343183 -0.0825951546 0.44241631 0.000863948371 86 90 102 0.695208728 
0.709532499 -0.151073694 0.542801321 0.00069258624 48 48 48 0.733852446 
1.23704934 -0.0524248146 0.929341137 -1.99939823e-05 47 47 47 0.88265276 
0.351636678 -0.115795083 0.344029605 0.000957893266 17 18 17 0.657334328 
0.278618544 0.00209672051 0.0834582001 0.000928054622 55 55 55 0.557026088 
0.401445299 -0.142197087 0.423585504 0.000740058138 31 31 31 0.687959731 
-0.975642145 -0.227236584 -0.992044508 0.000602841319 24 24 24 0.143006191 
0.399071485 -0.127160192 0.328568667 0.000709036365 38 38 38 0.651382565 
-1.25283194 -0.547012508 -1.01687276 0.000350097194 27 27 27 0.133448422 
0.216609329 -0.222326502 0.359767854 0.000704785925 22 22 22 0.663392842 
1.26068521 -0.0445960686 0.946746051 0.000256130355 12 20 29 0.889352918 
-1.23643577 -0.299098223 -1.22020531 0.000601075531 40 40 40 0.0551745966 
-0.745600283 -0.438778639 -0.65196532 0.000817865308 22 22 22 0.273921281 
0.0591134578 0.288152725 -0.204128847 0.000960794801 30 30 30 0.44631806 
0.335980505 -0.0864244103 0.220612466 0.00109539554 31 32 33 0.6098243 
0.233983934 -0.235900164 0.380515188 0.000106480729 41 50 58 0.671379626 
0.64203006 -0.241814956 0.672327518 0.000547506032 36 41 47 0.783714116 
0.455517769 -0.332082629 0.482586294 0.000641359249 30 49 48 0.710672319 
-0.892765462 -0.439597189 -0.501883626 0.000784494448 63 57 53 0.331695944 
0.626748621 -0.282128721 0.641664922 0.000684744329 26 9 4 0.771910429 
0.277558118 -0.258706212 0.100694917 0.000675648975 41 47 63 0.563661456 
0.224826053 -0.169220731 0.370191127 -1.69721898e-06 13 17 14 0.667405307 
0.480422527 -0.0845402479 0.477512628 0.000720752403 8 9 7 0.708719194 
1.23271954 -0.0682788566 0.99561131 0.000642688479 26 56 80 0.908163846 
-0.109617122 0.0616921894 -0.264266461 0.000776995905 31 31 31 0.423167795 
-0.652406216 -0.415550739 -0.319349647 0.000531352765 23 23 23 0.401963294 
0.248377174 -0.102384083 0.37003243 0.000772366533 70 60 71 0.667344213 
-0.695863068 -0.40188542 -0.484847605 0.000864940346 33 33 33 0.338254064 
0.72365582 -0.202198461 0.730629086 0.000797120272 3 12 27 0.806157649 
-0.975771546 -0.320983678 -0.911391795 0.000859950087 47 47 47 0.174053833 
-0.514914036 -0.339950174 -0.223616779 0.000397296302 21 21 21 0.438816071 
-1.33752334 -0.472160399 -0.826714873 0.000558392261 1 1 1 0.206650615 
0.672443032 -0.172682449 0.711709559 0.000382235507 56 78 114 0.798874438 
0.202102974 -0.139086232 0.348210573 0.000956573407 8 20 26 0.658943772 
0.189909428 -0.230329379 0.352456748 0.000117038842 24 32 24 0.66057837 
-1.08351672 -0.463754028 -1.15725231 -3.11007025e-05 42 39 34 0.0794086531 
-0.00921776611 0.178748891 0.179906607 0.000554481579 3 3 3 0.594154358 
-0.628021002 -0.371482849 -0.72154969 0.000924580556 19 19 19 0.247134462 
0.758296251 -0.0931479409 0.771640897 0.00121612358 11 38 80 0.821945369 
-1.06298256 -0.443372697 -1.08163893 9.23326006e-05 34 35 35 0.10851638 
-0.983821869 -0.598149657 -0.640934587 0.00102898327 34 29 86 0.278167635 
-1.00772953 -0.503530681 -0.919493377 0.000619971892 32 32 32 0.170935094 
0.849655449 -0.123879589 0.832923591 0.000730361673 35 35 35 0.845536411 
0.738047361 -0.126869053 0.730188906 0.00076332828 41 41 41 0.805988133 
-0.950900793 -0.495058358 -0.895371556 0.000379904988 8 17 30 0.180220902 
0.00189962517 -0.158039078 -0.104833603 0.000755236892 45 26 20 0.484542251 
-0.172473416 -0.29613021 -0.283691138 0.000946693996 36 36 36 0.415690184 
0.204699904 0.188238502 -0.0850882903 0.000630907249 17 17 17 0.492143333 
0.504665256 -0.151747718 0.578694344 0.00101955864 19 25 25 0.747669578 
-1.05353236 -0.461325496 -1.09211075 3.61446291e-06 3 4 3 0.104485206 
-0.611115098 -0.247528329 -0.751889288 0.000298809318 28 28 28 0.235455081 
-0.148073226 0.00649879314 -0.00827098452 0.000887426897 51 51 51 0.521714509 
-0.349291593 -0.24314639 -0.262284398 0.000892571639 35 35 35 0.423930824 
-0.361378044 -0.236417964 -0.0498310886 0.000821282272 23 40 70 0.505715787 
-0.819038093 -0.456506938 -0.675122082 0.00107624347 16 16 16 0.265006989 
0.144740939 -0.313154548 0.291321397 0.000864485395 46 28 15 0.637044013 
-0.994801402 -0.533127725 -0.801632226 5.08916419e-05 31 31 31 0.216306299 
-0.537879169 -0.350861847 -0.614949167 0.000851907011 32 32 32 0.288170844 
0.907375038 -0.180099756 0.768366635 0.000189936429 16 12 8 0.82068485 
-0.787201405 -0.468328059 -0.446064264 0.000780861184 47 47 47 0.353183895 
0.312596619 -0.239172235 0.429165751 0.000952416449 42 34 36 0.690107822 
1.03267014 -0.136695623 0.84611553 0.00038524816 30 30 30 0.850614667 
0.54556632 -0.330502898 0.535525084 0.000842863636 9 10 12 0.731051385 
0.0701883286 -0.182587087 -0.0428301618 0.000393170107 36 38 41 0.508410811 
-0.793782294 -0.38245067 -0.711480618 0.000243329268 25 25 25 0.251010597 
0.253506631 -0.14261511 0.305489153 0.000508579833 24 24 24 0.642497957 
0.0305774864 0.250691354 -0.22291334 0.000767708756 29 29 29 0.439086884 
-0.0337920599 -0.168226779 -0.143562868 0.000909247668 43 43 43 0.469633222 
-0.313579977 -0.242363408 -0.00796285365 0.000856052502 53 51 65 0.521833122 
0.22731106 -0.224942043 0.0437575318 0.0006924466 38 44 47 0.541743159 
-0.410060018 -0.133671552 -0.611122489 0.000677607255 12 14 14 0.289643943 
1.37787461 0.0295286495 1.12137473 0.0011181701 3 5 4 0.956577063 
-0.125816226 -0.186802328 0.132294729 0.000653740834 24 38 50 0.57582593 
-0.278415203 -0.267192632 -0.0133546572 0.000889252638 28 28 28 0.519757509 
-1.19769633 -0.561903834 -0.967554688 -0.00158762792 37 37 37 0.152433664 
0.0123132104 -0.407273889 0.0850066096 0.000397140364 36 47 54 0.557622135 
-0.96198529 -0.579235673 -0.653074563 0.000791474828 41 41 41 0.273494273 
-0.602105796 -0.360955179 -0.553862691 0.00079895294 29 29 29 0.311686367 
-0.134165049 -0.123818144 -0.187878862 0.00107734429 18 18 18 0.452573597 
-0.800186634 -0.498731524 -0.391526461 0.00086060277 70 44 5 0.374178469 
-1.12371171 -0.530623257 -0.850245595 -0.00175408181 31 31 31 0.197592348 
-0.832181871 -0.452263653 -0.669667423 0.000407374318 25 25 25 0.267106771 
0.457269549 -0.0669926479 0.353863358 0.000752856897 26 34 43 0.661119819 
-0.959126651 0.0934739336 -0.969941914 0.000651502341 33 33 33 0.151514679 
-1.05294979 -0.583098233 -0.782421291 1.07180094e-05 12 22 28 0.223701641 
-0.43891415 -0.375353217 -0.0801613331 0.000769576698 45 20 7 0.494039953 
-0.843491018 -0.465777814 -0.70512712 0.000970589055 36 36 36 0.253456414 
-0.551911533 -0.270967215 -0.224547863 0.00092690601 16 11 10 0.438457668 
-0.686836541 -0.595773339 -0.347527385 0.000699145719 77 39 5 0.391116142 
-0.811553955 -0.441974729 -0.575490654 3.81619611e-06 33 33 33 0.303360581 
-0.0882541984 -0.0681159273 -0.206777439 0.00089371152 49 45 44 0.445298493 
0.283109337 -0.357850581 0.341547638 0.000820559391 21 17 16 0.656378865 
1.06613636 -0.116055124 0.953257024 0.000972779992 10 11 11 0.891859293 
-0.247286603 -0.27362451 0.0301329195 0.000639437407 25 25 25 0.536498249 
0.228830263 0.039111305 0.0499221087 0.000962268212 33 33 33 0.544116199 
0.171993122 0.0731372908 0.0179193132 0.000304370536 32 32 32 0.531796575 
0.431805849 -0.357386649 0.417813569 0.000212429106 23 18 14 0.685737789 
-1.08653235 -0.581357121 -0.79008615 -0.00142198754 16 27 33 0.220751017 
0.573978603 -0.330509543 0.550366104 0.000821224821 58 70 96 0.73676455 
-1.32504988 -0.484816879 -1.1444031 0.000436852395 1 1 1 0.084355019 
1.02375507 -0.0935773924 0.973576427 0.000378165278 30 36 42 0.89968133 
-1.24343014 -0.554692984 -0.958865643 0.000891336123 13 13 13 0.155778542 
0.0294171534 -0.185469419 0.208659083 0.000968162261 33 33 33 0.605222762 
0.999242365 -0.0648588762 0.99052453 0.000494133565 28 28 28 0.906205595 
-0.372729272 -0.542139113 -0.207112715 0.000549586082 43 33 6 0.445169449 
-0.0751166865 -0.0255445205 0.0502301306 0.000435818103 16 16 16 0.544234812 
-0.653047025 -0.347407132 -0.768405318 0.000620975276 23 29 24 0.229097158 
0.960745096 -0.13557981 0.767694354 0.000730558822 46 46 46 0.820425987 
0.258451551 -0.254713923 0.0808772743 0.000534420717 39 39 39 0.556032538 
0.205939367 -0.372889251 0.251309842 0.000747820537 20 10 5 0.621641397 
0.0848064944 -0.123769194 -0.0731592774 0.00116841088 56 60 69 0.496735454 
-0.874932885 -0.308427036 -0.921859741 2.88890624e-06 39 39 39 0.170024142 
-1.02623236 -0.602346838 -0.718580544 0.000965176092 7 15 30 0.248277441 
0.145698115 -0.376975 0.209581122 0.000467689504 5 4 2 0.605577707 
0.246067941 -0.377026558 0.236805245 0.000753871573 14 14 9 0.616057754 
0.914326489 -0.131060645 0.871547222 1.84199598e-05 30 30 30 0.86040473 
0.540199697 -0.0928202569 0.388619244 0.00053250452 9 9 7 0.674499273 
-0.97134161 -0.560757756 -0.596975684 0.000991020468 37 22 44 0.295089811 
0.499448776 -0.0788416564 0.349592745 0.00117554097 45 52 65 0.659475803 
-0.156915933 -0.0602339134 -0.269295812 0.000591617019 76 67 69 0.421231747 
-0.689513385 -0.474341452 -0.656573474 0.000835100887 31 31 31 0.272147357 
-0.941390038 -0.633293271 -0.614804029 0.000821856491 77 91 92 0.288226694 
0.32521078 -0.0232479945 0.226116449 0.00089335494 60 66 54 0.611943066 
-1.22547054 -0.141340986 -0.839895368 0.000929342874 42 46 51 0.201576725 
-1.03161418 -0.555211902 -0.87594831 0.000479507376 51 51 51 0.187697977 
0.192237616 -0.0494669788 0.00850268081 0.000966047926 14 21 21 0.528171599 
-1.06024599 -0.489621341 -1.01802611 0.000468999962 39 39 39 0.133004442 
0.0769747794 -0.195266038 0.268421054 0.00103599532 33 46 69 0.628228426 
0.118978441 -0.33923462 0.247874364 0.000554003345 21 36 48 0.62031889 
0.302965254 -0.00527150882 0.194770575 0.00055049191 30 39 41 0.599876344 
-0.954364479 -0.591917455 -0.807329953 1.47094252e-05 35 35 35 0.214112937 
-0.71922195 -0.454091609 -0.729330361 5.69756376e-05 45 47 50 0.244139254 
-0.807533741 -0.511826873 -0.40406397 0.000739512965 47 34 5 0.369352102 
-0.328806698 -0.104066335 -0.507661164 0.00094064622 14 17 23 0.329471856 
0.503216565 -0.0315791406 0.313199699 0.000945114472 14 21 20 0.645466208 
-0.978570938 -0.648878157 -0.761018336 0.00137382478 36 36 36 0.231940806 
-0.803920746 -0.417838275 -0.410823554 0.00097369682 115 95 116 0.366749942 
-0.953163505 -0.55979526 -0.820128262 1.36134913e-05 37 37 37 0.209186167 
0.409906149 0.0556766726 0.288402945 0.000704628881 28 33 37 0.635920525 
-0.582144141 -0.179329664 -0.839412451 0.000672891096 34 34 34 0.201762617 
-1.18372369 -0.537427545 -0.967601717 -0.00190881849 38 38 38 0.152415559 
0.948353171 -0.146832004 0.736829996 0.00109916111 47 47 47 0.808544695 
-0.127207309 -0.113124467 -0.266235352 0.00102389709 42 47 47 0.422409892 
0.674580693 -0.244675979 0.501942098 0.000433407666 41 51 45 0.718123496 
-1.05709434 -0.477497876 -0.717270315 8.53507809e-05 45 43 58 0.248781815 
0.0586308278 -0.160255864 -0.0115772206 0.000714720867 31 32 34 0.520441711 
-0.969707012 -0.5705266 -0.775308073 -0.00312680798 31 31 31 0.226439908 
-1.13246727 -0.538208783 -0.900791764 -0.000107309992 21 21 21 0.178134367 
1.04379106 -0.133366466 0.853971124 0.000224266783 37 37 37 0.853638768 
-0.0506896824 -0.185207546 -0.0958985761 0.0007373353 50 50 50 0.487981826 
0.120013669 -0.218312651 0.30179882 0.000745254511 32 50 73 0.64107734 
1.20949817 0.0457031205 1.18553209 0.000849206641 7 8 8 0.981274664 
-0.414814621 -0.34588778 -0.439321607 0.000911552692 24 24 24 0.355779499 
-0.784190059 -0.427008212 -0.675456941 0.000777546316 52 58 81 0.264878094 
-1.09268498 -0.10050118 -1.08089781 0.000908935152 44 44 44 0.108801685 
-1.1636343 0.0529645234 -1.07236075 0.000456427602 10 10 9 0.112088062 
-0.539885879 -0.331202835 -0.686129928 0.000743404671 23 23 23 0.260769457 
-1.01728904 -0.209491029 -0.988993049 0.000410668348 22 22 22 0.144180864 
-0.750953436 -0.408324093 -0.600148201 0.000228808625 36 36 36 0.293868542 
-0.0652352422 0.156744972 0.101347528 0.000354855787 42 42 42 0.56391269 
-0.253662497 -0.281678379 -0.32377553 0.00103333802 39 39 39 0.400259525 
-0.00388626056 -0.216886953 0.215174139 0.000780839648 28 37 34 0.607730806 
-0.321698636 -0.404569238 -0.0445059426 0.000679999241 33 40 50 0.507765651 
0.141594619 -0.262013048 -0.0387687832 0.00083335262 29 38 58 0.509974241 
-0.418005586 -0.286453784 -0.440793455 0.00114010856 42 42 42 0.355212897 
1.18108726 -0.061842896 1.06793678 0.000604604837 13 19 23 0.936005771 
-0.0617790334 -0.0111373886 0.0675443485 0.000914839795 45 45 45 0.550899982 
0.134830058 -0.323867917 0.274745405 0.000824616174 23 16 14 0.630663037 
-0.954192221 -0.476716459 -0.552747786 0.000843785354 39 43 73 0.31211555 
-0.249827087 -0.119755588 -0.381171286 0.000359163387 36 23 17 0.378164738 
-0.460265607 -0.580491424 -0.270646483 0.000713802525 20 11 3 0.420711815 
-0.034256056 0.172968045 0.17163752 0.000716766459 31 31 31 0.590971172 
-0.567484915 -0.385693133 -0.239277557 0.000618828053 25 25 25 0.432787389 
-0.8943488 -0.377437949 -0.733425081 4.89425729e-05 30 18 10 0.242562965 
0.0515882038 0.109868765 -0.174754113 0.00040190341 44 44 44 0.457626015 
-0.872246385 -0.470002055 -0.473273784 0.000826814154 97 70 60 0.342709452 
0.445012599 -0.347540319 0.450939983 0.000522396411 14 20 16 0.698489964 
-0.665350795 -0.385613203 -0.734707355 -0.00041560104 18 16 15 0.242069349 
-0.231242865 -0.304424226 0.0355199426 0.000918418809 24 24 24 0.538572013 
0.450024486 0.103070177 0.250021785 0.000120970974 30 30 30 0.621145546 
-0.917361915 -0.577547491 -0.593298376 0.000739591138 43 43 43 0.296505421 
-1.03945649 -0.246193558 -0.977126956 0.000565744529 31 35 25 0.14874877 
0.102866329 -0.197727039 -0.0387525447 0.000932173512 41 41 41 0.5099805 
-1.06649601 -0.537939429 -1.04587495 0.00100627367 18 22 23 0.122283898 
-0.774023652 -0.401233464 -0.691605628 0.00116226496 38 38 38 0.258661568 
-0.764562964 -0.425777048 -0.608850837 8.05343007e-06 38 38 38 0.290518403 
1.00283134 -0.118489347 0.771041155 -1.82156145e-05 31 31 31 0.821714401 
0.906259537 -0.180591002 0.790064931 0.000867365277 33 51 75 0.829037786 
0.642246485 -0.163973078 0.444403231 0.000206788944 21 21 21 0.695973575 
0.319630295 -0.244671464 0.433246225 0.00098293426 42 37 18 0.691678643 
-0.0705614388 -0.280282915 0.160892174 0.00101980276 23 15 26 0.586834669 
-0.358586878 -0.285357028 -0.0859480277 0.000844466907 37 37 37 0.491812378 
-1.1839869 -0.148130074 -0.898194075 0.000612540985 32 32 32 0.179134354 
-0.0751131475 -0.169643506 0.0878747404 0.00062711956 30 40 48 0.558726251 
-1.02406335 -0.555782795 -0.847628176 1.13456554e-05 33 33 33 0.198599935 
0.497818887 0.0570216179 0.572046399 0.000685836188 41 41 41 0.745110452 
-1.06213939 -0.530535936 -0.816084683 -0.00216642045 23 23 23 0.210742757 
-0.986537814 -0.528602839 -0.610198021 0.000926451641 27 32 75 0.289999813 
-0.161035731 0.0268379841 -0.26623702 0.000946915359 23 32 36 0.422409236 
-0.742014229 -0.430144429 -0.606978834 8.76116974e-06 43 43 43 0.291239053 
0.99609679 -0.153740302 0.785204351 0.00114559871 17 34 62 0.827166617 
-0.492479056 -0.315309852 -0.626761198 0.000391142559 26 26 26 0.283623725 
0.859476209 -0.139836282 0.645439625 0.000861447537 23 52 88 0.773363531 
0.41965434 -0.172327921 0.233213499 0.000921075465 12 19 22 0.614675105 
-0.925195694 -0.338332504 -0.909009337 1.97721529e-05 39 37 35 0.17497097 
0.657154202 -0.170759276 0.493115515 0.000826928939 25 25 25 0.714725614 
-0.59914881 -0.650503755 -0.404910445 0.000774450891 59 16 7 0.369026244 
-0.191363126 -0.191741303 -0.281881064 0.0010006628 19 25 23 0.416386992 
-0.271677285 0.0452311225 -0.119072668 0.000864326663 33 33 33 0.479060858 
0.0576189235 -0.378768235 0.173409849 0.000991869252 40 41 51 0.591653407 
-1.16141915 -0.467180163 -1.253268 0.00018079963 2 2 2 0.0424469523 
0.483618885 -0.0451418981 0.440053016 0.000829486293 36 36 36 0.694298923 
-0.760690033 -0.494243354 -0.348959088 0.00101994071 40 26 1 0.390564978 
0.244914368 -0.109989829 0.0851926357 7.74271321e-05 12 13 11 0.557693779 
0.668077946 -0.126676112 0.709670067 0.000776360626 18 42 70 0.798089325 
-1.1650207 -0.563030481 -0.934332013 -0.00126299635 8 8 7 0.165222883 
-1.02554858 -0.539560676 -0.984345496 0.00032150466 7 14 14 0.145969957 
-0.225105271 -0.0839833021 -0.116405286 0.000950598158 41 41 41 0.480087698 
-0.66818732 -0.325146735 -0.803529143 0.000766678015 60 69 62 0.215576068 
0.409811854 -0.110655442 0.290517449 0.000659545069 25 25 25 0.636734545 
-0.153751418 0.230690762 0.0972755998 0.0010299969 45 48 52 0.562345147 
0.161958143 0.129636064 -0.0358874798 0.000316904509 77 59 60 0.511083424 
0.172151119 -0.00958933681 0.00464578951 0.000601845561 53 54 55 0.526686907 
0.136154145 -0.103939585 0.254462898 0.00100456399 33 34 34 0.622855186 
0.206387118 0.151829153 -0.0475134701 0.000870675896 65 69 90 0.50660789 
-0.361322999 -0.392254114 -0.0488265492 0.00100661279 110 80 93 0.506102443 
-0.634648204 -0.413363934 -0.599283516 2.88484207e-05 39 39 39 0.294201404 
0.672658563 -0.232467532 0.693626821 0.00102319184 21 30 51 0.79191345 
-0.697376549 -0.384799987 -0.778778017 0.00038962753 63 59 75 0.225104138 
0.607110262 -0.100475319 0.460355848 0.000644049258 75 85 88 0.702114642 
0.525124252 -0.307797104 0.555154264 0.000483263255 27 20 15 0.738607764 
-0.547353029 -0.363879323 -0.233057916 0.000732568209 33 33 33 0.435181677 
-0.0452994741 -0.0965710953 0.168882623 0.000898454629 49 58 62 0.589910626 
-0.351363182 -0.361035645 -0.0279326197 0.000852723606 64 69 82 0.514145672 
-0.00466414168 -0.11796692 -0.191237375 0.000602918444 12 11 10 0.451280743 
-0.752610862 -0.485333413 -0.699985862 0.000502057257 2 3 2 0.255435556 
-1.06849277 -0.585092664 -0.795479953 1.21325429e-05 27 27 27 0.218674645 
-1.29320621 -0.531339347 -1.01557779 0.000162219396 31 31 31 0.13394694 
0.176373586 -0.384331495 0.199630067 0.000177007809 14 14 14 0.601746976 
-1.04480565 -0.523467243 -0.782179117 9.99463664e-05 39 52 84 0.223794863 
-0.383896887 -0.130916074 -0.616175771 0.000954018964 31 31 31 0.287698656 
-0.101254173 -0.339296609 -0.247285828 0.00101883686 36 36 36 0.429704577 
0.0599773191 -0.162909254 0.206899211 0.000739669777 42 42 42 0.604545295 
0.311806411 -0.0180232711 0.117822438 0.000778190908 64 71 85 0.570254743 
-0.345225036 -0.224806041 -0.354688853 0.000475950073 50 17 22 0.388359278 
-0.716241896 -0.382907927 -0.333261549 0.000902549131 70 36 52 0.396607846 
-1.09645665 -0.527739286 -0.908902526 6.58797508e-05 48 48 48 0.175012082 
-0.747607231 -0.429152787 -0.680975616 0.000999053475 90 102 117 0.262753636 
-0.100208841 -0.131464452 -0.244023278 0.000922826352 14 22 22 0.430960506 
-1.02546561 -0.452843994 -0.996379614 3.08203744e-05 30 30 30 0.141337365 
0.668168962 -0.310426176 0.624597192 0.00020765583 35 35 35 0.765340149 
0.234542057 -0.273947626 0.0644399002 0.000860573782 21 30 37 0.549704909 
0.31351617 -0.336085737 0.193562642 0.00103689742 24 20 18 0.599411309 
0.066101253 -0.01006414 -0.0270029418 0.000770982646 33 33 33 0.514503539 
0.522093773 -0.0295704566 0.333826751 0.000740066462 7 8 7 0.65340668 
0.893719554 -0.17418085 0.810175896 0.000981346122 59 26 18 0.836779535 
-0.362783879 -0.238802791 -0.258808315 0.00105546822 28 28 28 0.425268948 
-0.752489805 -0.387496859 -0.667361021 0.000189582483 7 8 7 0.267994642 
0.0603440516 0.156354144 -0.189076066 0.000870469201 46 53 64 0.452112734 
1.36296117 0.000461889344 1.08429885 0.000327941874 22 39 39 0.942304492 
-0.480775416 -0.607925236 -0.335881948 0.000663977698 31 21 4 0.395599097 
-0.51940763 -0.319721371 -0.274059117 0.000731789041 37 37 37 0.419398099 
1.14556992 -0.0886659101 1.00539362 0.00112472184 38 60 77 0.911929548 
-0.358283579 -0.542945862 -0.210968301 0.000703922415 68 63 11 0.443685204 
0.392855406 -0.31570074 0.257208824 0.000564321293 26 26 26 0.623912215 
-0.141453058 -0.185352638 -0.0851564407 0.000611844764 35 28 25 0.492117077 
0.00546683883 -0.153804272 0.186685935 0.00100559089 49 49 49 0.596764088 
-1.07179296 -0.516143143 -0.725887656 0.00103268749 40 40 40 0.245464534 
-0.808553219 -0.426863521 -0.47793144 1.87086844e-05 40 40 40 0.340916455 
-0.139859527 0.0472911894 -0.274686605 0.000556763844 29 31 30 0.419156551 
-0.00177489314 0.179218933 0.184549108 0.000491603743 6 6 5 0.595941484 
0.314062536 -0.364619762 0.355715364 0.000821743859 37 44 46 0.661832809 
-0.14730449 -0.0675211549 -0.271641016 0.000612485805 40 45 54 0.420328945 
0.200459883 0.0100064492 0.0530368686 0.000378691358 28 28 28 0.545315266 
-1.32739568 -0.537095666 -1.09381652 0.000638418656 28 28 28 0.103828564 
0.660065532 0.0350775309 0.389767557 0.000313973986 29 29 29 0.674941301 
-0.93139714 -0.496733278 -0.864780426 0.00103221589 8 16 27 0.191997096 
-0.490720659 -0.284462303 -0.421415329 0.000983675011 36 36 36 0.362672597 
-0.674557388 -0.660899222 -0.440093458 0.00105920224 36 46 27 0.35548237 
-1.04201198 -0.577847004 -0.754126251 2.57514184e-05 2 6 8 0.234593958 
1.12953758 -0.0993838459 0.88834095 6.98305084e-05 17 32 57 0.866869569 
-1.1995815 -0.330545098 -1.19156384 0.000885842834 22 30 40 0.0662002638 
-0.174107507 -0.149947852 0.0240678266 0.000409303058 9 11 11 0.534163475 
-1.12844849 -0.362525463 -1.16048169 1.09647517e-05 4 4 4 0.0781654865 
-1.15681744 -0.465394378 -1.26236749 5.27858792e-05 4 4 4 0.0389440618 
-0.994175017 -0.51001054 -0.957686603 9.86468513e-06 9 15 17 0.156232417 
0.857805014 -0.149274543 0.752159357 0.0010166564 34 34 34 0.814445794 
-1.07548404 -0.132022455 -1.04067564 0.000800417212 5 5 5 0.1242854 
-0.955072999 -0.420016557 -0.670546234 4.92739491e-05 24 14 9 0.266768485 
0.244002134 -0.114311993 0.11291007 0.000861195731 49 49 49 0.568363726 
-0.614498258 -0.328410655 -0.764046729 0.0010142572 57 46 36 0.230775014 
-0.373640597 -0.314538658 -0.399450541 0.000802500639 28 28 28 0.371128052 
-1.04228687 -0.385274172 -1.07708812 1.33201756e-05 23 15 10 0.110268243 
0.266896039 0.0194590632 0.14739497 0.000800726761 72 33 32 0.581638873 
-1.00541937 -0.507808089 -0.614169836 0.000911275973 47 61 85 0.288470834 
-0.0572009273 -0.423760891 0.0134685105 0.00119658874 59 55 57 0.530083239 
-0.64570874 -0.339395016 -0.290276498 0.000855147489 35 16 15 0.413155109 
-0.95606339 -0.488367051 -0.561899066 0.000879702275 69 85 118 0.308592737 
-1.18076575 -0.0688600391 -1.01981866 0.000263256516 22 22 22 0.132314384 
-1.08069003 -0.532037139 -0.838364542 -0.00256326748 37 37 37 0.202166021 
0.600341916 -0.0902487487 0.438527972 0.000446870545 107 102 113 0.693711877 
-0.752957344 -0.394850224 -0.52328068 0.000332930416 76 62 83 0.323459059 
-1.08383012 -0.10924013 -1.07966542 0.000702216057 32 32 32 0.109276094 
0.320717275 -0.285180122 0.427599043 0.000409825123 24 20 15 0.689504743 
0.238518029 -0.00396991521 0.145304948 0.00086921599 16 16 16 0.58083427 
-1.05297136 -0.5470469 -0.830493689 7.488142e-05 49 49 49 0.205195948 
0.052299697 0.0163367298 -0.0464230105 0.00108196493 43 43 43 0.507027686 
-0.357037246 -0.262758136 -0.439338028 0.000484519551 105 22 15 0.355773181 
-0.22729212 -0.387448072 0.0289582144 0.00107024261 33 34 33 0.536046028 
0.100279443 -0.167618483 0.280308157 0.000420916709 26 33 40 0.632804394 
-0.9368577 -0.366914868 -0.796286583 0.00147196406 36 36 37 0.218364134 
-0.617708683 -0.38855052 -0.312680542 0.000944476691 43 43 43 0.404530615 
-1.06972587 -0.493317157 -1.05237699 0.000774844142 46 46 46 0.119780906 
-0.0976606682 -0.177658543 0.0773164034 0.000365892163 48 48 48 0.554661751 
-1.0777514 -0.1789314 -0.987899482 0.000534170715 25 25 32 0.144601837 
0.680713177 -0.310719669 0.625489831 2.31677004e-05 36 36 36 0.76568377 
0.779025972 -0.134190068 0.753218234 0.00101271633 28 28 28 0.81485337 
-0.546586633 -0.494563013 -0.189137056 0.000901499938 31 21 5 0.45208922 
0.374600142 -0.277145296 0.208970994 0.000825534458 31 23 20 0.605342865 
-0.425611556 -0.292839885 -0.157432064 0.000615102705 39 39 39 0.464294225 
-0.724227905 -0.462289035 -0.702330053 0.000654067728 37 37 37 0.254533142 
-0.375398099 -0.53497833 -0.193690464 0.000639232225 25 30 12 0.450336397 
-0.506133795 -0.329968393 -0.230063289 0.000787894183 36 36 36 0.436334491 
0.430185854 0.0808472037 0.498162568 0.000882502645 31 31 31 0.716668487 
0.199637055 -0.308702797 0.337455183 0.000730937289 74 36 14 0.654803455 
-1.07061648 -0.576024771 -0.894465566 3.41228442e-05 46 46 46 0.180569664 
-1.19306445 -0.0598636046 -1.01859653 0.000707226456 33 33 33 0.132784858 
0.164009199 -0.0674822107 0.0331967436 0.00053280266 26 32 33 0.537677705 
0.292952895 0.0713470504 0.294438332 0.000785805692 30 30 30 0.638243914 
-1.11826587 -0.377454281 -1.13811994 1.62752694e-05 46 57 63 0.0867737532 
0.216015607 0.00260705408 0.0538515076 0.000490503036 14 14 14 0.545628846 
-0.625293732 -0.416786551 -0.608471572 1.30307162e-05 39 39 39 0.290664405 
0.460234344 -0.0769164413 0.446889192 0.000875601545 27 27 26 0.696930587 
0.418504983 0.0889141113 0.240132049 0.000766369805 21 21 21 0.617338479 
-0.205813721 -0.27025345 0.071432963 0.000915266864 36 36 36 0.552396894 
0.712963104 -0.286046416 0.576788247 0.000721599732 29 15 7 0.746935844 
-1.21643603 -0.558460116 -1.00214291 0.00121199037 41 41 41 0.139118761 
0.230896726 -0.0412986204 0.0552697629 0.00100548344 9 9 8 0.546174824 
-1.0171026 -0.589024901 -0.68730557 0.000805649033 40 46 83 0.260316908 
0.222569585 0.0138859544 0.123328857 0.000757871661 30 30 30 0.572374463 
0.0851515383 0.0309753381 0.178600907 0.00104882207 30 30 30 0.593651712 
0.283146769 0.340259612 -0.122584693 8.11270729e-05 43 43 43 0.477708876 
-0.0602555461 0.164098516 -0.250157416 0.000735953392 29 29 29 0.428599179 
-0.257485867 0.125184834 -0.0836830884 0.00108521548 39 39 39 0.492684245 
1.43659818 0.128959998 1.05978501 0.0012966604 41 62 100 0.932867825 
-1.2175504 -0.543982923 -0.886874914 0.00129720883 2 4 3 0.183491722 
-0.700843275 -0.642411351 -0.413682073 0.000662275706 116 87 69 0.365649551 
-0.75257057 -0.506416082 -0.345354974 0.000575589365 37 17 3 0.391952395 
0.0640152544 -0.4023453 0.124140881 0.00047083883 19 18 12 0.572687089 
0.829025507 -0.142087236 0.83865124 0.000984284095 13 32 61 0.847741246 
-0.328965932 -0.474046975 -0.108771056 0.000943058578 18 23 19 0.483026505 
0.223066583 0.0161441416 0.0425028279 0.000443143828 32 32 32 0.541260123 
0.636630356 0.0352298655 0.385166377 0.000599659455 12 14 13 0.67317009 
-0.992994666 -0.315049291 -0.940054834 2.95822392e-05 18 18 19 0.163019851 
0.392519176 -0.217196882 0.234224156 0.000736932678 18 18 18 0.615064204 
-1.06473601 -0.540671706 -0.890531719 -0.0015378946 37 37 37 0.182084024 
0.451132864 -0.0267243925 0.368256778 0.000960272679 40 40 40 0.666660666 
0.298975468 0.00831698719 0.129226819 0.000942554907 41 44 49 0.574644923 
-0.504026175 -0.579233646 -0.259046972 0.000927771442 39 22 11 0.425177068 
0.0817828849 -0.320710331 -0.0785599798 0.000954907213 29 42 44 0.494656414 
-1.08901024 -0.546989262 -0.92413491 -0.000510601909 35 35 35 0.169148311 
-1.1368202 -0.4520621 -0.768279731 0.000155313377 31 31 31 0.229145497 
-0.577813029 -0.638199925 -0.556088746 0.000882266206 4 4 2 0.310829431 
-1.23722506 -0.0555910952 -0.915342689 0.000753329019 25 26 25 0.172532916 
0.921791911 -0.154401675 0.848626733 0.00085585966 46 23 19 0.851581395 
-0.854588091 -0.265639216 -0.902494133 0.000506144774 38 36 36 0.177479029 
0.478092968 -0.00380031508 0.352142602 0.00111604913 7 6 7 0.660457432 
0.320878714 -0.360410124 0.367457569 0.000584461028 30 37 41 0.666353047 
-0.562015176 -0.344624311 -0.299880743 0.000513810723 40 40 40 0.409457922 
0.0869141966 0.0593114197 -0.0780562013 0.000842367357 32 32 32 0.494850338 
-0.30619663 -0.19156456 -0.391943812 0.000931029906 9 12 11 0.374017805 
-1.37502682 -0.321056932 -0.911409557 0.000874576392 61 59 81 0.174046993 
1.21185279 -0.0536650158 1.07552421 0.00085849053 31 36 37 0.938926578 
0.18544279 -0.264654845 0.344963372 0.000478227099 22 9 3 0.657693744 
-0.961935043 -0.548409104 -0.659485161 0.000842056819 38 38 38 0.271026492 
-1.12814212 -0.564096808 -0.889067948 -0.00164093683 24 24 24 0.182647496 
-0.504471242 -0.585839331 -0.271283656 0.000989275402 32 36 28 0.420466512 
-0.636003375 -0.362253487 -0.468215764 0.000884866982 42 42 42 0.344656557 
0.212186232 -0.143246427 0.356342912 0.000207795063 16 32 45 0.662074387 
-0.819346309 -0.666611969 -0.537983477 0.0010173273 91 53 7 0.317799151 
-0.561432004 -0.336376578 -0.712032199 0.00079346745 28 28 28 0.250798255 
-0.992828131 -0.597800314 -0.791834712 1.97858317e-05 34 34 34 0.220077902 
-0.36988771 -0.245334208 -0.305157542 8.24568051e-05 25 25 25 0.407426596 
-1.1956259 -0.0483575687 -1.03068459 0.000902646978 33 33 33 0.128131494 
0.914430141 -0.166555747 0.710002482 0.000179158204 38 38 38 0.798217297 
-1.34738171 -0.435656905 -0.812569082 1.05585495e-05 8 12 19 0.21209611 
0.255656302 -0.0288256314 0.166286051 0.000955961412 35 35 35 0.588911057 
0.650144875 -0.212455273 0.462434411 6.57034252e-06 23 23 23 0.702914774 
0.0697946399 -0.26803866 -0.105855122 0.000829442288 45 45 45 0.484149039 
-0.847642303 -0.490191519 -0.499073267 0.000769263541 25 25 25 0.332777828 
-0.930484116 -0.544345915 -0.830124736 0.000950537506 27 27 27 0.205337971 
-0.502051532 -0.237501025 -0.244654372 0.00022726864 19 19 19 0.430717558 
-0.767527521 -0.268123478 -0.859639704 4.97919973e-06 21 9 5 0.193976045 
-1.26071656 -0.350418419 -0.773465872 0.000118246418 26 26 26 0.227149069 
0.219518811 -0.0775488541 0.13396506 0.000935493386 40 40 40 0.576468945 
0.0237541087 -0.138577417 0.0438785143 0.00119533727 42 45 58 0.541789711 
-0.463528037 -0.286134094 -0.44698295 0.00088669837 146 98 97 0.352830231 
0.0050287256 0.244157746 -0.223650813 0.000632135954 29 28 28 0.438803017 
0.684257448 -0.193192482 0.713905573 0.00105048029 26 48 78 0.79971981 
0.377525777 0.107359536 0.239004642 0.000720260025 15 15 14 0.616904438 
-0.449452162 -0.491352528 -0.14828378 0.000977404881 10 14 13 0.467815936 
-0.753200591 -0.0999306738 -0.317149967 0.000264774746 14 18 18 0.402810037 
-0.764819086 -0.690383673 -0.567894995 0.000649855472 62 36 10 0.306284577 
-0.658497453 -0.393095732 -0.512437046 0.000909117167 45 45 45 0.327633381 
-0.622837901 -0.434692115 -0.588392317 -0.00016253021 38 38 38 0.298394024 
-0.30812639 -0.179763988 -0.42200169 0.000762358366 22 22 22 0.362446874 
-0.742780924 -0.372368842 -0.79701364 0.000254667772 55 50 75 0.218084246 
-0.123285666 -0.0994709283 -0.270695478 0.000880465086 11 15 16 0.42069295 
0.306452543 -0.264391333 0.421928793 0.000738613307 31 28 25 0.687321961 
-0.743276477 -0.529884756 -0.347593278 0.000665890577 36 13 2 0.391090751 
-0.793514431 -0.375569165 -0.837678373 0.000828163698 46 45 61 0.202430159 
0.186790556 -0.127782539 0.334139943 0.000914033037 9 20 25 0.6535272 
-0.461918235 -0.52513957 -0.183268845 0.000736226328 87 95 98 0.454348266 
-0.505884826 -0.514250636 -0.182812601 0.00084246567 5 11 8 0.454523891 
-0.107519969 0.0132698482 0.0265957098 0.000855288818 30 30 30 0.53513658 
-1.06281126 -0.528975904 -0.691204607 0.00092125684 17 30 51 0.258815944 
-0.86594075 -0.389986426 -0.723182321 0.000324562861 23 23 23 0.246505961 
-0.980894446 -0.636087358 -0.674140096 0.000988721848 83 14 14 0.265385002 
-0.289980441 -0.130665824 -0.441831052 0.000603484281 37 37 36 0.354813486 
0.610171378 -0.145039499 0.624477863 0.00062355859 31 31 31 0.765294194 
-0.00125788711 -0.367489129 0.1549128 0.000530072721 36 50 70 0.584532917 
-0.68873173 -0.584876835 -0.338020712 0.000751047221 54 30 4 0.394775778 
-1.11244082 -0.0615769736 -1.07951593 0.000431291788 50 50 50 0.109333642 
0.181481138 0.0382619761 0.0578122698 0.000872700475 42 42 42 0.547153533 
0.769132257 -0.24843514 0.708963871 0.000959620113 47 39 39 0.797817469 
0.294819206 -0.0560783297 0.157542184 0.00109758985 25 34 37 0.585545063 
-0.704646766 -0.375544548 -0.610943615 0.000303502369 37 37 37 0.289712787 
0.976440549 -0.141947612 0.888120174 4.8626669e-05 110 29 22 0.866784573 
-0.429792881 -0.57089138 -0.256404489 0.00103582768 22 14 4 0.42619431 
0.365272611 -0.300989598 0.451453775 0.0010081284 55 31 15 0.698687732 
-0.00454162341 -0.143659875 0.0120069347 0.00121903047 15 13 12 0.529520571 
0.653008401 -0.149830282 0.673892677 0.000938431884 37 37 37 0.784316659 
-0.342989534 -0.309812427 -0.0522689596 0.000724182231 30 30 30 0.504777253 
0.178243279 -0.243497878 0.342883676 0.000682597747 61 39 37 0.656893194 
-0.00825538114 -0.169416919 -0.0871942341 0.000844601134 48 45 43 0.49133262 
-0.973490179 -0.519211292 -0.863506734 0.000933355652 40 40 40 0.192487419 
-0.185167715 -0.279741526 0.0949711055 0.000163083314 26 23 29 0.561457992 
0.363357455 -0.221423268 0.185409486 0.000829978148 32 32 32 0.596272767 
-1.11742365 -0.497215301 -0.745932162 0.000787732366 20 26 43 0.23774831 
-1.01742959 -0.485329151 -0.992415369 8.50136712e-06 15 15 15 0.142863423 
-0.133305416 -0.0715116262 -0.261927187 0.000927978603 47 52 60 0.424068362 
-1.20570993 -0.5409199 -0.948792517 -0.0019746616 35 35 35 0.159656242 
-0.283771247 -0.128106967 -0.42864117 0.00107562193 33 36 28 0.359890968 
0.4704431 -0.130779192 0.475710988 0.000966274645 39 39 39 0.708025694 
-0.774854064 -0.466296554 -0.676712692 0.000990594155 26 26 26 0.264394671 
0.100357853 -0.246756688 0.284933984 0.000454714143 39 40 74 0.634585202 
0.340947121 -0.25303182 0.171207532 0.00125290023 30 30 30 0.59080559 
-0.185678199 -0.175315663 -0.216127679 0.000912793679 14 22 33 0.441699088 
1.42223632 0.0954332948 1.13576221 0.000213565421 3 3 3 0.962115526 
0.601131022 -0.127921492 0.439944923 0.000700749108 27 27 27 0.694257379 
-0.240361989 -0.327539682 0.0234065615 0.000985198538 39 39 39 0.533908904 
-0.00688961288 0.230670139 -0.227646932 0.000728613231 26 26 24 0.437264681 
-1.10093546 -0.160276458 -0.993118107 0.00055316533 29 29 29 0.142592892 
0.880723417 -0.0934644267 0.879342735 0.000497744302 27 27 27 0.863405645 
0.375444621 0.0122422585 0.262494683 0.000475928595 15 15 16 0.625947058 
0.399120897 -0.10743618 0.299372464 0.000854779151 35 35 35 0.640143275 
-0.916373014 -0.499980539 -0.807150006 0.000572735677 34 34 34 0.214182213 
-0.126885831 -0.182072103 -0.064656958 0.000696828065 33 39 48 0.500008464 
-0.733455718 -0.443970144 -0.620018959 4.13064408e-05 26 26 26 0.286219209 
-1.02295411 -0.494905889 -0.676151693 0.00112077896 43 43 43 0.264610618 
-0.207513809 -0.223978624 0.0811698586 0.00104114774 31 51 84 0.556145191 
0.976102889 -0.141563401 0.860315859 0.00123233849 28 28 28 0.856081128 
0.0181801394 -0.0835577697 -0.0884978101 0.000886899536 32 32 32 0.490830809 
-1.38702559 -0.440754384 -0.830702364 1.66402169e-05 8 8 8 0.205115616 
1.36103332 0.0133219529 1.0097506 0.000458885246 31 31 31 0.913606763 
-0.82948643 -0.38386029 -0.732199848 0.000676028954 28 28 28 0.243034631 
0.675461471 -0.289905429 0.655202925 0.000278061314 24 16 13 0.777121902 
0.712304175 -0.300782025 0.631282508 0.000953425653 15 12 8 0.767913699 
-0.0312621109 -0.134143457 0.164379299 0.00101438235 36 36 36 0.588177085 
-0.628903985 -0.31137827 -0.293837428 0.00106039981 84 57 57 0.411784321 
-0.568815947 -0.291727334 -0.227439463 0.000899688341 20 16 14 0.437344581 
-0.866491914 -0.0560706258 -0.994495392 0.000795769331 35 39 46 0.142062709 
-0.0422390588 -0.134028852 -0.214336559 0.000865916722 22 33 35 0.442388594 
0.377192229 -0.0680301562 0.269634128 0.000820293906 25 16 16 0.628695428 
0.474082321 0.122717693 0.288161337 2.26892298e-05 18 25 34 0.635827541 
1.27433062 0.0415002033 1.20263755 0.000681445003 1 1 1 0.987859488 
-0.150481775 -0.0165827908 -0.271116793 0.000870962103 52 52 54 0.420530766 
-0.800516248 -0.453070253 -0.714729428 0.000674677314 59 68 77 0.249759942 
-0.11714258 -0.150548264 0.0397517607 0.00077086332 12 18 24 0.540201068 
0.397657663 -0.332621902 0.281653494 0.000446928083 32 32 32 0.633322299 
-1.03465545 -0.459124029 -1.04443502 -0.000129433261 4 9 9 0.122838207 
-0.0293055102 -0.0177734755 -0.140958309 0.0010044761 25 25 25 0.470635891 
-0.429382771 -0.25936228 -0.361988217 0.000756534457 21 21 21 0.385549366 
-0.323624015 -0.238482267 -0.0174581707 0.000761807547 39 45 64 0.518177807 
-0.488493919 -0.383421838 -0.114781402 0.000830248464 22 26 8 0.480712801 
-0.110980541 0.014915606 0.0771235749 0.000418829994 24 24 22 0.554587543 
-0.597473502 -0.560696185 -0.25796777 0.000630786351 62 55 23 0.425592542 
0.146726221 -0.175458431 -0.0327839777 0.000597617007 40 40 40 0.51227808 
0.408119261 0.0463494807 0.245720714 0.000910086383 59 61 62 0.619489849 
0.0879668295 0.322485834 -0.193627357 0.00112616399 25 25 25 0.450360686 
-1.03355658 -0.575862825 -0.815600574 0.000188908307 24 24 24 0.210929126 
0.891206801 -0.17405279 0.686871648 0.00103908894 12 20 22 0.789313018 
0.143889531 -0.371942312 0.220110655 0.000488410704 11 14 12 0.609631121 
0.0202835724 -0.133894205 0.0857615173 0.00112786202 33 33 33 0.557912767 
0.666272819 -0.200487256 0.701531053 0.000989527092 63 64 80 0.794956207 
-0.0142473653 0.042583324 0.0860712826 0.00017947919 24 24 24 0.558031976 
0.341463059 -0.246118098 0.448251992 0.000984802842 21 17 12 0.697455168 
-0.3868635 -0.133613944 -0.595889926 0.00119298964 37 25 20 0.295507789 
-0.168162584 -0.191084027 -0.0337639377 0.00118154811 21 27 36 0.511900902 
0.250732541 -0.34106788 0.342833072 0.000997377909 13 26 35 0.656873643 
0.194373488 -0.0488130413 0.105515473 0.000931203715 46 46 46 0.565517128 
-0.678771913 -0.373505145 -0.761265039 0.00116694567 56 54 58 0.231845841 
-1.17947853 -0.537824512 -0.991817951 -0.00169389148 4 4 4 0.143093392 
-0.866379499 -0.424960315 -0.567426383 0.000574810489 85 79 80 0.30646497 
-0.107059158 -0.279346675 0.144010484 0.000977749471 26 33 63 0.580335975 
0.167278886 -0.0702845231 0.0504331551 0.000574232196 35 35 35 0.544312954 
-1.08750272 -0.529509842 -0.908641994 2.80993409e-05 23 23 23 0.175112382 
-0.906129241 -0.276335806 -0.449938536 0.00123343174 37 50 41 0.351692468 
0.0825186968 -0.401991695 0.130969122 0.000781752693 11 16 15 0.575315654 
-0.121196553 -0.309600025 0.119156457 0.00121076335 29 29 29 0.570768297 
-0.326854378 -0.318369359 -0.0329111665 0.0012461798 39 39 39 0.512229145 
0.858591259 -0.166945994 0.651468456 0.000514964224 50 51 52 0.775684357 
-0.550111055 -0.347185463 -0.274083138 0.000637030636 28 28 28 0.419388831 
-0.0306225885 0.177608356 -0.245552644 0.000722013647 38 38 38 0.430371791 
-1.04113865 -0.482691258 -0.689472079 0.000394819246 31 36 53 0.25948289 
-0.245991126 -0.273912996 0.0586751886 0.00104779925 41 44 76 0.547485769 
0.554827929 -0.300317317 0.581421077 0.000862775953 55 48 39 0.748719275 
-0.249565333 -0.233783811 -0.018322574 0.000959229248 25 25 25 0.517845094 
0.394558966 -0.0432573333 0.370278299 0.000921230472 23 23 23 0.667438865 
-0.398338348 -0.126080215 -0.614718676 0.0011830962 13 12 7 0.288259566 
-0.518152356 -0.266194224 -0.184226871 0.00091658975 18 22 35 0.453979433 
-0.338039339 -0.481474876 -0.118410327 0.00101887388 50 39 21 0.479315817 
-0.0406918861 -0.29317525 0.175707161 0.00096805155 70 44 34 0.592537761 
0.166314572 -0.0647570863 0.0817028955 0.000948050409 28 28 28 0.55635041 
-0.930368483 -0.609393418 -0.754516959 0.000929463771 37 37 37 0.234443545 
