ply
format ascii 1.0
comment created by gply, a Houdini tool.
comment converted from .[b]geo
comment for more information about Houdini, try:
comment www.sidefx.com
element vertex 605
property float x
property float y
property float z
property float depth
property uchar red
property uchar green
property uchar blue
property float length
element face 0
property list uchar int vertex_indices
end_header
0.0151345711 0.000360406819 -0.0146744587 0.000658323173 3 3 3 0.78245014 
0.011478086 -0.00293951761 -0.0132437106 0.000284107809 23 22 13 0.754911423 
-0.00663062325 0.00449953368 -0.000224721618 0.000924899767 54 45 75 0.50432533 
-0.0213608444 -0.00140906987 0.0198207293 0.000852729427 14 15 15 0.118495755 
0.0033708727 0.00134835078 -0.00602846825 0.000795922591 31 31 31 0.616034329 
0.00245054951 0.00159700343 -0.00623019878 0.000163650169 44 44 44 0.619917214 
0.00283957692 0.000789447105 -0.00382259954 0.00112198736 38 38 38 0.573576391 
0.0093224002 0.00391102396 -0.0108719608 0.000962892489 34 19 15 0.709260643 
-0.0186827071 0.00588084664 0.0196646433 2.43564427e-05 36 31 27 0.121500045 
-0.00162585021 0.00699722487 0.00143081753 0.000785499054 6 12 10 0.472459972 
-0.0115774348 0.00587968389 0.0129835084 6.41736842e-05 43 38 42 0.250096768 
-0.00404802896 0.00793377589 0.00148437812 0.00106746063 22 12 2 0.47142905 
-0.00814211275 0.00693716388 0.00120675785 0.000611219963 19 20 13 0.476772577 
-0.0106286677 0.00588301057 0.00281007355 0.00087228202 32 24 2 0.445912391 
0.0128002539 0.00122822321 -0.013977685 0.000981821097 32 21 14 0.769038856 
-0.000615985948 0.00297363661 -0.00436020223 0.000754812616 30 33 24 0.583923995 
-0.0143900085 0.00346598681 0.0161597989 3.10620453e-06 17 21 9 0.188960388 
-0.0125768604 0.00118964224 0.0172868054 0.00069355435 27 27 27 0.167268053 
0.0268651079 -0.000950339367 -0.0208335426 0.00042608357 41 54 79 0.900998533 
0.00354064675 0.00078537676 -0.00340793794 0.00121404137 26 26 26 0.56559509 
0.0272307452 -0.00144796248 -0.02346237 0.000465841324 32 32 38 0.951597631 
-0.0210567582 -0.00103788893 0.0203293841 0.000634972937 26 26 26 0.108705312 
0.000194355496 0.00197544647 0.000851430115 0.00105337671 43 37 38 0.483611882 
-0.00145540212 0.00327468757 -0.00375981256 0.000328360242 29 29 29 0.572367847 
-0.0233757216 0.0086290054 0.0175306816 -4.46994673e-05 2 2 2 0.162574008 
-0.00808599405 0.00358380005 0.0106433015 0.000932572177 51 60 56 0.295140475 
-9.76447482e-05 0.000780546921 0.00329634827 0.000836922263 20 31 32 0.436552733 
0.00594035164 0.000862192945 -0.00671111513 0.00047408609 31 31 31 0.629173756 
-0.00599953346 0.00292691123 0.00615167757 0.000725254416 24 24 24 0.381594092 
-0.00421102019 0.0022140122 0.00245754188 0.000208014448 31 31 31 0.452697873 
0.00813463144 0.00167959754 -0.0103476383 0.000598841347 43 33 30 0.699168622 
-0.0230232086 0.00739978999 0.0144727891 0.000860156317 40 40 40 0.221431494 
0.0229103155 0.000522153801 -0.0199066978 0.000891841773 9 8 6 0.883158922 
-0.0205539353 0.0088281706 0.0164040532 -0.0021584332 4 4 4 0.184259027 
-0.0165123567 0.00359544856 0.0175320376 0.000654449337 48 60 93 0.162547901 
-0.00753366062 0.00101506093 0.0122419633 0.000705146056 57 49 45 0.264369845 
-0.00494677527 0.00670244824 -2.56969361e-05 0.000926875276 44 29 26 0.50049454 
-0.01566929 -0.000124547398 0.0184991602 0.000782976218 48 48 48 0.143932983 
0.000823659997 -0.00600778032 -0.00465822686 0.000755964429 3 3 2 0.589660287 
0.0039497884 0.00161295303 -0.00739217782 0.000484046817 12 21 31 0.642282724 
0.0264308043 -0.000720760552 -0.0215314701 0.000964073522 12 18 22 0.914432049 
0.0076876604 -0.00383416354 -0.00760537991 0.000104405917 34 34 34 0.646386325 
0.0126322526 -0.000666935812 -0.010400991 0.00107769144 44 39 39 0.700195491 
0.000626914669 0.00205650507 0.00103968347 0.000710069842 48 48 48 0.479988396 
-0.0123983435 0.00566521753 0.00483639445 0.000858261716 37 27 16 0.4069103 
-0.00683091907 0.00173684221 0.00116991031 0.00133201084 4 8 6 0.477481812 
-0.0118421139 0.0012589168 0.00563988276 0.000711701578 33 33 33 0.391444981 
-0.0122824041 0.00672985241 0.00422330573 0.00103226793 40 25 2 0.418710858 
-0.0186930615 0.00886456389 0.0176791959 0.00115660811 1 1 1 0.159715414 
-0.00276550232 -0.000895091682 -0.000442157674 0.000176576577 28 35 34 0.50851053 
0.0132175535 0.000995590235 -0.0143382838 0.000906745205 14 15 11 0.775979519 
-0.0207559429 -0.00036430289 0.0116622858 0.000825894705 59 48 48 0.275527328 
-0.0121697774 0.00813570153 0.0121408366 0.000978792086 39 39 39 0.266316295 
-0.0112139247 0.00563758239 0.012307954 0.000294141122 15 10 6 0.26309967 
0.0120322322 -0.000181525596 -0.0110407434 0.00054323551 38 38 38 0.712509334 
-0.00572797796 0.00618324894 0.00765427621 0.000706930063 25 25 25 0.352672458 
-0.016305346 0.00903088227 0.0147734927 0.00098131143 38 38 38 0.215643629 
0.000522828021 0.0011138519 -0.00209911121 0.000578406849 26 37 40 0.540403068 
0.00037523685 -0.000156096998 -0.00264349207 0.000564166578 38 38 38 0.550881207 
-0.0165608171 0.00593909156 0.0179892499 -4.13501402e-05 49 49 49 0.153747588 
-0.011993398 0.00602598488 0.00913933385 0.0011285661 27 27 27 0.324088454 
-0.0184955653 0.00882843602 0.0152928857 0.000141173063 25 25 25 0.2056465 
0.00724066561 0.00192074559 -0.00413551321 0.000526379445 40 40 40 0.579599261 
0.00801820308 0.00494880974 -0.00930051412 9.96893796e-05 18 30 46 0.679013848 
-0.00416131224 0.00236520637 0.00586378714 0.000667128421 14 14 17 0.387135327 
-0.0134027498 0.0057996246 0.0119069749 0.000188874648 52 52 52 0.270817637 
-0.00652887905 0.00487477891 0.000401518075 0.000886824739 24 24 24 0.492271632 
0.00403289543 0.000816661748 -0.00353713566 0.000758632086 21 21 21 0.568081856 
0.000871663506 0.00416866643 0.00253321975 0.00102653157 28 28 28 0.451241225 
-0.0148517769 0.00691471621 0.0141040133 0.00029432372 79 75 120 0.228529587 
8.49968055e-05 -0.00366258924 -0.00263205566 0.000171612133 39 39 39 0.550661087 
-0.0197643135 0.0090496717 0.0144726234 2.44513212e-05 35 35 35 0.221434668 
0.00813967269 -0.000122162281 -0.00654672692 0.000698542339 17 17 17 0.626009703 
-0.0180964563 0.0114123784 0.0133547196 0.000454852969 40 39 30 0.242951795 
-0.0167175457 0.00978261605 0.0139714275 0.00102339347 43 43 43 0.23108156 
0.00892858952 -0.0039131362 -0.0103454739 0.00073333364 87 75 82 0.699126959 
-0.0237902254 0.00675974786 0.0147084454 -4.16264302e-05 38 38 38 0.21689564 
0.00326266908 0.0039365273 0.000390356057 0.000611617346 30 38 48 0.492486477 
-0.0134556228 0.00673001725 0.00730431033 0.000948441273 34 34 34 0.359408498 
-0.0140488297 0.000956862816 0.0183245782 0.00068282563 33 33 33 0.147293285 
0.00164921547 0.00107731891 0.00185284775 0.000775629422 14 15 13 0.464336842 
0.0260629281 -0.000629688031 -0.020406412 0.000615436584 46 64 99 0.892777205 
-0.016607549 0.0067115156 0.0111344252 0.000137327137 41 32 33 0.285687447 
-0.00805570744 0.00489557115 0.0076721278 0.000988683896 34 34 34 0.352328867 
-0.00970466435 0.00478894403 0.00718254643 0.000885211455 35 35 35 0.361752182 
-0.0284997281 0.00591187133 0.0159150735 0.00012065818 3 3 3 0.193670809 
-0.0114206932 0.00461199461 0.0149780596 0.000507892983 35 35 35 0.211706176 
-0.000616378034 0.00599081069 -0.00284361979 0.000828697637 49 52 61 0.554733217 
0.0293464549 -0.00280138617 -0.0223570783 0.000320027117 2 2 2 0.930323184 
-0.0120774284 0.00621780567 0.00959379971 0.000897925696 34 34 34 0.315341026 
0.00994178839 -0.000477607478 -0.0101608513 0.0010303423 105 104 118 0.69557339 
-0.0161740091 0.00817696005 0.0091756247 0.000967561966 25 25 25 0.323389918 
-0.0129329069 0.00672751013 0.00645954162 0.000846367446 18 18 18 0.375668377 
0.00378673524 -0.000157292001 0.000329904025 0.00105108554 32 36 43 0.493650079 
0.00654891599 0.00538462866 -0.00755915092 0.00102544192 19 20 23 0.645496547 
-0.0102914106 0.00352877798 0.00409988174 0.00118399668 64 10 4 0.42108649 
0.0150031634 0.00216126814 -0.0111215962 0.00053908769 33 52 56 0.714065552 
0.00513169263 0.00113604136 -0.00333229639 0.00107769715 24 21 20 0.564139128 
0.0144119607 0.00294745108 -0.0148761077 0.000992147718 29 36 46 0.786331415 
0.00335360505 -0.0031506517 -0.00529789086 0.000650011585 17 32 31 0.601972401 
0.00729431445 0.00397790782 -0.0094791837 5.51357516e-06 48 48 48 0.682452798 
-0.00267133117 0.00227026735 0.00384826679 0.000713567366 36 36 36 0.425929517 
-0.0177709218 0.00888654497 0.0115014445 0.000917463505 41 41 41 0.278623164 
-0.0235828105 0.00873652101 0.0177660696 0.000518634159 25 24 23 0.158043295 
0.0111545427 0.00287237205 -0.0125860935 0.000860331464 43 56 71 0.74225384 
-0.00982717425 0.00538178068 0.00887742825 0.00107599213 39 39 39 0.329129547 
-0.00988652371 0.00913524535 0.00338793686 0.00098342658 54 47 24 0.434789866 
-0.0169461891 0.00413791416 0.0178717077 0.000513794483 26 26 26 0.156010017 
-0.0150863044 0.000511965365 0.0182288345 0.000671821588 32 42 30 0.149136126 
0.000892562675 0.00596372131 -0.00340536144 0.000751297805 41 45 59 0.565545499 
0.00841485895 0.000991609995 -0.00461141393 0.000938812853 16 21 20 0.588759243 
0.00827143993 0.00521527929 -0.00915202871 -7.65844015e-06 30 53 85 0.676155806 
-0.0240798667 0.00382010639 0.0238240864 0.000157851377 13 13 13 0.0414401665 
-0.0119412839 0.00656703301 0.0102155106 0.000699965924 43 43 43 0.303374499 
-0.0198445022 0.00821118709 0.0138376169 0.00094307703 34 34 34 0.233657122 
-0.00622435659 0.00432050461 0.000427632243 0.000999171752 46 46 46 0.491768986 
0.00435067015 -0.00156512577 -0.0063461531 0.00107254786 24 33 43 0.62214905 
0.0119375838 -9.34650889e-05 -0.0089002233 7.79466936e-05 9 8 7 0.671309173 
0.000687165768 0.0013929609 -0.000537703396 0.000952943286 26 26 26 0.510349512 
0.0166245978 0.00205620285 -0.016270278 0.00100184779 3 10 17 0.813166022 
0.029694099 -0.00408255635 -0.0218776669 0.000161335556 36 36 36 0.92109561 
-0.00999120157 0.00598595385 0.00947174709 0.000955724332 29 29 29 0.317690253 
0.0153589286 0.00281279441 -0.0117001943 0.00079384027 27 16 9 0.725202203 
0.0155820204 0.00292783836 -0.0153977424 0.000751731452 19 23 28 0.796371639 
0.00330338813 -0.00129348203 -0.000629090646 0.000379674777 22 21 20 0.512108564 
-0.00866490789 0.00339153875 0.0020232969 0.000745580124 40 43 64 0.461056083 
0.00177703646 0.00166651548 -0.0058832448 0.000733171997 10 27 40 0.61323911 
0.0155245066 0.000181959826 -0.0143815419 0.00122133398 24 24 24 0.776812196 
-0.0174688566 0.00319049507 0.0179836228 0.000919471437 34 31 23 0.15385589 
-0.0131674614 0.00723474659 0.0116374614 0.00103099784 28 28 28 0.276005149 
0.00657231919 -0.000221351162 -0.0081996182 0.00111805706 56 65 75 0.657824039 
-0.0132124163 0.00706711691 0.0133356182 0.000243625254 27 27 27 0.243319467 
-0.0031363098 0.00719412882 0.00590743031 0.000880762353 12 10 5 0.386295319 
-0.0101642124 0.0110888472 0.00920834299 0.00103120832 21 18 12 0.322760165 
0.00140711863 -0.00281166798 0.00223784149 0.0011267775 22 22 22 0.456926554 
0.0201913677 0.000994824455 -0.0164251309 0.000675013347 31 31 31 0.816146553 
0.0122153629 0.00255217077 -0.00854445621 0.000832167047 20 24 24 0.664461434 
-0.00365557475 0.00520526618 -0.00134900992 0.000341158593 15 9 7 0.525965333 
-0.00325934496 0.00212858431 0.000924297259 0.00118650554 25 25 25 0.482209325 
0.0103541603 0.00422931788 -0.00756467879 0.000939916179 48 48 53 0.645602942 
0.00575308874 0.00257408852 -0.0019922941 1.03119819e-05 28 28 28 0.538347125 
-0.017910691 0.00299957395 0.0187905282 0.000743637036 15 15 14 0.138324812 
0.00187623664 0.00435860828 0.00180139847 0.000920718769 37 31 37 0.465327114 
-0.0107794041 0.00492179208 0.00640870724 0.00107147102 48 48 48 0.376646847 
0.00947601441 0.00144196686 -0.0113944383 0.00068742811 11 9 4 0.719317138 
-0.00137621129 0.00441989023 0.0040690233 0.000876581413 44 44 44 0.42168045 
-0.0125855077 0.00785757415 0.0124297822 0.000838616921 26 26 26 0.260754764 
-0.0245727003 0.00892739464 0.0202064235 0.000703279569 45 45 45 0.111072011 
0.0146765364 -0.00252129743 -0.00920186564 0.00082438573 32 32 32 0.677115083 
-0.00328431604 0.00408567348 0.0051704729 0.000967880595 33 33 33 0.400480062 
-0.0132736526 0.00692286622 0.0108742286 1.29706459e-05 24 24 24 0.290695637 
-0.00616581272 0.00675042626 0.00807370618 0.000918475154 41 41 41 0.344599366 
-0.00399054913 0.00482232869 -0.00118506409 0.00101620553 27 27 27 0.522809744 
0.0132392291 -0.00321483938 -0.00809998345 0.000804933661 28 28 28 0.655906379 
0.01064541 -0.000736303278 -0.00910413917 0.000624277338 30 30 30 0.675234079 
0.00543340202 0.000776828849 -0.00496120285 0.00118156476 27 27 27 0.595491946 
-0.0233099107 -0.00141673966 0.017718412 0.000839872519 27 27 27 0.158960596 
0.010499265 0.00372002088 -0.0118216947 0.000993249705 103 85 100 0.72754091 
-0.00114307681 0.0013196884 -0.00380036701 0.000939221645 18 27 37 0.573148429 
0.018170204 0.00216073776 -0.0159436334 0.000566699542 5 14 32 0.806878865 
-0.000337649137 0.00660888292 -0.0016086197 0.000438758463 27 36 46 0.530962229 
0.0108412113 0.0017393505 -0.0124696642 0.000984079437 34 50 80 0.740012825 
0.0073151486 -0.00203524297 -0.00447073439 0.000720125507 18 26 28 0.586051464 
0.0032842597 -0.00352712953 0.000463453936 0.000819059322 47 47 47 0.491079539 
0.00317070936 0.00613572914 -0.00277163554 0.00117436075 8 13 12 0.553347707 
0.0117891263 0.00221995823 -0.0130216265 -4.46371268e-06 15 15 15 0.750636876 
-0.0173774082 0.0116184009 0.0126827788 0.000875996833 31 28 34 0.255885154 
0.0204887409 0.000770622748 -0.0191690773 0.00029919701 36 36 36 0.868961394 
0.00534234708 -0.00275450386 -0.00159587688 0.000505418342 20 20 20 0.530717015 
-0.00292177871 0.0021412964 0.00102659746 0.00106841582 45 45 45 0.480240285 
-0.0199866667 0.00186928723 0.0184203405 0.000495415123 40 36 31 0.145450085 
-0.0243009087 0.00675788987 0.0148296738 1.05710351e-05 26 26 26 0.214562267 
-0.0165933389 0.00373762473 0.00738196028 0.00097210746 23 25 17 0.357913941 
0.00332623255 -0.00305802422 -0.0047339974 0.000718418974 38 38 38 0.591118753 
-0.0205517132 0.00800901931 0.0213250853 0.000381320657 31 31 31 0.0895402879 
-0.000732343993 -0.00826823618 -0.00448346278 0.000850005483 28 28 28 0.586296499 
0.0230603013 0.000198763912 -0.0179098547 0.000291097647 87 48 60 0.844724119 
0.00397806894 0.00523723802 -0.00599262677 0.00045155338 15 20 26 0.615344465 
0.0145589318 0.00438842317 -0.013612479 6.95810813e-05 30 23 17 0.762009442 
0.0263598822 -0.00526694022 -0.0257735644 0.00112256571 65 89 137 0.996082842 
0.0140247904 0.000850413577 -0.0150154801 0.0010213753 29 15 13 0.789013982 
0.0230490733 0.00032852951 -0.0205246191 0.00104583614 19 35 54 0.895052433 
-0.0112256827 0.00589907682 0.00535050454 0.00090307137 33 33 33 0.397014856 
-0.0213187709 0.00906151906 0.0168466475 -5.54322032e-05 29 29 29 0.175740093 
-0.0149719231 0.00595167838 0.0125930905 0.000617514364 41 41 41 0.257611424 
-0.0143735763 0.00638875738 0.0105733043 0.00108574098 34 34 34 0.296487778 
-0.00669641374 0.00324815838 0.000242385431 0.000830049452 75 89 137 0.495334625 
-0.0178972669 0.00376749132 0.0178031698 0.00044244848 19 18 14 0.157329217 
-0.000501758652 0.00469334796 -0.00391453691 0.000970488472 20 37 49 0.575345933 
0.0111221774 -0.000319369836 -0.00928955898 0.00115496968 40 40 40 0.678802967 
-0.0192907862 0.00776757952 0.0125808017 0.000827483716 46 55 80 0.257847965 
-0.0175490696 0.00886526611 0.0159897394 0.000637874356 39 39 39 0.192233667 
-0.00918863434 0.00498834392 0.00839642435 0.000859197229 11 7 7 0.338387787 
0.000422727142 -0.00199610065 -0.0027455478 0.000328782859 14 14 14 0.552845597 
-0.0227507129 0.00941516738 0.0175586417 -4.22418598e-05 34 34 34 0.162035808 
0.00103566993 0.00448211329 -0.00491651008 0.00101931312 36 40 43 0.594631672 
-0.00787436962 0.0059136604 0.00847298931 0.000874074118 33 33 33 0.336914092 
-0.0184344109 0.00729423203 0.0104106711 0.000774563116 35 35 35 0.299618065 
-0.00617148587 0.00300103286 0.00558359642 0.000861638284 39 39 39 0.392528355 
0.00923073851 -0.00241826428 -0.00916570891 0.0010560368 45 43 48 0.676419139 
0.0151458485 -5.51876146e-05 -0.0155555382 0.000826441392 37 45 46 0.799408853 
0.0147207147 0.000539177214 -0.0120056933 0.000948761473 27 27 27 0.731082439 
0.0101674125 0.00418962352 -0.0113220885 0.00100880943 23 17 10 0.717924595 
-0.0191001929 0.00748029817 0.0190182719 -2.97531078e-05 6 8 8 0.133941248 
0.00424887752 0.000851975405 -0.00743456371 0.000781663228 22 29 30 0.643098533 
-0.00300783664 0.00391593063 -0.00280741369 0.000862691959 31 19 17 0.554036319 
0.00802898034 4.79016453e-05 -0.00990140811 0.000831554818 22 28 29 0.690579712 
-0.018148927 0.00875448529 0.01194211 0.000772663101 33 33 33 0.270141333 
-0.0217393879 0.00624517538 0.0253757872 0.000761030591 1 1 1 0.011573459 
-0.00561297312 0.00148830295 0.00795058534 0.000951881811 37 37 39 0.346969187 
0.00700948434 0.000670832233 -0.00936241355 0.000919208047 7 12 13 0.680205226 
-0.000285039889 0.00102763146 0.00151671993 0.00107615616 41 41 41 0.470806539 
-0.0194169767 0.00900040194 0.0186938532 0.00099706219 2 2 2 0.140185565 
-0.00616077147 0.00625863671 0.00795010198 0.000545519986 35 35 35 0.346978486 
-0.00826932304 0.00287949247 0.00383697636 0.00108577544 29 29 29 0.426146865 
-0.00915920082 0.00401778938 0.00216047326 0.000477411901 9 19 30 0.458415747 
-0.0171562675 0.00657754671 0.0105053307 0.000358719437 45 45 45 0.2977961 
-0.0218842775 0.00861741416 0.0162124336 -2.51929159e-05 34 34 34 0.187947288 
-0.00431833649 0.00154091592 0.00420841295 0.000970083347 4 13 28 0.418997526 
0.000441254932 -0.00498801004 0.00346072624 0.000225331285 29 29 29 0.433388829 
0.0258358438 -0.00295295939 -0.0252612643 1.88054983e-05 3 9 10 0.986222208 
-0.0180700906 0.00892003812 0.0141060306 -5.01476461e-06 41 41 41 0.22849077 
-0.00189329719 0.00537822396 0.00471742777 0.00128106528 36 36 36 0.409200162 
-0.00719135394 0.00369647937 0.00537879765 0.000772132189 39 39 39 0.396470279 
0.00734236464 -0.00137705461 -0.00360939465 0.000781017472 66 69 79 0.569472671 
-0.00242482265 0.00139750249 0.00322901132 0.00104782195 31 36 46 0.437848806 
-0.0232790466 0.00876779389 0.0174596943 -9.27422661e-06 28 28 28 0.163940325 
-0.0257947128 0.00727820117 0.0152981104 0.000217430454 34 34 34 0.205545932 
0.0111291017 -0.000904996879 -0.00764215365 0.000619496102 18 29 30 0.647094131 
-0.0108563919 0.00957688596 0.00422149524 0.000826638832 118 126 51 0.418745726 
-0.00618172064 0.00163586612 0.000561962021 0.000907706039 12 27 54 0.489183456 
0.0114477938 -0.00414134003 -0.00736134406 0.000294825935 32 32 32 0.641689181 
-0.0110493405 0.0018519765 0.0158495679 0.000504288648 33 33 33 0.194931611 
0.0111420695 -4.52528475e-05 -0.0113474866 0.000195835586 25 25 23 0.718413413 
-0.0131712062 0.00625762343 0.00533297192 0.000994292321 34 28 19 0.397352338 
-0.0178813431 0.00926868804 0.0103624454 0.000971707923 132 62 78 0.300546318 
0.0075096814 -0.00379918329 -0.00747472653 0.000792820356 28 28 28 0.643871546 
0.00519331545 -0.00149573002 -0.00166952866 0.00033913381 31 28 27 0.532134593 
0.0162927061 0.00366386166 -0.0148358727 0.000528332312 18 12 7 0.785556972 
-0.0232339986 0.00893127266 0.017266389 0.000984713901 37 37 37 0.167661026 
-0.00499289855 0.00828531012 0.00177109905 0.00106405548 22 19 4 0.465910286 
-0.00633598072 0.00903096981 0.00298338337 0.00110716478 22 14 2 0.442576587 
-0.0229172092 0.00744426716 0.0141620133 7.20037497e-06 24 24 30 0.227413222 
-0.0226227399 0.00888682716 0.0180799346 -3.52890347e-05 29 29 29 0.152002111 
0.00887881778 -0.00368688628 -0.00650760345 0.000849162228 39 39 39 0.625256598 
0.00448797131 0.00183381408 -0.00727137038 0.000890945899 28 28 28 0.639957428 
-0.00470327074 0.0040114969 -0.000862182176 0.000811251579 29 29 29 0.516595066 
0.004484531 -0.000156732625 -0.00738395564 0.00103195128 12 13 12 0.642124414 
0.0279169139 -0.00272042723 -0.0249724891 0.00126749475 1 3 3 0.980663896 
-0.0040093055 0.00240337662 -0.00155243766 0.00066182157 24 48 81 0.529880881 
-0.00234417943 0.000266994932 -0.00238998001 0.000674014853 12 7 5 0.546001673 
-0.00159325066 -0.00266968412 0.00379445916 0.000909546914 32 32 32 0.426965207 
-0.0100398334 0.00687698089 0.0101952935 0.000960258942 26 26 26 0.303763598 
0.00412690826 0.00177690934 -0.00754940696 0.000824322982 12 18 12 0.645308971 
0.0121017769 -0.000418035197 -0.0117969029 0.00101074215 23 24 23 0.727063656 
5.70402481e-05 0.0061439611 0.0016272472 0.000933292205 35 35 35 0.46867913 
-0.00351756951 0.00253450125 0.00441552186 0.000783511903 17 17 17 0.415011138 
-0.0140193217 0.00676466711 0.0125968615 0.000749819505 58 66 94 0.257538855 
0.00705175241 -0.000852152589 -0.00707746018 0.00101999042 22 22 22 0.636225104 
-0.0219974015 0.00910388213 0.0183215309 0.000840930676 28 28 28 0.147351936 
-0.0018927356 0.00451881438 0.00448240666 0.00100639055 42 42 42 0.413723797 
0.00309072016 0.00376073876 -0.00652456935 0.000831238984 55 29 20 0.625583172 
-0.0171349607 0.00414298801 0.0176503062 1.45209196e-05 35 22 18 0.160271496 
-0.0217358693 0.00225860579 0.0136639606 0.000476760062 19 17 12 0.236999616 
0.0264804978 -0.00101991801 -0.0227942001 0.000851305376 10 9 9 0.938736796 
-0.0136800809 0.00618506502 0.0101918075 0.00144892954 22 22 22 0.303830713 
-0.0188160036 0.00863827299 0.014100912 4.39558644e-05 34 34 34 0.228589296 
0.00314051146 0.00217746291 -0.00688299863 0.000669666566 26 43 58 0.632482111 
-0.00611872599 0.000439546653 0.0103625776 0.0010893147 51 23 14 0.300543785 
0.011611362 0.000630417257 -0.0122178448 0.000951765338 15 15 15 0.735165834 
-0.0243159495 0.00770538021 0.0192807652 0.0011134469 2 2 2 0.128888831 
-0.00903621502 -0.000290440978 0.00300440239 0.000567112991 29 29 29 0.442172021 
-0.00169351615 0.00225443626 -0.00294668972 0.000654003234 42 42 42 0.556717098 
-0.00634994404 0.000638981699 0.0102821914 0.000761812727 52 44 41 0.302091032 
0.00660622772 0.00074715435 -0.00617400464 0.000767251477 31 31 31 0.618835628 
-0.0252400097 0.00697616488 0.0149874436 -4.49758663e-05 47 47 47 0.211525559 
-0.00233809929 -0.00199351157 -0.00191172166 0.000854816462 26 34 30 0.536796331 
0.00523013808 0.000720102456 -0.00547817443 0.000953704584 42 42 42 0.605442405 
-0.00019675924 0.000727939303 0.00108438765 0.000946857734 24 24 24 0.479127944 
0.0114311958 0.0015225237 -0.0123740677 0.000989016378 24 24 24 0.738172829 
-0.00679700309 0.00146701222 0.00225193473 0.000574948092 12 17 22 0.456655353 
-0.0119661819 0.00632264279 0.00573139219 0.000883810222 31 31 31 0.389683634 
0.00331448205 -0.00592472544 0.00234762579 0.00086873438 27 27 27 0.45481348 
0.0172219742 0.0026168488 -0.0158088375 0.000981721212 23 19 7 0.804284334 
-0.0196357425 0.00281856768 0.011425904 2.35501793e-05 43 48 51 0.28007713 
0.0160711277 0.00281001022 -0.0155847948 0.000587266928 38 45 39 0.799971998 
0.0200474411 0.000992501969 -0.0182638951 0.00112611998 26 26 26 0.851538658 
0.00186100998 0.0038506519 -0.00570148509 0.000795314554 36 13 7 0.609740674 
-0.0165274423 0.00962206535 0.00911344588 0.00090502284 159 155 157 0.324586749 
-0.0241332669 0.00339672621 0.0234936792 0.000829139724 42 44 37 0.0477997661 
-0.000766789657 0.00661166199 -0.0016526283 0.000563103938 9 12 20 0.53180933 
0.0106634405 0.00204927474 -0.00695910351 0.000895728008 19 29 47 0.633946955 
0.0118449992 0.00252943393 -0.0131427534 7.38186791e-05 24 21 7 0.752968252 
-0.00968906283 0.00903741177 0.00322854379 0.000976731768 23 27 12 0.437857807 
0.00876921322 0.00556634041 -0.00797989126 0.00080267177 28 28 28 0.653594792 
-0.0141968383 0.00772109348 0.00597439706 0.0010172046 102 71 7 0.385006368 
-0.0157975834 0.00727857277 0.010672559 0.0011383238 31 31 31 0.29457733 
0.00186309731 -0.00689968327 0.00299742399 0.000637920573 45 50 64 0.44230634 
0.00984450709 -0.00195756298 -0.00962637272 0.000917726778 16 20 28 0.685285866 
-0.0118476003 0.0069192173 0.00492447289 0.000945959415 41 41 41 0.405215025 
-0.0132084647 0.00565602398 0.0118278302 8.26168689e-05 29 29 29 0.272340983 
0.00192077365 -0.00400174316 0.00201656343 0.000146404956 30 30 30 0.461185664 
-0.0152334534 0.00636233762 0.00850758608 9.30651004e-06 27 27 26 0.336248159 
-0.0231502838 -0.000724745565 0.0172773805 0.000591123593 43 43 43 0.167449474 
-0.0122023942 0.00697034597 0.0128145395 2.10488361e-05 88 78 62 0.253349036 
0.00910120364 0.00270972727 -0.011042811 0.000413433067 12 8 4 0.71254909 
0.003353165 -0.00100355863 -8.05882737e-05 0.000867228315 10 10 9 0.501551092 
-0.0187606327 0.00989677198 0.015460697 1.79714989e-05 2 6 9 0.202416509 
-0.0182884447 0.0112553556 0.0135599598 0.000448354171 40 47 48 0.239001378 
0.0127501106 0.00121594325 -0.00985780079 0.000874603807 25 25 25 0.68974036 
-0.00137217122 0.000535732484 -0.00068822602 0.000757361413 27 27 27 0.513246775 
0.0134342397 0.00368913822 -0.0102807349 0.000824548595 112 85 103 0.697880864 
-0.00626163697 0.00690951757 0.000511231367 0.000340360479 24 36 53 0.490159899 
-0.0163484346 0.00971359015 0.00898520183 0.000930495793 134 70 74 0.327055156 
0.0119273793 0.00211700704 -0.00873134658 0.000813634018 28 28 28 0.668058693 
0.0172660835 0.000327250338 -0.0147359725 0.00107204251 37 37 37 0.783634126 
-0.016141668 0.0117267137 0.0113321589 0.0010554149 74 71 59 0.281881511 
0.00959571544 -0.000948125205 -0.0107115228 0.000669137808 73 77 103 0.706172585 
-0.00809441879 0.00596049428 0.00860278495 0.00041792242 33 33 33 0.334415823 
-0.00261292513 0.00577795645 -0.00223061629 0.000898488448 14 19 11 0.542934299 
-0.0165047832 0.00877310056 0.0153878601 0.000439634081 19 19 19 0.20381844 
-0.00179087615 -0.00238979352 0.00424807891 0.000792424835 26 38 44 0.41823405 
0.00427112542 -0.00182989787 -0.000603852619 0.000876586535 37 41 48 0.511622787 
-0.00614090962 0.000563273323 0.0108116008 0.000575879938 13 13 13 0.291901082 
-0.0130337179 0.00501002604 0.0155259417 0.000252806698 18 31 47 0.201160684 
0.00354917394 0.00568834832 -0.00518051116 0.00102326495 41 17 7 0.599713087 
0.0197317563 0.00147491123 -0.0178307891 0.000993912341 86 62 58 0.843202412 
-0.00660887221 0.00167617633 0.000977241551 0.00114553189 15 12 13 0.481190294 
-0.0187085904 0.0083689224 0.011916033 0.000739118143 32 32 32 0.270643264 
0.0127387764 0.00307162292 -0.0136952372 3.05508729e-05 18 8 3 0.763602316 
0.0266294628 -0.0009062686 -0.0204600859 0.000633116404 30 41 67 0.893810391 
-0.0196344443 0.00893115532 0.0155591639 -6.6057255e-06 35 35 35 0.200521231 
0.00157494075 0.00167929393 0.00166414783 0.0010561411 11 18 16 0.467968881 
-0.0133475596 0.00611826777 0.0153591158 0.000479768554 72 70 87 0.204371706 
-0.0135875922 0.0104583921 0.00692077028 0.000817242428 49 38 8 0.366790801 
-0.0263951309 0.00613170676 0.0153103145 -2.15598266e-05 1 1 1 0.20531103 
-0.0150552578 0.00750003662 0.00692748791 0.000863846391 16 13 15 0.366661489 
0.00524619734 -0.00489787571 -6.92205504e-07 0.000261171517 29 29 29 0.500013292 
-0.00407188945 0.00639969576 -0.000551495876 0.000564905873 7 6 4 0.510614991 
-0.00762050459 0.00852433685 0.00224275747 0.00104481552 56 56 69 0.456831962 
-0.00764063699 0.00118082052 0.0119472081 0.00085123966 13 15 10 0.270043224 
-0.0112236934 0.00574724842 0.00979058165 0.000733361696 25 25 25 0.311553389 
-0.0115339067 0.00891334657 0.00416908087 0.000922534615 80 62 5 0.419754595 
-0.00051894621 -0.00435702968 0.00373457558 0.000894609373 31 31 31 0.428117841 
5.82751818e-06 -0.00222476176 -0.00295201573 0.000916911406 75 47 53 0.556819558 
-0.023633359 0.00831934623 0.0148393391 0.00114426122 4 7 6 0.214376226 
0.0149801197 0.00288679264 -0.0114209047 0.000718543364 22 22 22 0.719826579 
-0.00358736375 0.00101687515 0.0067271986 0.000884292938 24 24 24 0.370516628 
0.0223297868 0.000618333812 -0.0198501926 0.000495031883 83 25 22 0.882071316 
0.00697084889 0.00133186404 -0.00944942329 0.000868040486 10 16 25 0.681879938 
0.0138504654 0.000706014107 -0.0138215125 0.000795425847 29 29 29 0.766032815 
0.0188784283 0.00070627511 -0.0182292257 2.63128895e-05 70 69 81 0.850871384 
-0.0086763436 0.00225501647 0.0114989495 0.000453453336 1 1 1 0.278671175 
-0.00800087024 0.00491084624 0.0096796453 0.00109045464 31 25 27 0.313688666 
-0.0159213543 0.0114148594 0.0102070468 0.000734001398 42 31 8 0.303537399 
0.0088454904 0.00471201399 -0.00618437072 0.000674355251 26 22 13 0.619035125 
0.00558279967 0.000762418262 -0.00836812705 0.000704285863 11 25 35 0.661067486 
0.00185614685 -0.000656313961 0.000237083761 0.000960643054 22 22 22 0.495436639 
-0.0200765543 0.00916504487 0.0172631592 0.000395807961 14 14 14 0.167723209 
0.0186998881 0.000946474611 -0.018586006 0.000727433595 95 46 51 0.857738614 
0.0257169995 -0.000588773983 -0.0198004078 0.000640712795 37 58 94 0.881113052 
0.0232291892 -1.58133917e-05 -0.0212714579 0.000600450672 38 38 38 0.909427464 
0.00581575837 0.0011368884 -0.00406952202 0.00105750374 35 35 35 0.578329086 
0.0267578252 -0.00408260664 -0.0257596076 0.000934816722 3 3 3 0.995814145 
0.00023926422 0.00596074946 -0.00305892527 0.00064390793 36 36 36 0.558877409 
0.000743264274 0.00230909558 -0.00523524219 0.000615750032 44 64 88 0.60076654 
0.0121582402 0.00030370045 -0.0131939212 0.000756790978 37 37 28 0.753953099 
0.002670157 0.00538566615 -9.47804656e-05 0.000568227901 16 22 17 0.50182426 
0.0171816442 0.000875301776 -0.0164702553 0.0010796102 41 41 41 0.817015111 
0.0264463257 -0.000761908246 -0.0217196923 0.000489011232 18 26 30 0.918054998 
-0.0184665937 0.010731223 0.0124034286 0.000788380275 67 15 16 0.261262 
0.00682489946 -2.71647004e-05 -0.00349628925 0.00102702272 21 21 21 0.567295611 
-0.00547410641 0.00807305332 0.0014756181 0.000875031692 14 14 11 0.471597642 
-0.0188716576 0.00853271969 0.018377142 4.37966082e-05 2 2 2 0.146281525 
-0.00211604452 -0.000222796225 0.000135097303 0.00101511029 33 33 33 0.497399628 
0.00117669732 0.000386601198 0.00177417242 0.00091577461 8 9 9 0.465851188 
-0.00125949213 0.00152265315 -0.00379863568 0.00043098384 30 39 60 0.57311511 
-0.00356045831 0.00167332764 0.00298479991 0.000645409571 27 27 27 0.442549348 
-0.00577179156 0.00409781327 0.00623726007 0.000935307413 30 28 27 0.379946828 
0.00262556365 -0.00513555529 0.00248847622 0.000954145216 51 56 63 0.452102453 
0.00091811223 0.00120633782 -0.00521453749 0.00094187347 13 26 36 0.600368023 
0.00391895231 -0.00126750534 -0.00560944201 0.00104263111 29 25 13 0.607969046 
0.0244215913 -0.000480413204 -0.0222426895 0.000167490769 38 38 38 0.928121448 
0.0225534607 0.00035636907 -0.0177298542 8.57823179e-05 99 74 76 0.841259599 
0.00378430123 -0.00306770252 -0.00536553375 0.00121438468 16 20 18 0.603274345 
0.0224002525 -0.000484808348 -0.0217304658 0.000431333086 26 54 85 0.918262303 
0.000456374604 0.00258523086 -0.00489343982 0.000543951814 28 28 28 0.594187617 
-0.0198561531 0.00806971826 0.0196217578 0.000854301965 44 44 44 0.122325517 
0.00355113437 -0.0013863307 -0.000299602631 0.000538561435 26 25 25 0.50576663 
-0.0087506501 0.00627064239 0.00910771172 0.000521283306 35 35 35 0.324697107 
-0.0222661439 0.00172674248 0.0148395794 0.000985239167 2 2 2 0.214371592 
-0.00358194439 0.00185462448 0.00348021928 0.00105111382 27 27 27 0.433013648 
0.0112729259 -0.000815245556 -0.00954500679 0.000727967476 37 37 37 0.683719754 
-0.00235265121 0.00620804168 -0.00189422804 0.000133833048 28 29 29 0.536459565 
-0.0169048253 0.00276400801 0.0089859115 0.00106522255 15 21 23 0.327041477 
-0.0203652587 0.00717641227 0.0221448597 5.81331551e-06 1 1 1 0.0737615004 
-0.00866872445 0.00439955108 0.0114747696 0.000840362278 27 27 27 0.279136598 
0.0126039162 4.84762713e-05 -0.0106062153 0.000795970729 24 24 24 0.70414561 
-0.0193396825 0.00878251344 0.0120013766 0.000900963438 8 16 37 0.26900059 
-0.0142739322 0.00711148791 0.0120326197 4.68503276e-05 32 32 32 0.268399239 
-0.0124211758 0.00742048677 0.0122510586 0.000801601331 33 33 33 0.264194787 
-0.00475617964 0.0027115955 0.00333013479 0.000552784302 26 26 26 0.435902417 
-0.0134920161 0.00353076914 0.0153435478 0.000713017478 17 11 7 0.204671368 
-0.0105551565 0.00674007926 0.0036177733 0.000707473722 31 31 31 0.430366009 
-0.0203615986 0.00785152428 0.0209408198 0.000466065831 44 44 44 0.0969365463 
0.00861774571 0.00494993431 -0.00968274474 0.000455767818 5 10 11 0.686370909 
0.00673768716 0.00184861419 -0.00884056464 0.000485924014 31 31 31 0.67016083 
0.0113375876 -0.00165730447 -0.007915291 0.000829733734 11 12 13 0.652351439 
-0.0146479178 0.00727508031 0.0121323643 0.00100635947 14 14 14 0.266479373 
0.00285912049 -0.0025143181 -0.00503294589 0.00104950299 14 14 14 0.596872807 
0.0209616125 -4.87921061e-05 -0.0203553271 0.000265868817 25 31 43 0.891794086 
0.0244999919 -0.000220394693 -0.0216091704 0.00110855314 14 30 39 0.915927708 
0.0169609636 0.000194118707 -0.0148797408 0.0009022663 19 19 19 0.786401391 
0.00211065565 0.00374131557 -0.00590288825 0.000832068035 43 17 9 0.613617241 
-0.00177983672 -0.00168593635 0.00436676154 0.000869018608 41 41 41 0.415949702 
-0.0140895611 0.00953013729 0.0139526669 0.000681555946 103 94 115 0.231442675 
0.0163937416 0.00132941885 -0.0120461192 0.000260472851 47 36 31 0.731860518 
-0.00443744753 0.00651920773 -0.00032552256 0.000877479615 23 22 23 0.506265521 
-0.014135438 0.00345754763 0.0161849521 0.000195759567 25 21 12 0.18847625 
-0.0295181293 0.00477674743 0.0161469523 0.000187461381 39 39 39 0.189207658 
0.0157665722 -4.73530963e-05 -0.0116341151 0.00107639073 26 25 22 0.723930359 
0.00477579888 0.00557622546 -0.00335030444 0.000991230831 16 17 17 0.564485788 
0.0211596694 0.000449569779 -0.0162946526 2.55994673e-05 17 10 7 0.81363517 
-0.0154690966 0.0101589989 0.00833978225 0.000960348349 9 17 16 0.339478016 
0.0102094784 -0.00154655881 -0.00689003663 0.000540532579 30 41 40 0.632617593 
-0.00872264896 0.00931879226 0.00332927797 0.000900010054 30 40 31 0.435918897 
-0.0201373212 0.00797378644 0.0120961992 0.00129211845 64 68 128 0.267175466 
0.00208534161 -0.00425583124 0.00243710866 0.000807918841 37 38 38 0.453091145 
0.027850911 -0.0018267862 -0.0237611458 0.000756023685 26 26 26 0.957348406 
0.0213458128 -0.000317412429 -0.0209306777 0.000408039981 26 48 73 0.902868211 
0.0154683366 0.000144290156 -0.0133879753 0.000908055925 21 21 21 0.757688224 
-0.00578787783 0.00165669865 0.00763678411 0.000930527982 23 32 29 0.353009135 
0.00918771885 0.00226323074 -0.00546888588 0.00012769406 13 29 36 0.60526365 
-0.00811142754 0.00381451519 0.00783255696 0.000600943342 48 48 48 0.349240959 
0.0105172396 -0.000321893604 -0.0105275782 0.00119867502 8 7 6 0.70263207 
-0.00913021993 0.00646369532 0.00157452549 0.00094349822 28 15 3 0.469693929 
-0.0188225303 0.00762547366 0.0183356069 -0.000167347607 4 5 5 0.147081003 
0.020090688 0.000827874639 -0.0158438087 8.79052095e-06 42 42 42 0.804957449 
0.00599009916 -0.000577591709 -0.00392808625 0.000947118853 24 19 15 0.575606763 
0.0263379999 -0.000747165293 -0.0206478834 4.03734157e-06 56 78 122 0.897425056 
0.0151382321 0.000235960237 -0.0156749561 0.000940705766 11 25 32 0.801707387 
-0.00401681336 0.00500109093 -0.00158628542 0.000724876474 56 38 30 0.53053242 
-0.00705807609 0.00845643319 0.00210843142 0.000145236889 26 26 38 0.459417433 
-0.0211936925 0.00599185377 0.0241505615 0.000159056654 1 1 1 0.0351562873 
-0.020951353 -0.00207166048 0.013719961 0.000590141339 53 19 21 0.235921741 
-0.00513231987 0.00236544386 -0.000720658514 0.000965435989 59 74 130 0.513871014 
0.0181737561 0.00211524218 -0.0162316337 0.000631488685 7 23 42 0.812422216 
0.00677442271 0.000769210164 -0.0069964868 0.000914647128 44 44 44 0.634666562 
-0.0242269915 0.00334909046 0.0237690154 0.000646788918 39 39 39 0.0425001867 
0.0146101778 0.00441227108 -0.0126930578 0.00068628689 10 7 4 0.744312644 
0.0160092395 0.00174582691 -0.016232023 0.000844397349 7 21 66 0.812429726 
0.0014826071 -0.00217695604 0.00135204301 0.000606174755 7 7 5 0.473976195 
-0.0188400559 0.00836625602 0.017651258 0.000722811674 41 41 41 0.160253182 
-0.0205450952 0.000371014583 0.0195848253 0.000939340214 14 15 14 0.123036362 
0.0025731381 0.00197161455 -0.00640873192 0.00101336499 60 62 89 0.623353541 
-0.00928739086 0.00613219105 0.00256090425 0.000922614243 44 44 44 0.45070833 
0.00654288847 -1.39547046e-06 -0.00426825183 0.000673826959 50 51 60 0.582154155 
0.00927782431 0.00069529505 -0.00884012692 0.000892593001 28 28 28 0.670152426 
0.0184151828 0.000770556391 -0.0179289207 -0.000727331499 43 43 43 0.845091164 
0.0108644832 0.00053367333 -0.00710060913 0.000929270522 4 5 4 0.636670649 
-0.00483248523 0.00225980813 0.00290070288 0.00102154643 35 35 35 0.444167972 
-0.0027503618 0.00137149903 0.00262598088 0.00107197114 40 41 66 0.449455768 
-0.00890935119 0.0106044617 0.00886813179 0.000318031583 17 11 6 0.32930848 
0.0119952066 -0.000597224804 -0.0115901977 0.000362262799 51 51 56 0.723085046 
-0.0211171489 0.00905183144 0.0179324299 0.000115849441 2 2 2 0.154841244 
0.00587795582 0.000189508428 -0.00380893098 0.000994204544 32 32 32 0.573313296 
-0.00559601001 0.000292224693 0.00978090893 0.000995561248 23 31 39 0.311739564 
0.00887887832 0.00423388183 -0.0104199387 0.00100764935 35 21 5 0.700560212 
0.00659477944 0.00450549182 -0.00883841515 0.000452452281 22 14 8 0.670119524 
0.000870829157 0.00626389496 -0.0026260782 0.000623815518 42 55 77 0.55054599 
0.0149251902 0.000425196602 -0.015586012 0.000713990128 6 16 25 0.799995422 
-0.0209311116 -0.00175262406 0.0130973952 0.00117606274 38 38 38 0.247904718 
-0.0222382043 0.0094115017 0.0175570883 -1.64849334e-05 28 28 28 0.162065715 
0.00179476372 0.00343548646 0.00217553414 0.000838221225 27 42 69 0.458125859 
-0.0124237528 0.00547536043 0.0105032939 0.00153270364 36 36 36 0.29783532 
-0.0109141413 0.00615194906 0.011113612 0.000481927302 36 36 36 0.286088079 
0.000860051019 0.00607276522 -0.00316991797 0.000962090446 42 45 43 0.561013699 
-0.0100011397 0.00496999081 0.00497170584 0.000868431467 44 44 44 0.404305875 
-0.00604825933 0.00655211601 0.000180004281 0.00101105345 39 58 69 0.496535301 
-0.0123777334 0.00842257217 0.00457167346 0.000954956806 38 30 2 0.412005574 
-0.024842456 0.00696147326 0.0147379795 9.30418901e-06 3 4 3 0.216327175 
0.00279551791 -0.00341011374 -0.00507940212 0.000999241485 8 11 9 0.597766995 
0.0266743712 -0.00351906032 -0.0256228857 0.00097396801 7 7 7 0.99318254 
0.0039944509 -0.00293400884 -0.00519915018 0.00057448569 34 34 34 0.600071847 
0.00486719375 -0.000380272162 -0.00275927992 0.000897792517 34 34 34 0.553109884 
-0.00901926123 0.00934669189 0.00340123987 0.000627644651 116 87 69 0.434533805 
-0.0188289732 0.00240298919 0.0188568942 0.00070287264 34 34 34 0.13704741 
0.0109903188 0.00237902766 -0.00735244574 0.000583714107 43 50 69 0.641517937 
0.000446291815 0.00134761643 0.00138945354 0.000758589595 43 43 43 0.473256111 
0.0222110711 0.000720123644 -0.0194576252 0.000668290129 20 4 4 0.874515295 
-0.0131183816 0.00640585832 0.00917613041 0.000382795755 24 24 24 0.323380202 
0.0225436278 0.000316804159 -0.0207212232 0.000455748639 3 3 3 0.898836672 
0.00963674393 0.00103171275 -0.0101401582 0.00096212991 30 30 30 0.695175111 
0.00880483072 0.000590763404 -0.00854071602 0.000987056294 35 35 35 0.664389491 
-0.0189422425 0.0087268455 0.0157834198 0.000221368158 2 2 2 0.196204841 
0.0204799734 -7.32882181e-05 -0.0200742949 0.000284965412 27 27 27 0.886384785 
-0.00409278832 0.00806002412 0.00619083503 0.00080785685 31 19 9 0.380840391 
0.00689096516 0.00076952728 -0.00612898078 0.000928362831 50 50 50 0.617968976 
0.020654913 0.00112544012 -0.0185201336 0.00111617893 71 33 29 0.856470644 
0.0149921468 0.000566064962 -0.0148910051 0.0005987279 32 32 32 0.786618173 
-0.0188080799 0.00988299493 0.0152595183 5.85625912e-06 6 12 20 0.206288725 
-0.0199832469 0.00986314844 0.01575578 0.000127515872 37 37 37 0.196736842 
-0.0136105595 0.00089006999 0.0180556457 0.000120865472 39 39 39 0.152469605 
-0.0211404059 0.00854144152 0.0158212502 2.09124773e-05 37 37 37 0.195476696 
-0.0159590691 0.00534202205 0.016255768 -2.09436985e-06 20 19 13 0.187113211 
-0.0188111421 0.00935189426 0.0145875877 -5.84349036e-05 33 33 33 0.21922186 
-0.0074425661 0.00905022305 0.00292639015 0.000847080257 33 24 15 0.443673551 
-0.00766324764 0.00402780436 0.00588222267 0.00115605874 32 32 32 0.386780471 
0.0127834482 -0.000713612884 -0.00942853466 0.000866643677 29 29 30 0.681477904 
-0.0109118624 0.00163512828 0.0159479063 0.000568354677 13 20 33 0.193038851 
-0.0118001215 0.00483185379 0.0148818968 0.00123589183 75 70 64 0.213557094 
-0.00484754238 0.000227908487 0.0090800561 0.000670235255 22 22 22 0.325229406 
0.0026711598 -0.00150049594 0.000490599661 0.000686242827 5 4 4 0.490557045 
-0.00117637392 0.00250094524 -0.00348434178 0.000817268621 32 32 32 0.567065656 
-0.0217018146 0.00187664747 0.0155622354 0.000532437291 21 21 21 0.200462118 
0.0123758847 -0.000534571591 -0.0105164237 0.00100660464 29 29 29 0.702417314 
-0.00250216667 0.00529975165 0.0051704715 0.000920676452 30 30 30 0.400480062 
-0.0170656648 0.007583878 0.00917325635 0.000887067348 61 70 72 0.323435515 
0.0246460009 -0.000167859835 -0.0213545617 0.0011153128 27 56 72 0.911027014 
-0.0169296581 0.00824040081 0.00927009992 0.00095847901 80 47 42 0.321571499 
-0.010332182 0.00494896667 0.00722802384 0.00108500861 78 65 79 0.360876828 
0.004683848 0.00564106135 -0.00571760489 0.000834737555 10 18 19 0.610050976 
0.0111645823 0.000518864836 -0.0124723753 0.000990076573 14 15 18 0.740064979 
0.0249757916 -0.000463254284 -0.0221216492 0.00110549026 21 42 59 0.92579174 
-0.0182578471 0.00914271828 0.0141441422 -0.00249719736 26 26 26 0.227757215 
-0.0046297377 0.00159676827 -0.000630572613 0.00111350999 39 50 63 0.512137055 
-0.00501845218 0.00197431631 0.00701709138 0.00104318594 43 43 44 0.364936829 
-0.00262143789 0.00684470776 -0.000253911363 0.000808419369 23 23 15 0.504887223 
0.00348919258 0.000915559824 -0.00516021391 0.000694625254 46 46 46 0.599322438 
-0.00200191699 0.00297487201 -0.00344912056 0.000409046479 31 46 71 0.566387713 
0.00567474868 -0.000223638141 -0.00213140855 0.000950957939 32 42 50 0.541024745 
-0.0170060787 0.0094267549 0.0139045566 0.000243164322 47 47 47 0.232368693 
0.0118568074 0.00285935216 -0.00844789855 6.57746568e-08 16 16 16 0.662602901 
0.0152139766 0.00302975858 -0.011691018 0.000802836556 35 25 13 0.725025654 
-0.0191221852 0.0034786812 0.00996206515 0.000849096687 33 33 33 0.308252722 
-0.00997228269 0.00434958097 0.0132391071 0.000862732937 36 36 36 0.245177075 
-0.017026512 0.00293845357 0.0179495532 0.00108984113 15 11 6 0.15451166 
0.0208612718 0.000754256616 -0.0165080838 1.94696768e-05 9 13 15 0.817743301 
-0.00351903075 0.00392728206 0.00518483622 0.00100446434 46 46 46 0.400203615 
-0.00846932177 0.00889381673 0.0104332864 0.000893293123 38 21 4 0.299182773 
-0.0233522169 0.00447526015 0.0236734431 0.000965066021 3 3 3 0.0443397388 
0.00702942535 -0.000901353895 -0.00427902956 0.000629727321 19 28 28 0.582361579 
-0.00039518089 0.00221687835 -0.00395349693 0.000830166275 42 42 42 0.576095819 
0.00484556751 0.00324586872 -0.00806627609 0.000991015928 65 40 23 0.655257583 
-0.00107426557 -0.00142826559 -0.00154231559 0.00061501743 26 26 26 0.529686034 
-0.022180263 0.00879196171 0.0181249622 -0.00126379693 46 46 46 0.15113543 
-0.0121080782 0.00589869963 0.00448109116 0.000902554078 77 51 5 0.413749129 
-0.0138502419 0.000902139931 0.0180836525 0.000697160023 27 15 10 0.151930541 
0.000661789614 0.000397160067 0.000710691209 0.000888897805 36 36 36 0.486320764 
-0.0128125064 0.00723799691 0.0114107048 0.00102347159 27 27 27 0.280369699 
-0.00978380907 0.00418741209 0.0128697408 0.00108427496 21 15 10 0.252286553 
0.0146684414 0.00116262177 -0.0150879808 0.000869519019 33 33 33 0.790409446 
-0.0150947571 0.00737700332 0.00872422103 0.00100133568 21 21 21 0.332078427 
-0.01455836 0.00735058635 0.0126482239 0.000439471332 40 40 40 0.256550252 
0.00382439047 0.000725726248 -0.00144922629 0.000502699637 30 19 15 0.527894318 
-0.0189406481 0.00817984529 0.0184876788 -0.00156837841 42 42 42 0.144153938 
-0.0241952781 0.00375924259 0.0238791592 5.79029147e-05 23 23 23 0.0403801501 
-0.0178505089 0.00850867294 0.0164720286 0.000377441553 36 36 36 0.182950675 
0.021624269 0.000942079234 -0.0179261584 0.000531118596 40 40 40 0.845037997 
-0.0107076922 0.00723950472 0.0108060995 0.000694621296 27 27 27 0.292006969 
-0.00182590133 0.00041966408 0.00336417928 0.000945006264 37 37 37 0.435247123 
-0.00391149428 -0.00448319176 4.12462978e-05 0.000576679711 22 22 22 0.499206066 
0.0101984888 0.00197275868 -0.0115786996 0.000864399713 30 30 30 0.722863734 
-0.00277352799 0.00365882087 0.00455671735 0.000561428256 33 33 33 0.412293494 
0.00168451865 -0.00367396162 0.002466965 0.000753099448 72 60 67 0.452516466 
0.00137675565 0.00389833655 0.00254356302 0.00101374625 23 36 59 0.451042145 
-0.0251308437 0.00787007809 0.0211859215 0.000855132006 2 2 2 0.0922188982 
-0.000612817355 0.00549842231 -0.00334798172 2.10339203e-06 23 27 30 0.564441085 
-0.0131012872 0.0114669483 0.0082811648 0.000781955256 65 56 11 0.340606272 
-0.0244515333 0.00898953248 0.0198800731 0.000794007967 31 31 31 0.117353499 
-0.020810863 0.00254559051 0.0135316327 0.0012777606 32 31 31 0.239546627 
-0.00565185584 0.00363675831 -0.000773830921 0.000998321921 58 71 117 0.514894485 
0.0116429692 0.00274553383 -0.00808892399 0.00035325496 47 51 42 0.655693471 
-0.0140517997 0.0101781385 0.00705619296 0.000630933442 75 75 31 0.364184201 
0.0267751366 -0.00559340371 -0.0259412229 0.000466651312 4 4 4 0.999309838 
-0.0274724308 0.00670896843 0.0160342082 0.000625298999 15 15 15 0.191377714 
0.0115549592 0.00202194788 -0.0127482004 0.000747074722 49 49 49 0.745373964 
0.00320208166 -0.00337879639 0.000390198897 0.000848405063 37 37 37 0.492489517 
-0.0153229814 0.00348498812 0.0167710595 1.89770944e-05 32 32 32 0.177194998 
-0.0202856641 0.00866917614 0.0202182215 0.00122006657 3 3 4 0.11084494 
0.0145174842 0.000532153179 -0.0153371543 0.000820621557 50 60 94 0.795205474 
-0.0149545949 0.0107007772 0.00824820623 0.000461062911 24 25 24 0.341240644 
0.0268412381 -0.000977517571 -0.022217894 0.000878347317 12 11 11 0.927644193 
-0.0124310935 0.00745829754 0.00533337379 0.000933362986 39 39 39 0.397344559 
-0.00109795027 0.000601052889 -0.000968136243 0.000965727784 34 34 34 0.518634379 
-0.0187951475 0.00562968571 0.0195684228 0.00152939279 15 22 31 0.123352081 
0.000517339446 0.00546837552 -0.00386284664 0.000946301094 46 53 68 0.574351072 
0.0166957043 0.00236171344 -0.0127831846 0.000708067208 15 8 6 0.746047378 
-0.00179711438 0.00638588145 -0.00187372288 0.00103627308 23 34 40 0.536064923 
0.00156459864 0.00385143608 -0.00549708121 0.000765370147 33 30 28 0.605806351 
-0.00142807036 0.001963099 -0.00381115964 0.00100168027 14 20 26 0.573356211 
0.0124697275 0.0047735488 -0.0108448537 0.00100982003 24 21 26 0.708738923 
-0.0126610892 0.00776960701 0.00451491261 0.000527801167 43 30 3 0.413098127 
0.0108740255 0.00507333269 -0.00954904687 0.00103099039 21 22 22 0.683797538 
0.0224040318 0.000722755562 -0.0185663048 0.00110172783 47 47 47 0.85735935 
0.00999153219 -0.000951142691 -0.00909806881 0.000321128638 22 22 22 0.675117195 
0.0158528462 0.00371886929 -0.01480137 0.000911568175 9 10 8 0.784892857 
0.0233462453 -0.000245761708 -0.0217692219 0.000386606203 3 3 3 0.919008255 
-0.0179130509 0.00979546364 0.0132120149 0.000491236569 33 33 33 0.245698556 
-0.0188353453 0.00868684705 0.0179629084 -3.73183866e-05 4 4 4 0.1542546 
-0.0212659799 0.00686196331 0.0241816044 -4.57161805e-05 30 31 35 0.0345587507 
0.00154371234 0.00458579697 -0.00517586013 0.000906375353 46 41 36 0.599623561 
-0.00247915881 0.00242425222 -0.00191184366 0.000983487815 38 38 38 0.536798656 
0.0242739245 -4.33019595e-05 -0.0190833136 3.95400566e-05 16 35 65 0.867310643 
-0.00336477952 0.00540743629 0.00583799602 0.00101834803 27 27 27 0.387631744 
