ply
format ascii 1.0
comment created by gply, a Houdini tool.
comment converted from .[b]geo
comment for more information about Houdini, try:
comment www.sidefx.com
element vertex 623
property float x
property float y
property float z
property float depth
property uchar red
property uchar green
property uchar blue
property float length
element face 0
property list uchar int vertex_indices
end_header
-0.149449825 0.0496475101 0.00589752197 0.0003847724 255 199 0 0.471763551 
-0.364870548 -0.144463181 0.198684692 0.000646516797 176 67 0 0.552228868 
0.0725178719 -0.403154075 0.0554833412 0.000529664045 195 93 0 0.712504387 
0.700034618 -0.149927199 -0.470376492 0.000706671039 227 105 0 0.632900059 
-0.179747105 0.681316078 0.0299983025 0.000565815601 255 147 0 0.156376079 
0.0507760048 -0.270687759 -0.00130224228 0.000876565697 177 91 0 0.6452384 
0.095038414 -0.695771813 0.0596046448 0.000791485305 248 177 0 0.859227479 
0.0783166885 -0.519958675 0.0442633629 0.000559927139 168 82 0 0.770838439 
-0.33411932 0.0480899215 0.161201477 0.000881299435 186 81 0 0.459015936 
-0.160400391 0.0665772557 0.0362362862 0.000526501972 255 175 0 0.462568402 
0.479315758 0.0394118428 -0.325195313 0.000675513118 207 96 0 0.522870481 
-0.0799179077 -0.187528372 0.00437545776 0.000683588674 222 106 0 0.594441295 
-0.190135956 0.0329759717 0.000943183899 0.000411626475 202 97 0 0.477050364 
-0.511444569 -0.313769996 0.227015495 0.000916832534 235 112 0 0.62543726 
-0.0192952156 -0.21353066 0.0615262985 0.000729046646 255 255 0 0.611771047 
0.00439786911 -0.118651092 -0.0167045593 0.000910540228 255 167 0 0.566466093 
-0.103190422 0.255781233 -0.0624904633 0.000709964137 255 143 0 0.372953057 
-0.0878343582 -0.196728945 0.134533405 0.000674478244 169 80 0 0.598423243 
-0.236799717 0.922673762 0.0728430748 0.000877518731 220 116 0 0.0325386375 
0.635081768 -0.0858091712 -0.428220749 0.000883861736 246 164 0 0.596356452 
0.258841515 0.0227258801 -0.193555832 0.000795112224 161 39 0 0.515001953 
0.105538368 -0.617011547 0.037917614 0.000466434663 159 39 0 0.820948303 
-0.135962486 0.192071974 0.0378031731 0.000797274755 182 40 0 0.402139544 
-0.470155239 0.149115384 0.199611187 0.000901984342 162 30 0 0.398970217 
-0.299378395 -0.0595856309 0.141648293 0.00087031594 224 114 0 0.514942884 
-0.700452328 0.41740638 0.430101871 0.000815152947 162 80 0 0.249096423 
-0.663991928 -0.539350867 0.506440639 0.000535975909 233 132 0 0.726107895 
-0.147078037 -0.173343956 0.172447681 0.000684101775 203 119 0 0.582492113 
-0.200628281 0.0853381753 0.105742931 0.000403894024 255 219 0 0.450321913 
0.00808477402 -0.305368423 0.0188097954 0.00107095542 154 32 0 0.659306884 
-0.161713123 -0.16292733 -0.0202488899 0.000362569117 163 78 0 0.576256335 
0.818348408 -0.19918412 -0.592912674 0.000767198682 255 187 0 0.665982604 
0.0234065056 -0.0824530125 0.0528745651 0.000926753797 225 103 0 0.54991138 
-0.399899006 0.0599072576 0.168201447 0.000667615095 255 128 0 0.448341399 
0.0534844398 -0.262989998 -0.00171899796 0.000784328091 238 109 0 0.641620278 
-0.388088703 -0.269747615 0.178509235 0.000584088091 203 97 0 0.612642705 
0.0883560181 -0.41863519 0.00951814651 0.000822735659 255 164 0 0.721339166 
-0.0181517601 -0.261030912 0.021935463 0.000930794631 165 76 0 0.635404468 
0.114095688 -0.573749661 0.0482530594 0.000517189852 202 103 0 0.800126374 
-0.2312994 0.0159115195 0.176549435 0.000662934734 181 84 0 0.482496977 
0.49229908 -0.0303250551 -0.381041527 0.000147138693 206 93 0 0.558395207 
-0.0588078499 -0.00418573618 0.142736435 0.000626986264 237 127 0 0.505088985 
-0.338213921 0.0647432208 0.229249477 0.000708626059 179 74 0 0.450459868 
-0.477491856 0.203129351 0.212325096 0.000867400318 212 97 0 0.371654004 
-0.507554531 0.247409165 0.235340118 0.000436617207 183 97 48 0.347499996 
0.0522542 -0.725351274 0.103141308 0.000869833282 167 82 0 0.870760143 
0.657941818 -0.0994412899 -0.441281796 0.000865073816 245 126 0 0.604788542 
-0.380283356 0.0565417409 0.226361275 0.000956956239 155 45 0 0.451446086 
-0.637068272 -0.442906916 0.350249767 0.000772550586 248 108 0 0.680263877 
-0.152578831 0.090261519 0.133674145 0.000902660424 221 103 0 0.45139882 
0.0690460205 -0.360632598 0.00832176208 0.00108917488 187 71 0 0.691168845 
0.0855736732 -0.593882978 -0.00223445892 0.000887584989 216 122 0 0.808019936 
-0.405660629 0.0622031093 0.20998621 0.000850856537 217 100 0 0.446781397 
-0.644731522 0.385172665 0.358716011 0.000710665656 174 12 0 0.269156635 
-0.418706894 0.0626359582 0.221105099 0.000798588793 216 99 0 0.445611626 
-0.502349854 0.115983188 0.242594719 0.000405537285 173 43 0 0.413039535 
0.68995142 -0.148689568 -0.472770214 0.000527177704 181 87 0 0.631548345 
-0.193126202 0.614853561 -0.0208296776 0.000871634693 170 73 0 0.188347429 
-0.485131741 0.221252978 0.234075546 0.000590680225 164 47 0 0.362109303 
-0.525900841 0.262834013 0.287283897 0.000641570368 226 109 0 0.3385095 
0.0676445961 -0.75883919 0.0801672935 0.00046733566 205 98 0 0.888489544 
-0.659328938 -0.482935786 0.380413055 0.000747666694 163 71 0 0.698479772 
0.051876545 -0.286566794 -0.00332450867 0.000901560532 181 101 21 0.653191388 
-0.692963123 0.417289078 0.413562298 0.000599641935 183 70 0 0.249702841 
-0.484978676 0.200628817 0.253358841 0.000485396566 143 18 0 0.372345507 
-0.501864433 -0.327959597 0.236101151 0.000566970906 255 152 0 0.633173525 
-0.133237839 0.399941504 -0.102875233 0.00089343515 255 174 0 0.29928124 
0.247613907 0.038977921 -0.213479042 0.000856957166 255 171 0 0.506122589 
-0.478464603 0.187743366 0.210502625 0.000652155373 251 118 0 0.37921086 
0.592339039 -0.0755619407 -0.466109753 0.000868659175 185 54 0 0.588146746 
0.127941608 -0.595683098 0.0208530426 0.000983955106 168 87 0 0.812014222 
0.0398926735 -0.707221985 0.0660624504 0.000733188703 206 103 0 0.860867023 
-0.151587486 0.043829143 -0.00266742706 0.000552897865 189 85 0 0.474491686 
-0.0543327332 -0.0641556382 -0.0597805977 0.0008951528 218 108 0 0.535148501 
0.217197895 0.0271098018 -0.198898792 0.000398576056 255 226 0 0.509779811 
-0.157364368 0.746759713 0.0380454063 0.000704812817 229 106 0 0.125569075 
-0.551889896 0.232980788 0.266530037 0.000816469546 171 0 0 0.351407468 
-0.100285053 -0.181376755 -0.0261583328 0.000560371787 255 226 0 0.589900374 
-0.81907177 0.563554108 0.601891518 0.000959314872 230 124 0 0.167954952 
-0.0195951462 -0.0506455898 -0.0218081474 0.0009548011 148 68 0 0.5309937 
-0.138731956 -0.100634277 -0.0616121292 0.000389828725 207 97 0 0.547055066 
-0.00552558899 0.0120028853 0.0773992538 0.000881629647 255 172 0 0.500963807 
-0.323877335 -0.136562288 0.185638905 0.000876823207 234 114 0 0.551312923 
-0.408145428 0.0728803277 0.230390072 0.000904832501 162 79 0 0.441305935 
-0.151917934 0.476112783 -0.0467472076 0.000528235454 145 68 0 0.26014939 
-0.818185806 0.54851836 0.620000839 0.000773339358 172 7 0 0.175474241 
-0.16348505 0.539662421 -0.0753340721 0.000832077756 211 100 0 0.227795824 
-0.0856590271 0.0369313359 0.136703014 0.000442009245 175 86 0 0.482738137 
0.534826756 -0.0187885165 -0.374764919 0.00094331475 174 86 0 0.555789173 
-0.385083199 0.0719107985 0.22864151 0.000723997364 176 82 0 0.443474948 
0.0640506744 -0.526482224 0.0435667038 0.000676909112 234 133 0 0.773028195 
-0.294315338 0.0554226041 0.21851635 0.000690502231 163 77 0 0.45829466 
0.0861024857 -0.721024454 0.0750508308 0.00108425703 172 92 31 0.871093094 
-0.578149796 0.355597317 0.28832531 0.000623505155 225 102 0 0.288694024 
-0.0240397453 -0.0817769766 -0.0326719284 0.000834563572 234 108 0 0.546102643 
0.362960339 0.0776932836 -0.270841599 0.000743924233 149 5 0 0.495372862 
-0.0215616226 -0.141010046 0.119557858 0.000998724485 177 85 0 0.575650692 
0.0579357147 -0.436281502 0.0285863876 0.000696359901 246 115 0 0.727860689 
0.78729105 -0.189708471 -0.546541691 0.000520126254 227 107 0 0.659011066 
-0.0441918373 -0.226487041 0.0334496498 0.00101828401 188 93 0 0.61637181 
0.0702738762 -0.703783333 0.0273594856 0.000441811979 211 100 0 0.861386418 
-0.373164177 0.0591121316 0.225637913 0.000833998376 181 66 0 0.450692862 
0.622481346 -0.096855104 -0.424078465 0.000857254316 159 76 0 0.600910306 
-0.180892944 0.699724734 0.0011920929 0.000878780324 255 242 0 0.147165596 
0.0173926353 -0.113769114 0.0815820694 0.000875433849 217 153 0 0.564997077 
-0.196761608 0.523936093 -0.0820069313 0.000443756056 162 82 0 0.233156458 
-0.541849136 -0.372183919 0.245889187 0.000826465664 165 0 0 0.652171791 
0.0361647606 -0.351717532 0.0472335815 0.000674556359 228 128 0 0.684341669 
-0.499783516 -0.261194766 0.222551823 0.000857422827 214 99 0 0.600225091 
0.0143852234 -0.0342063904 0.0651197433 0.000661307131 255 182 0 0.52533114 
0.0305285454 -0.132456839 0.031733036 0.000902733358 219 104 0 0.575223684 
-0.558211327 -0.34014672 0.240480423 0.000691537047 163 16 0 0.63509047 
-0.210006237 0.0195615888 0.161294937 0.000713526795 228 138 0 0.482246161 
-0.531772614 0.247845113 0.282094955 0.000809307967 146 75 0 0.345510781 
0.0202641487 -0.0769175887 0.069644928 0.000914412085 161 70 0 0.546936989 
0.039317131 -0.336581767 0.0512537956 0.000249527191 153 77 0 0.677068412 
-0.532474518 0.316572011 0.277085781 0.000717442657 213 155 0 0.311385989 
-0.0626645088 -0.211137474 0.0502409935 0.000736335875 255 154 0 0.607409358 
-0.495919704 0.131925523 0.209261417 0.000550335739 187 102 38 0.405606389 
-0.112345219 0.0426173806 -0.0123581886 0.000934349198 244 143 0 0.477965355 
-0.107444286 -0.0771160126 0.192034721 0.000769081875 228 104 0 0.537685692 
-0.581287861 -0.370007634 0.259636402 0.00103978161 174 21 0 0.648205459 
-0.580790997 0.309019148 0.301336288 0.000538898283 236 110 0 0.311593205 
0.606046677 -0.0656428337 -0.419695377 0.000581734523 165 55 0 0.584232688 
-0.677443027 0.431595027 0.452682495 0.000701439334 231 116 0 0.243746489 
0.277818203 0.0767439008 -0.210170746 0.000499754329 156 71 0 0.489610195 
-0.637413979 -0.464655101 0.404830933 0.000594377168 197 96 0 0.691020846 
-0.556261063 0.358676732 0.297010422 0.000972022826 255 172 0 0.288769752 
0.00753116608 -0.822471857 0.129753113 0.000884298235 207 110 0 0.915636539 
-0.623196602 -0.426926196 0.265971661 0.000620466075 211 100 0 0.673356533 
0.54006815 -0.0318787694 -0.430303097 0.000868073257 193 95 0 0.562662721 
0.490699291 0.0282579064 -0.336637974 0.00051300897 205 94 0 0.529233813 
-0.259928226 0.0364280343 0.190259457 0.000780978007 207 98 0 0.470229328 
-0.644436836 0.40869242 0.337214947 0.000731028093 166 82 13 0.257517546 
-0.465317249 -0.323214471 0.194908142 0.000500442518 170 81 0 0.633496583 
0.739255428 -0.157594621 -0.517444611 0.000657513214 245 119 0 0.639572859 
0.0408353806 -0.266748846 -0.011428833 0.000936589669 199 103 0 0.64255774 
-0.096903801 0.318825901 -0.0872650146 0.000891014584 164 56 0 0.342156947 
-0.270145416 0.0635794997 0.163016319 0.000705646991 203 95 0 0.456020117 
-0.55539608 0.329079211 0.275302887 0.000466492813 252 123 0 0.303506941 
0.299411297 0.0426838994 -0.190547943 0.000843809452 172 75 0 0.508077323 
-0.0984692574 -0.0403760076 -0.0707845688 0.000831450336 176 88 0 0.520127833 
0.0144834518 -0.130486429 0.0823435783 0.000959367491 240 131 0 0.573072135 
-0.682982922 0.413081944 0.396333218 0.000777292589 158 0 0 0.252519339 
0.0269122124 -0.710004926 0.0864863396 0.000757951871 255 167 0 0.861296356 
0.68741703 -0.14076525 -0.45958662 0.000918741745 255 136 0 0.627434075 
-0.67552948 -0.520052254 0.492622375 0.00104393007 190 93 0 0.715695381 
-0.135732651 0.211340964 0.00902938843 0.000868754985 255 157 0 0.392603189 
-0.505910873 0.283707201 0.242665768 0.000636234705 167 78 0 0.329624385 
-0.204969406 0.875820458 0.0629076958 0.000526715012 162 83 0 0.0580979623 
0.0640273094 -0.278002739 0.00184822083 0.000124054146 191 96 22 0.64983511 
-0.583813667 0.295745194 0.314974308 0.00076658139 169 81 0 0.317952931 
-0.694890976 0.43405062 0.407948494 0.000343438121 204 105 0 0.241251677 
0.102404118 0.0265532136 -0.147741795 0.000814945146 255 123 0 0.501651645 
0.0319705009 -0.212025762 0.0315742493 0.000519365829 208 97 0 0.614778101 
-0.838238716 0.578097403 0.590594769 0.000989380176 202 94 0 0.15934138 
-0.16973877 0.703943551 0.0455760956 0.00050134433 232 103 0 0.145890459 
0.430306435 0.0147463679 -0.314480305 0.000887528295 179 26 0 0.531511128 
-0.142047405 0.475549161 -0.0691285133 0.000766192097 106 50 0 0.261151493 
-0.512357235 0.161269248 0.200893879 0.000945596665 228 105 0 0.389854908 
-0.502175808 0.185778916 0.262499809 0.00088341214 180 68 0 0.378448904 
-0.562793255 0.256589115 0.282765865 0.000713181333 150 27 0 0.338904679 
0.672178268 -0.0863454938 -0.458231926 0.00105835835 195 91 0 0.599338174 
-0.547828674 0.22777611 0.246880054 0.00095634727 164 80 0 0.35428521 
0.747048855 -0.175693572 -0.526985645 0.000545747636 210 122 46 0.649116516 
-0.60528183 0.414974988 0.34026432 0.000628193666 153 36 0 0.257269323 
-0.442128658 0.121288717 0.243075848 0.000841110596 233 133 0 0.414817989 
-0.628667355 -0.444620311 0.352510452 0.000862576067 192 99 0 0.681728423 
-0.00337028503 -0.198014081 0.0695147514 0.000757734233 238 155 0 0.605243981 
-0.638875008 -0.442526877 0.29979229 0.000893174205 220 101 0 0.679943144 
-0.0678262711 0.102660239 0.0382590294 0.000500223658 255 131 0 0.451456487 
-0.075340271 -0.178519428 0.147177219 0.000909208204 168 83 0 0.590310037 
0.365354538 0.0531510711 -0.261826038 0.00105121883 220 108 0 0.507715702 
0.617565632 -0.106499732 -0.461053848 0.00036244822 170 43 0 0.605332017 
-0.180231571 0.448816717 -0.0895533562 0.000980913173 187 67 0 0.271609426 
-0.554032803 -0.377768338 0.20886755 0.000609726063 224 106 0 0.654048443 
-0.00577926636 -0.16426307 0.0816817284 0.000699553988 158 58 0 0.58833456 
-0.0597929955 0.110822499 0.026787281 0.000905305205 122 59 0 0.447997928 
-0.444668293 0.167126 0.192884445 0.000998524018 155 13 0 0.391906798 
-0.696792126 0.430127084 0.398353577 0.000969958492 255 255 0 0.243057698 
-0.245464802 -0.14708209 0.0689892769 0.00091605878 233 117 0 0.562269032 
-0.388384819 -0.272482812 0.187533855 0.000853980076 162 45 0 0.613977075 
0.0720911026 -0.626709342 0.0135035515 0.000464021694 255 172 0 0.823307574 
-0.0119667053 -0.226571739 0.0545978546 0.000661226164 201 94 0 0.618773043 
-0.175686359 0.809406817 0.0895957947 0.000679775083 175 66 0 0.0931684077 
-0.0718398094 0.167488992 -0.0134034157 0.000933781499 165 58 0 0.419021875 
0.0830140114 -0.30189532 0.0176281929 0.000781520852 178 72 0 0.663070619 
-0.118123055 0.399405897 -0.103609562 0.000914742413 203 101 0 0.300653368 
0.0686988831 -0.332715929 0.0400819778 0.000738005969 202 95 0 0.677302897 
0.594873905 -0.082105279 -0.459925175 0.000610138697 188 55 0 0.591576457 
-0.706954479 0.454661906 0.455368042 0.00103087141 180 90 0 0.23014982 
0.111073971 -0.450448394 0.0148792267 0.000495031243 255 129 0 0.738774717 
0.652040005 -0.0946835279 -0.43918848 0.00074436568 153 71 0 0.601997614 
-0.150048256 0.0985147357 0.0670866966 0.000277413637 213 102 0 0.447492301 
-0.513335228 0.180548847 0.210484028 0.000792792824 164 75 0 0.380224854 
0.0334334373 -0.0501193404 -0.0597176552 0.00085981749 150 52 0 0.53461498 
-0.380615711 -0.236918569 0.174664974 0.000877897197 234 109 0 0.596913755 
-0.191439152 0.699468195 0.0220217705 0.000834504783 211 116 0 0.14652063 
-0.428448677 0.0901092887 0.173679352 0.000801427581 232 121 0 0.431277663 
0.0816965103 -0.697669566 0.0334224701 0.000763526477 202 96 0 0.859191477 
-0.685109138 0.427362978 0.391822815 0.00069577666 162 0 0 0.24528338 
-0.0632324219 -0.191658616 0.0806264877 0.000849657459 180 87 0 0.59771055 
0.105809689 -0.679825842 0.0455360413 0.000294609257 173 85 0 0.852110267 
-0.12512064 -0.128961682 0.190593719 0.000840700988 211 100 0 0.562095761 
-0.656371117 -0.540805459 0.505966663 0.000807367091 255 220 0 0.727387011 
0.567032814 -0.0390419364 -0.402150631 0.000813401362 179 73 0 0.56818819 
-0.150692463 0.417470992 -0.103309631 0.000655298762 255 158 0 0.289312631 
0.0989103317 -0.648067474 0.0164380074 0.000461146148 202 104 0 0.835860074 
-0.665567398 -0.510016799 0.479455948 0.000426079932 198 101 0 0.711449206 
0.0668072701 -0.722949743 0.0412359238 0.000740905991 208 98 0 0.870634973 
-0.078391552 -0.196662903 0.0739140511 0.000615133205 217 107 0 0.599081755 
-0.472721577 0.19932133 0.209854126 0.000444305711 224 102 0 0.373891175 
-0.184373856 0.665069401 0.0219826698 0.000574307458 188 87 0 0.164092168 
-0.656936646 0.433486283 0.381999016 0.000764951401 187 88 0 0.244310096 
0.0385975838 -0.0489240885 0.0087852478 0.000528055301 163 36 0 0.534400463 
-0.0678892136 -0.185190737 -0.0079164505 0.000200194976 204 102 0 0.594163001 
-0.502189159 0.154400647 0.197607517 0.000748563267 255 150 0 0.394004613 
-0.51955986 -0.332888246 0.23540926 0.000892095966 255 191 0 0.63432157 
-0.533465385 -0.327674687 0.23046875 0.000585595495 195 78 0 0.630718708 
-0.546724796 -0.355264485 0.242335796 0.000441932818 173 22 0 0.643426538 
-0.551428795 0.225135982 0.269937992 0.00074430072 162 0 0 0.355330586 
0.127604961 -0.531586885 0.035551548 0.000952603878 254 159 0 0.780211926 
-0.555765152 0.313180745 0.309029579 0.000775001652 178 84 0 0.311362147 
-0.671324253 -0.475902379 0.430238724 0.000752005959 178 68 0 0.694114506 
0.0378890038 -0.325118482 0.0557403564 0.000773907057 212 101 0 0.671280563 
0.152757168 0.0110527873 -0.162463665 0.000782768417 162 51 0 0.51302278 
-0.372805595 -0.203883231 0.157244205 0.000893857912 168 51 0 0.581107259 
-0.251149178 0.0488533378 0.147046566 0.000989216263 255 142 0 0.464711785 
0.698042393 -0.13479048 -0.462605953 0.000210012106 187 96 0 0.625249743 
-0.386700153 0.0898939967 0.23683548 0.000667360262 255 255 0 0.434440821 
-0.577501774 -0.353570282 0.23491478 0.000765806006 228 107 0 0.640333354 
0.0176520348 -0.263949156 0.0547657013 0.000863806054 243 116 0 0.639472485 
0.0217795372 -0.214051247 0.000390529633 0.000431081222 171 83 0 0.61503619 
0.0566654205 -0.300538599 -0.00209283829 0.000692135422 172 45 0 0.660469115 
0.248306751 0.0591980815 -0.226278782 0.000658236328 197 91 0 0.496148527 
-0.68827343 0.420505106 0.398455143 0.000915679964 151 21 0 0.248451665 
0.0433888435 -0.240546465 0.0328650475 0.000443070574 160 52 0 0.629754126 
-0.176599979 0.51820308 -0.0833501816 0.000722602475 177 89 0 0.237474874 
0.125164986 -0.487818062 0.0337877274 0.000520654139 198 96 0 0.758333564 
-0.618328571 -0.454949081 0.337412834 0.000492399035 215 134 0 0.687606156 
0.00441932678 0.0253843665 0.0307374001 0.000714346243 255 144 0 0.495057583 
-0.390425205 0.0693840384 0.166501999 0.000555708539 206 100 0 0.444336593 
0.00372457504 -0.102886915 0.101484776 0.00104644196 145 54 0 0.558601141 
-0.129854202 0.172370255 -0.0263462067 0.000631039846 171 58 0 0.412354469 
-0.561163902 0.260822356 0.277447701 0.000807145901 181 22 0 0.336925119 
-0.0845966339 -0.187167346 -0.00259876251 0.000775658642 255 148 0 0.593919754 
0.122247219 -0.0234122276 -0.0809407234 0.000986578176 216 100 0 0.527876318 
-0.543413162 0.284060538 0.256261826 0.000723208359 173 10 0 0.326703697 
-0.0888662338 0.126374543 0.0826683044 0.00072662998 126 63 0 0.438159049 
0.483435631 0.0407102704 -0.347292423 0.000845154806 152 48 0 0.52252835 
-0.423416138 0.104452908 0.186292648 0.000773871318 165 84 0 0.424534798 
0.149766922 -0.00252914429 -0.155731678 0.00101018825 183 73 0 0.519537568 
0.545149326 -0.0693271756 -0.407787323 0.00052250101 255 169 0 0.581600964 
-0.271528721 -0.0756241679 0.052157402 0.000702398538 230 116 0 0.524933398 
0.0614404678 -0.320686758 0.0483298302 0.00074559846 193 100 0 0.670807719 
0.0516910553 -0.376682401 0.0487999916 0.000465871883 247 127 0 0.697855473 
0.0938796997 -0.615936399 -0.00589799881 0.000569324824 201 93 0 0.81956172 
-0.642586231 -0.57160759 0.530704975 0.000749492727 229 111 0 0.743667305 
0.156042576 0.00248301029 -0.160233498 0.000805943622 187 69 0 0.517512083 
-0.397825241 0.125956714 0.201041698 0.000788219855 114 58 0 0.415747166 
-0.501717567 0.205128014 0.222014904 0.000933140574 245 145 0 0.368889481 
-0.520219803 0.278428376 0.27316761 0.000790476217 255 189 0 0.331193984 
0.195792198 0.00572532415 -0.126834869 0.000711279863 255 141 0 0.518814743 
0.128698349 -0.0250415802 -0.115554333 0.000787563622 164 68 0 0.529156387 
0.12364769 -0.589670837 0.0256643295 0.000422002166 183 92 0 0.808719099 
-0.0843200684 0.285393059 -0.0370383263 0.000900248357 204 98 0 0.359653562 
0.653264523 -0.0714125633 -0.460937023 0.000503353018 167 43 0 0.590550005 
0.011200428 -0.765247047 0.104439259 0.00103966543 184 87 0 0.887534142 
-0.867792606 0.571471274 0.546028614 0.000878246268 240 113 0 0.160462871 
0.482668877 -0.0212823749 -0.371961594 0.00107102282 166 63 0 0.55320704 
-0.463815212 -0.336146176 0.190067291 0.000578349573 209 110 0 0.640017867 
0.122172356 -0.523205638 0.00304937363 0.000586419948 184 74 0 0.775658965 
0.0056681633 -0.292649329 0.0399065018 0.000762474141 227 111 0 0.652824104 
-0.593346596 -0.411265433 0.293856144 0.000861402135 160 79 0 0.667777538 
-0.502570629 -0.30243361 0.223982811 0.000813118531 183 88 0 0.62046653 
-0.751941681 -0.691398501 0.63608408 0.000829527504 187 109 49 0.795051396 
-0.443003654 0.132318318 0.250300884 0.000154524168 228 143 0 0.409285694 
-0.0926361084 0.230302513 -0.0458111763 0.000755143177 217 105 0 0.386357576 
-0.250556946 -0.00345134735 0.186150551 0.000439494906 246 155 0 0.490686864 
-0.528895855 0.302513778 0.258622169 0.000725267397 147 0 0 0.318617761 
-0.518779755 0.265546143 0.24462986 0.000977010699 211 100 0 0.337686181 
-0.000395774841 0.0272369981 0.0481758118 0.000890776108 255 186 0 0.493786573 
-0.181636333 0.46108824 -0.0813579559 0.000952923729 188 81 19 0.265422612 
-0.600144386 0.410874784 0.335575104 0.000844983617 170 50 0 0.259678274 
0.0106973648 -0.770623684 0.12083149 0.000822533912 183 54 0 0.890162945 
-0.454206944 0.126608193 0.191871643 0.000802304887 168 22 0 0.411296397 
-0.242156506 -0.147964656 0.0608406067 0.000930637354 200 108 0 0.562948823 
0.0832848549 -0.607045472 -0.00601100922 0.000320869905 185 86 0 0.814378142 
0.131808281 0.0315425992 -0.0942549706 0.000435884227 139 18 0 0.501330614 
0.0325798988 -0.683408856 0.0636339188 0.000913972675 252 131 0 0.848525524 
0.0499138832 -0.873517632 0.113862991 0.00105726824 205 102 0 0.944046855 
0.429687023 0.0186325908 -0.323530674 0.000958056306 162 77 0 0.529539108 
0.129813194 -0.522612572 0.00822162628 0.000829664583 165 61 0 0.775924325 
-0.612077713 0.361632407 0.320221424 0.000870635849 206 97 0 0.283218056 
-0.466066837 0.194529593 0.220788002 0.000854550803 160 30 0 0.376753956 
0.23967123 0.0204001069 -0.157604694 0.000512937084 238 128 0 0.514751554 
-0.225435257 -0.0682116747 0.230130196 0.000690126093 255 191 0 0.52463299 
0.688919544 -0.11240834 -0.465173721 0.000994322938 208 97 0 0.613485336 
0.00902080536 -0.0428566337 -0.0393967628 0.000628143433 166 44 0 0.529227078 
-0.473587513 -0.293634474 0.174425602 0.000780819682 193 94 0 0.618225992 
0.0516881943 -0.644447446 0.0341219902 0.000505818811 146 29 0 0.83060813 
-0.112965107 0.0800860524 0.0835208893 0.000335427234 255 153 0 0.459343731 
-0.519964218 0.166208565 0.262256145 0.00105886802 160 52 0 0.386849135 
-0.537731647 -0.296951294 0.223504543 0.000716629031 211 100 0 0.615174353 
-0.637482166 -0.434731185 0.334712982 0.000483147887 241 119 0 0.676180124 
-0.735758305 0.448023856 0.517243385 0.000202206196 242 123 0 0.231332093 
0.154653549 0.017916739 -0.104438782 0.000956216594 181 84 0 0.509758592 
0.0604896545 -0.694491804 0.0342121124 0.000892890675 181 67 0 0.856063604 
-0.325095654 0.0421463847 0.216026306 0.000780944363 170 65 0 0.462623298 
-0.501111984 0.194031537 0.266071796 0.000368914451 166 48 0 0.374435276 
-0.062309742 -0.188028336 0.0372290611 0.00105707592 255 124 0 0.59597832 
-0.275015354 -0.154831111 0.195966721 0.000885231944 199 95 0 0.563947439 
0.422212601 0.0272817016 -0.316017628 0.000594411278 207 97 0 0.52470386 
-0.0365371704 -0.237938285 0.0464277267 0.00089691818 240 139 0 0.622609496 
-0.496370316 0.25578016 0.237369537 0.000861852779 169 74 0 0.344168603 
-0.452045918 -0.305280745 0.198477268 0.000666529289 223 120 0 0.625577033 
-0.256149769 -0.109540939 0.193836212 0.000816178217 230 131 0 0.542874575 
-0.575378418 0.327445805 0.2757864 0.000772956642 174 90 0 0.302853912 
-0.60224247 0.352665961 0.305646896 0.000667386164 245 120 0 0.288383484 
-0.146620274 0.156477153 0.0503282547 0.00102415774 162 60 0 0.419006586 
-0.739043713 0.460012853 0.55557251 0.000948395871 190 67 0 0.225147635 
0.0750145912 -0.625114739 0.00631761551 0.000528550008 193 96 0 0.822731137 
-0.168920994 0.616036236 -0.00268554688 0.000858416024 159 30 0 0.189533129 
-0.294464111 -0.116078556 0.140264988 0.000730917091 201 95 0 0.543310821 
0.423006535 0.0571977496 -0.320970058 0.000597776379 147 68 0 0.509930134 
-0.161220074 0.578500807 -0.0390152931 0.000693196431 165 17 0 0.208706349 
0.102039337 -0.474390805 0.000455856323 0.000360738777 163 53 0 0.749983549 
0.645984173 -0.0998561978 -0.42889452 0.00105042534 236 120 0 0.604118884 
0.473763466 0.00683885813 -0.336247444 0.000675416901 234 124 0 0.538613081 
0.0909671783 -0.407439053 0.0511260033 0.000807864591 150 35 0 0.715979517 
0.742343426 -0.165639222 -0.499897003 0.000846154231 195 93 0 0.643787384 
-0.539926052 0.276963532 0.29244566 0.000737358874 188 89 0 0.330477595 
-0.596906185 0.327087462 0.31854248 0.000957793905 255 152 0 0.301455557 
-0.534626007 -0.350007117 0.24169302 0.000706105377 175 38 0 0.641705811 
-0.166611671 0.784202397 0.0555129051 0.000809746271 255 195 0 0.106328711 
0.654506207 -0.132827878 -0.475543976 0.000966913882 255 146 0 0.621089458 
-0.0731868744 0.046474278 0.00193166733 0.00105702365 252 147 0 0.478920043 
-0.641859531 -0.536513805 0.48883009 0.000777318724 255 183 0 0.726321638 
-0.0785484314 0.0352820754 -0.0409555435 0.000589514675 225 107 0 0.484076381 
0.0386462212 -0.00323432684 -0.089466095 0.000671097194 255 182 0 0.51175195 
-0.602431774 0.408164799 0.320947647 0.000864608272 173 86 0 0.260854363 
-0.266794682 0.0447233319 0.181986332 0.000880924286 161 80 0 0.465613991 
-0.255745888 0.0107882619 0.197154522 0.00080822676 177 90 0 0.483247191 
0.0138702393 -0.048332274 0.0742440224 0.000689608452 217 153 0 0.532296777 
0.506005764 -0.0435968041 -0.379163742 0.000644668529 237 112 0 0.565978587 
-0.16055727 0.650174677 0.00743246078 0.000547955919 255 255 0 0.173220307 
-0.824267864 0.554754198 0.619242191 0.0007157785 255 137 0 0.171937406 
-0.5566926 0.297931731 0.262255669 0.000703565776 178 52 0 0.318854362 
0.106490135 -0.0280393958 -0.0855236053 0.000114724215 237 116 0 0.529016674 
-0.0147094727 -0.117122948 -0.0414710045 0.000966610794 148 71 0 0.564309597 
-0.435763359 0.136059344 0.190843105 0.000461691874 150 0 0 0.407961011 
-0.0864152908 0.301730454 -0.0336270332 0.000864830043 251 122 0 0.351400375 
0.479982853 0.0238093734 -0.370978355 0.000579868502 143 31 0 0.530654728 
-0.406137943 0.0796234012 0.230649948 0.000914114178 255 167 0 0.438109726 
-0.595450878 0.340008795 0.2897439 0.000756822701 210 98 0 0.295155913 
0.0336418152 -0.250426829 -0.0118708611 0.000110904919 227 105 0 0.633938968 
-0.173219681 0.578716099 -0.0558609962 0.000688844244 174 90 0 0.207721129 
0.0589122772 -0.247206151 0.00487327576 0.000809419318 208 97 0 0.634192348 
-0.00565052032 -0.151350915 0.0958800316 0.000515635125 134 68 0 0.581942379 
-0.192240238 0.650086582 -0.00231647491 0.000785653072 173 63 0 0.170944482 
0.0437450409 -0.779868007 0.124454975 0.000777722744 180 55 0 0.897165596 
-0.396184921 0.119215071 0.205835819 0.000858672429 139 66 0 0.419209629 
-0.50305891 0.278403103 0.245922565 0.000401089957 168 62 0 0.332462847 
-0.181871891 0.706132233 0.0436925888 0.000720589072 255 166 0 0.143917173 
0.079064846 -0.594202101 0.0135912895 0.000894300349 241 121 0 0.807701647 
-0.653245926 0.433539093 0.393009186 0.000917579338 146 70 0 0.244554162 
-0.590629101 -0.431701839 0.259567738 0.000608608592 188 74 0 0.678108454 
-0.137890816 0.144153416 0.0432810783 0.000791493279 157 48 0 0.425755501 
-0.0216588974 -0.00596469641 -0.0339398384 0.00055037596 175 88 0 0.508690715 
-0.629448891 -0.470898807 0.402252674 0.000753171858 188 90 0 0.694699526 
0.126361847 -0.516349673 0.00731229782 0.00102628977 173 65 0 0.772566497 
0.0352630615 -0.230490983 -8.58306885e-05 0.000813125924 174 88 0 0.62417388 
0.158378601 0.0180712342 -0.170234203 0.000782191579 191 78 0 0.50995481 
0.258607864 0.0599243045 -0.173291206 0.000908308604 139 1 0 0.496542633 
0.0602331161 -0.271128595 0.0295329094 0.000284035021 168 81 0 0.646149218 
-0.184584618 0.659132302 0.0181512833 0.000801642833 255 164 0 0.167020246 
-0.674230099 -0.529920697 0.487718105 0.000779002439 153 64 0 0.720682979 
-0.526858807 0.305341065 0.271357536 0.000549034157 175 61 0 0.31736514 
-0.386940479 -0.226733565 0.230528831 0.000910767121 172 34 0 0.59140116 
-0.641465187 0.40201503 0.385150433 0.000490510021 166 82 0 0.261045665 
-0.496314049 -0.307511985 0.173633575 0.000916982652 255 144 0 0.623442292 
-0.535616398 0.284428298 0.294178009 0.000617490674 255 155 0 0.327092201 
-0.529138565 -0.383628309 0.2065382 0.000973341579 213 99 0 0.658776283 
0.0314698219 -0.322521091 -0.00755786896 0.000728208222 164 41 0 0.669522941 
0.0862598419 -0.475599229 0.045624733 0.000652497169 200 102 0 0.749427378 
-0.419195175 0.0910974145 0.232913971 0.000481081079 255 206 0 0.431465238 
-0.488087654 0.153389037 0.251508713 0.000850924989 174 88 22 0.395538539 
0.459898472 0.0228812099 -0.318073273 0.000491444778 255 142 0 0.529644489 
0.00991487503 -0.195957601 0.00787830353 0.000728455314 204 94 0 0.605197012 
0.699743748 -0.129530728 -0.468420029 0.000693970593 172 87 0 0.622766674 
0.0172362328 -0.836607754 0.130555153 0.000568258693 214 107 0 0.923355341 
-0.583427906 0.321446836 0.290586948 0.000869151962 234 114 0 0.305238783 
-0.316163063 -0.208773792 0.192627907 0.00079154229 216 114 0 0.58767879 
-0.537088871 0.228113234 0.277600765 0.000567816955 162 52 0 0.354904264 
0.0396127701 -0.670567989 0.0508685112 0.000255491934 184 82 27 0.842674136 
0.0106334686 -0.808230937 0.111808777 0.000900859246 161 47 0 0.908803225 
0.622527599 -0.1244331 -0.459153652 0.00105308101 169 60 0 0.614586353 
0.111796379 -0.645135045 0.0307207108 0.000553334248 176 73 17 0.83534956 
-0.188366413 -0.127401829 0.194996357 0.000859449327 238 130 0 0.556692123 
0.577942371 -0.0699657798 -0.406665802 0.000849525619 183 76 0 0.58431834 
-0.247394085 -0.161018729 0.141905308 0.000340579252 159 47 0 0.569037318 
-0.163366795 0.426030219 -0.0534152985 0.00073108013 86 29 0 0.284141213 
-0.460623741 0.186501801 0.202115059 0.000402798818 242 109 0 0.381132543 
0.0542225838 -0.413943946 0.0259656906 0.000830566511 255 154 0 0.716514349 
0.528055191 -0.0517324209 -0.392480373 0.0008774288 187 101 0 0.571626306 
-0.336714745 0.0808264613 0.203077793 0.000695378869 181 66 0 0.44259584 
-0.483115196 0.203791082 0.238279343 0.000778675603 163 59 0 0.370914221 
0.0240879059 -0.358283103 0.0434265137 0.00065715122 250 146 0 0.686712563 
-0.167566299 0.0495441556 0.00744247437 0.000606400601 224 107 0 0.470488459 
-0.609216213 0.409579813 0.353596687 0.000550438883 170 56 0 0.259656161 
-0.0574502945 0.100201428 0.00132131577 0.000671997899 226 124 0 0.453435242 
-0.626307964 -0.466132343 0.378977776 0.000909096154 175 88 0 0.692566395 
0.416992664 0.0756273866 -0.277775288 0.000556722807 204 96 0 0.5003528 
0.743104935 -0.158109486 -0.502234459 0.00103550195 231 107 0 0.640109956 
0.201040745 0.00799500942 -0.187160969 5.23241542e-05 180 76 0 0.518073678 
-0.576555252 -0.347764552 0.237868786 0.000890546187 254 127 0 0.637524307 
0.0570049286 -0.401157141 0.0186800957 0.000910956936 194 95 0 0.710378647 
0.183162689 0.0441641212 -0.20644474 0.000786800287 168 72 0 0.498832881 
0.512542248 -0.0571421385 -0.391714573 0.000814287574 242 124 0 0.573172569 
-0.252732754 -0.136157215 0.134563446 0.000624747365 240 135 0 0.556320608 
-0.393302917 0.106030405 0.185022354 0.000803214265 188 95 0 0.425957292 
-0.106174469 0.0978427529 0.00484037399 0.000321298954 145 59 0 0.451037377 
-0.435976982 0.0826380849 0.205881119 0.00027074953 170 82 0 0.434430629 
-0.237011909 0.0583696961 0.0985283852 0.000663102837 250 136 0 0.461028755 
-0.253562927 -0.0984126329 0.214672089 0.000896774291 242 146 0 0.537546754 
-0.533756733 0.219338834 0.274933815 0.0010177003 174 44 0 0.359498411 
0.539043903 -0.0751447082 -0.410601616 0.00088020449 155 46 0 0.584038198 
-0.657031536 0.398104608 0.366615295 0.000543509086 160 0 0 0.261844724 
-0.651324749 -0.462582827 0.408444405 0.000927263405 189 85 0 0.688975096 
0.168745995 0.00634521246 -0.167905807 0.000322029198 159 49 0 0.516527295 
-0.212879658 0.0234689116 0.155605316 0.000864038011 191 91 0 0.480098605 
-0.549435139 0.27918011 0.254248142 0.000736287155 179 16 0 0.328682452 
-0.120153904 0.149601519 -0.0262289047 0.000753778848 185 69 0 0.424352974 
0.0433063507 -0.821920156 0.12417078 0.000413658563 182 86 0 0.917982101 
-0.233031273 0.910727918 0.0737662315 0.000696428702 255 194 0 0.0387370512 
-0.216829777 0.016947329 0.157622814 0.000436495815 206 117 0 0.483042747 
-0.192729473 0.503373325 -0.0787529945 0.000771086779 183 87 0 0.243646368 
-0.570351601 0.292483628 0.284288406 0.000830520235 152 0 0 0.320555449 
0.377559662 0.0510833859 -0.223074436 0.000918443257 208 129 0 0.509634256 
-0.141942024 0.0533234477 0.166065216 0.000277178071 252 142 0 0.470490694 
-0.184738636 0.471713126 -0.0756378174 0.000857602339 179 76 0 0.259927899 
-0.194326878 0.527053416 -0.064060688 0.000803747855 255 139 0 0.231789246 
0.126047134 -0.519489586 0.0382494926 0.000562710105 146 72 0 0.774100304 
-0.158331394 0.731951773 0.0328149796 0.000801203598 178 83 0 0.132839739 
-0.307312965 0.0479821563 0.220324993 0.00068148796 151 53 0 0.461031914 
-0.438407421 0.152499259 0.212211609 0.000877552142 255 198 0 0.399616808 
0.0219864845 -0.22117573 0.0465655327 0.000667739834 172 92 24 0.6185835 
0.0613412857 -0.690054595 0.0769710541 0.00090216886 255 255 0 0.853925943 
-0.167504787 0.468210876 -0.0519742966 0.000936330995 147 66 0 0.262925863 
-0.559699059 -0.412883103 0.233371735 0.00087597064 255 175 0 0.671042919 
-0.599700928 -0.434861481 0.294790745 0.000726524624 242 131 0 0.679010749 
0.0784173012 -0.36071068 0.0407171249 0.000297127786 219 113 0 0.691893637 
-0.514268398 0.226749361 0.275274277 0.000891894975 169 50 0 0.357251227 
0.030766964 -0.793567002 0.137855053 0.00033576478 146 21 0 0.90300715 
-0.591569424 -0.367015362 0.245301723 0.000883527217 189 105 7 0.645969272 
-0.178874493 0.692067683 0.0357923508 0.000721752062 255 142 0 0.151109576 
0.0625309944 -0.301453352 0.0381960869 0.00108041696 146 68 0 0.661351919 
-0.0177645683 -0.0791575313 -0.0243735313 0.000498438312 147 55 0 0.54526341 
-0.450100422 0.15191251 0.231832981 0.000671873044 225 122 0 0.399051636 
-0.515036583 -0.347270489 0.229870796 0.000528234872 168 57 0 0.641783178 
-0.510674 0.213769734 0.271459103 0.000605489826 185 53 0 0.363949388 
-0.487382412 0.168382704 0.207632542 0.00046057615 206 96 0 0.388156652 
-0.15992403 0.456074178 -0.0534629822 0.000544179813 85 37 0 0.269497991 
-0.651326656 -0.559658289 0.523648262 0.000803666306 255 176 0 0.737103164 
0.501711845 -0.0154576898 -0.356762886 0.000847697956 241 126 0 0.551713407 
-0.53000021 0.292972624 0.25530529 0.000295953068 148 0 0 0.323267251 
-0.469306946 0.118448675 0.240513802 0.000916087185 255 220 0 0.414236277 
-0.181819916 0.772001565 0.0439949036 0.000444261532 148 37 0 0.111264147 
0.0263857841 -0.789177656 0.135477066 0.000714703754 172 52 0 0.900510252 
0.0969777107 -0.663757205 0.0232152939 0.000786878634 155 37 0 0.843497217 
0.504143238 0.0215162635 -0.36621809 0.000826305593 157 58 0 0.533560336 
-0.469991684 0.1584149 0.258634567 0.000791186932 188 82 0 0.394371718 
-0.56511116 0.343645394 0.322053432 0.000634921249 209 97 0 0.295574099 
-0.546215534 -0.332227647 0.233458519 0.000992682413 168 83 19 0.632042646 
0.550526142 -0.0743847489 -0.411542892 0.000751482439 198 102 0 0.584501982 
-0.68919611 0.442457259 0.474297047 0.000551977661 244 121 0 0.237500727 
-0.175811291 0.70303601 0.0427913666 0.000518090557 255 161 0 0.145895958 
-0.49279213 0.124089539 0.247503281 0.0010317819 242 137 0 0.409720272 
-0.321599483 -0.164289653 0.212263584 0.000640802493 229 123 0 0.565226376 
-0.0825400352 -0.190302432 0.0463681221 0.00104427792 194 93 0 0.595624685 
-0.373254299 -0.256974518 0.19004488 0.00038251144 168 10 0 0.607396066 
-0.440468311 0.113824666 0.239407063 0.000805407297 255 255 0 0.418640137 
0.043451786 -0.66055733 0.0594286919 0.000622954802 207 101 0 0.837992072 
-0.699278355 0.452566683 0.487069607 0.000473503838 163 80 0 0.231750548 
0.0141973495 -0.828381598 0.110854149 0.000957133481 197 73 0 0.919054449 
-0.542028427 0.214217126 0.251513481 0.00035659119 197 93 0 0.361432135 
-0.266735077 -0.0131800175 0.112828255 0.00065831939 208 105 0 0.494325727 
-0.486352444 0.202101171 0.26829195 0.000336114259 189 70 0 0.371515065 
0.0743103027 0.0178570151 -0.0671935081 0.000706848106 184 69 0 0.50390625 
0.0982193947 -0.610814571 -0.00334024429 0.00072439888 174 86 0 0.817340136 
-0.532755852 0.180310071 0.253015041 0.000922747538 225 109 0 0.378921449 
-0.464540005 0.181367934 0.223991871 0.000737624941 174 43 0 0.383391052 
-0.113436699 0.0528289676 0.147681713 0.000974381808 242 130 0 0.472822726 
0.819107533 -0.190075696 -0.584837437 0.000948538014 248 151 0 0.661522448 
-0.264501572 -0.128785431 0.136232853 0.000666819164 252 147 0 0.551804185 
0.473633289 -0.0114760399 -0.36342907 0.000296609942 173 76 0 0.547683656 
-0.180099964 0.631448805 0.00425100327 0.000716092298 168 77 0 0.181073472 
0.606490135 -0.0595141053 -0.451512814 0.0007414461 190 61 0 0.581226647 
-0.162896156 0.386819422 -0.06183815 0.000557841035 186 89 0 0.303615719 
-0.295262814 0.0628419518 0.18657589 0.000546249212 147 69 0 0.454546988 
0.0548944473 -0.247428596 0.0249948502 0.000514445186 172 66 0 0.634008408 
-0.684499264 0.406690896 0.409794331 0.000840532186 172 0 0 0.255576849 
-0.245521545 0.970212519 0.0619792938 0.000725304999 146 33 0 0.00833129883 
0.270420074 0.0544810891 -0.230096817 0.000753778382 158 57 0 0.500106096 
0.444131851 0.0268133283 -0.31207943 0.000805218355 186 79 0 0.526540697 
-0.26590538 -0.116624832 0.175782681 0.000680399768 188 95 0 0.545672417 
-0.582098961 -0.422135651 0.268303871 0.000857238774 188 104 0 0.67399019 
0.248250008 0.0709589124 -0.168507576 0.00107484276 158 38 0 0.49031359 
-0.47713089 0.171947062 0.263916016 0.000606340647 171 56 0 0.387140036 
0.0483088493 -0.698142469 0.0559954643 0.00103809021 135 24 0 0.856981695 
-0.488171577 0.185266435 0.26543951 0.000887878705 147 26 0 0.379728228 
-0.581522465 0.387301505 0.324489117 0.000838847423 167 59 0 0.272728741 
-0.52023983 0.29813379 0.263887882 0.000690598157 255 232 0 0.321422964 
-0.129827976 0.228048146 0.0125060081 0.000949377951 189 87 0 0.384752452 
-0.568945885 -0.400719941 0.269004345 0.000243570132 152 0 0 0.664335608 
-0.152380943 0.507831872 -0.0656347275 0.000753095432 241 109 0 0.244389758 
-0.668131351 0.422527969 0.368614674 0.000537718239 186 97 42 0.248923451 
0.0616469383 0.00777894258 -0.072312355 0.000936581637 162 43 0 0.507975698 
-0.292533398 -0.129799485 0.189812183 0.000956868986 255 255 0 0.550254762 
0.43670702 0.0673988461 -0.289716721 0.00101424148 158 21 0 0.505875647 
0.713729858 -0.138316929 -0.503284454 0.000639955164 201 96 0 0.628146648 
0.628283024 -0.0922919512 -0.484531403 0.000697175565 176 52 0 0.599072695 
0.49369669 -0.0187851787 -0.359385967 0.000528127712 189 87 0 0.552776277 
-0.19455719 0.615840495 -0.0137677193 0.000627605012 184 88 0 0.187753364 
-0.598628998 -0.430858791 0.301095963 0.000705118873 226 108 0 0.677104831 
0.00764513016 -0.0594473481 -0.000329494476 0.000704031496 255 169 0 0.537351668 
0.142410278 -0.00480949879 -0.151399136 0.00089759758 175 90 0 0.520129502 
-0.565190315 0.35286206 0.32442522 0.000646426808 192 107 48 0.290998846 
0.733464241 -0.153937697 -0.513532639 0.00082700752 229 115 0 0.637335896 
-0.437279701 0.106823623 0.236790657 0.000858195068 135 65 0 0.422344476 
0.0404806137 -0.743982613 0.11415863 0.000797258224 146 31 0 0.879135251 
-0.0779247284 0.0580068231 0.0824260712 0.00050523394 189 90 0 0.472855508 
-0.551071644 0.200941622 0.279109478 0.000808247947 185 74 0 0.36735177 
-0.134059429 0.101875126 -0.00711393356 0.000558012747 165 71 0 0.446996808 
-0.560436249 0.264388382 0.268532276 0.000633821997 149 0 0 0.335210502 
-0.104277134 -0.0130955577 0.178533077 0.000872108154 215 101 0 0.506177485 
-0.500443459 0.165045202 0.204558372 0.00078992825 252 119 0 0.388855159 
-0.23772192 0.0193415284 0.127727032 0.000872172182 131 40 0 0.480326205 
0.0357370377 -0.306371033 0.063387394 0.000394331728 193 92 0 0.661828458 
-0.117652416 -0.0795410275 -0.0703043938 0.000758197159 255 192 0 0.538140714 
-0.161545277 0.751549661 0.0640945435 0.000537651824 255 141 0 0.122888185 
-0.130802155 0.319657981 -0.0969595909 0.000850706245 197 92 0 0.339262635 
-0.465001583 0.144047081 0.19770813 0.000552069105 154 0 0 0.401860267 
-0.567503452 -0.347597063 0.227118015 0.000895692618 228 120 0 0.638103902 
-0.507362843 -0.257676423 0.221348286 0.000793583982 168 53 0 0.597925901 
-0.520349026 0.231811821 0.234908104 0.000673990115 244 116 0 0.354296148 
-0.729718685 0.462492049 0.494143486 0.000839729328 191 96 0 0.224601224 
0.676517963 -0.115394235 -0.498339653 0.000232379447 158 74 0 0.61405772 
0.700202942 -0.156456232 -0.497408867 0.000197000525 216 101 0 0.636149466 
-0.837610245 0.574287951 0.607154369 0.000824198942 213 100 0 0.161276072 
-0.0160017014 -0.176027238 -0.00711297989 0.000821919588 255 166 0 0.593418658 
-0.217461586 0.0415545106 0.141721725 0.000139735173 255 192 0 0.470796734 
-0.698120594 0.42242986 0.411640644 0.000760546653 250 142 0 0.246776551 
-0.232409477 0.0617704988 0.0472888947 0.000722623314 210 98 0 0.459679633 
0.589017868 -0.0594570637 -0.457115173 0.000666593318 167 41 0 0.579919159 
0.0532178879 -0.670591235 0.0640249252 0.00059469929 186 98 32 0.843681693 
-0.276802063 -0.0468947887 0.171669483 0.000618268794 192 90 0 0.510303855 
-0.575550556 0.36302048 0.290882587 0.000631790608 211 100 0 0.285204053 
-0.507797718 0.167387068 0.2041049 0.000763426942 211 99 0 0.387155682 
0.0391879082 -0.362687767 0.0204043388 0.000686084852 177 71 0 0.690001845 
-0.572657585 0.313654363 0.31141758 0.000485685945 180 88 0 0.309890628 
-0.514908314 0.29129535 0.25578928 0.000340371742 161 75 0 0.325203627 
-0.529702187 0.300597608 0.290861607 0.000392223417 253 180 0 0.319508731 
-0.396823883 0.0783079267 0.174706936 0.000832006393 169 83 0 0.439443856 
-0.648806572 0.40270263 0.335245132 0.000309054332 177 9 0 0.260167241 
-0.508428097 0.14880079 0.220095158 0.000704784703 247 117 0 0.396324188 
-0.151499271 0.0925158858 0.0713267326 0.000422582962 112 52 0 0.450360149 
-0.617993355 -0.45016396 0.343441486 0.000794016873 238 167 0 0.685258269 
-0.635791302 -0.478200257 0.438694477 0.000875428261 180 30 0 0.697855115 
-0.53587389 0.237142384 0.235859394 0.000901060761 175 22 0 0.350516796 
-0.571137905 0.356111109 0.287173748 0.000707908825 211 100 0 0.288952678 
0.12183094 -0.508151233 0.0430603027 0.000935593445 239 149 0 0.768170238 
-0.491379738 0.214497507 0.247757435 0.000456564303 163 59 0 0.365001202 
0.0493807793 -0.755280316 0.120769501 0.000566500938 182 60 0 0.885388017 
0.0775847435 -0.280381739 0.00953197479 0.000719811535 196 100 15 0.652007103 
-0.722318172 0.431666911 0.488143444 0.000952315168 216 112 0 0.240425512 
-0.59068346 0.392618835 0.342606068 0.000440827251 181 72 0 0.269421846 
-0.50228548 0.12384361 0.237578392 0.000427122985 173 50 0 0.409147203 
0.0471482277 -0.00302958488 -0.11591959 0.000667462591 202 101 0 0.512272835 
-0.165943146 0.493590534 -0.0483942032 0.000707917381 255 141 0 0.250457436 
-0.0569753647 0.0421804786 -0.0161757469 0.00102582341 235 118 0 0.48223564 
0.129832268 -0.516477168 0.0325727463 0.000664015475 251 181 0 0.772883832 
0.423570633 0.0164131522 -0.317819118 0.000765166187 231 106 0 0.53019166 
-0.612047672 -0.400934398 0.286494732 0.000718716183 237 152 0 0.661286473 
-0.628701687 -0.435980499 0.333454609 0.00085657381 255 171 0 0.677442431 
0.0793480873 -0.384783387 0.0585317612 0.000715201837 255 135 0 0.703896523 
-0.636404991 -0.503282547 0.447019577 0.000725961523 171 16 0 0.71024555 
-0.468044281 0.116944134 0.181359768 0.000762489683 175 32 0 0.415074676 
-0.648531437 0.400921166 0.387806416 0.000669155095 191 88 0 0.261070609 
-0.17816782 0.625378668 -0.000427722931 0.000617507205 176 71 0 0.184224471 
-0.548289776 0.230688035 0.254551411 0.000838330307 154 73 0 0.35280773 
0.0728173256 -0.477553189 0.0449256897 0.000945425592 199 96 0 0.749412 
-0.0299344063 -0.235236287 0.0460319519 0.000903502048 206 98 0 0.621753335 
-0.392023563 0.0836976171 0.180230618 0.000877222454 255 125 0 0.43712312 
0.0393643379 -0.26770252 0.0532140732 0.000880701584 179 75 0 0.642922938 
-0.149258137 0.0682201982 0.046104908 0.000688658969 255 161 0 0.462569594 
0.391736984 0.0852088332 -0.271002769 0.000853781938 162 80 0 0.493753493 
-0.644065857 -0.551391482 0.486066818 0.000846603245 255 233 0 0.733536243 
0.527541161 0.000148713589 -0.389051914 0.000647502777 189 96 0 0.545866966 
-0.258494854 -0.131226063 0.138247967 0.000733603491 222 120 0 0.553453982 
-0.144643784 -0.120581627 0.197755337 0.000740847958 211 100 0 0.556511819 
0.667363644 -0.119063258 -0.498106003 0.00102351676 255 166 0 0.61520654 
0.0312981606 -0.205058157 0.00789213181 0.000736000715 194 92 0 0.611274421 
-0.192631245 0.642882407 -0.00669336319 0.000740722346 158 48 0 0.174487561 
-0.543745518 -0.346414983 0.19352293 0.000981549267 252 125 0 0.639257133 
0.0716381073 -0.305866897 0.00904273987 0.000878080667 161 33 0 0.664206862 
0.512887955 0.00727051497 -0.358717442 0.000986113911 246 129 0 0.541263402 
-0.49111557 0.144714057 0.193873405 0.000580642372 239 120 0 0.399617791 
-0.58799839 0.320635617 0.307124138 0.000141853583 198 94 0 0.305306286 
-0.63292408 -0.494172871 0.446613789 0.00048990408 178 23 0 0.705983937 
-0.0518665314 0.0497989058 0.0354480743 0.000861128909 228 120 0 0.478832543 
0.0829191208 -0.704045951 0.0401334763 0.000841525616 255 173 0 0.862442434 
-0.135697842 0.0656337142 0.00935935974 0.000831491954 255 178 0 0.464844674 
-0.204147339 0.0462149978 0.152928829 0.000989540364 197 97 0 0.469460875 
0.375473499 0.082659781 -0.261085033 0.000950549496 169 80 0 0.493826568 
-0.167303085 0.710713923 0.048787117 0.000449924904 255 127 0 0.142712191 
0.506264687 -0.0217198133 -0.406664371 0.00052232272 213 101 0 0.555151284 
-0.554232121 0.240175545 0.269598007 0.000910472183 157 43 0 0.347669005 
0.0846881866 0.0174487233 -0.110594273 0.000121691803 246 118 0 0.504868388 
-0.195403576 0.0435332656 0.162082672 0.000608791132 224 135 0 0.47143054 
0.207917213 0.0604298711 -0.194139957 0.000654257019 229 110 0 0.49258092 
0.404386044 0.0775648952 -0.292314053 0.000887324684 183 92 40 0.498469263 
-0.119450569 0.173545182 -0.03429842 0.000514181098 164 52 0 0.4125337 
