ply
format ascii 1.0
comment created by gply, a Houdini tool.
comment converted from .[b]geo
comment for more information about Houdini, try:
comment www.sidefx.com
element vertex 627
property float x
property float y
property float z
property float depth
property uchar red
property uchar green
property uchar blue
property float length
element face 0
property list uchar int vertex_indices
end_header
0.0432936847 0.0109423744 0.0214350745 0.000713595015 148 72 27 0.521484673 
0.0333740748 0.0570420921 0.201619789 0.000778566813 117 49 20 0.702086508 
-0.427107155 0.0052074804 -0.340475738 0.00108624529 104 41 14 0.158736154 
0.378433704 0.0154591314 0.0687805712 0.00080065144 156 72 25 0.568939805 
-0.275555819 -0.0480937399 0.148712337 0.000492126564 69 5 1 0.649056613 
-0.271646649 0.00497686397 -0.216363013 0.000717197603 72 9 2 0.283136159 
-0.204057261 -0.0187029112 -0.130913451 0.000672449823 122 47 15 0.368783534 
-0.214010075 -0.0477624871 0.126217455 0.000428673229 89 17 4 0.626509607 
0.00334253185 0.0314756073 0.337985337 0.000836742693 91 17 5 0.838767707 
0.367139488 0.0295007601 0.0722797066 0.000823354058 142 77 34 0.572447002 
0.195671976 0.0415550396 0.000163579636 0.000704117061 78 10 3 0.500163972 
0.0298767239 0.0573154278 0.199931249 0.000974300259 143 67 24 0.700394034 
0.534327686 0.031652756 0.167038664 0.000732954417 135 81 33 0.667425275 
-0.162810236 -0.00540565327 -0.0879058912 0.000738662493 105 55 22 0.411890626 
0.408488661 0.0239668004 0.102500774 0.0010948421 92 12 3 0.602738023 
0.1711642 0.0152925551 0.0241335034 0.000758046226 81 14 4 0.524189353 
-0.195036843 -0.00143771665 0.0822030157 0.000903494947 92 11 3 0.582393289 
-0.0021626146 0.036909014 0.367657036 0.000819768582 83 39 15 0.868508041 
0.00212649163 0.00270844018 -0.316544682 0.000401242869 109 34 10 0.182722613 
0.0230725911 0.0533329099 0.190620705 0.00105830724 131 66 36 0.691061914 
-0.0332529657 -0.0306795146 0.0805652663 0.000708458712 123 62 23 0.580751777 
-0.210676566 -0.016557198 0.104640573 0.000893809018 123 34 8 0.604882836 
0.39256537 0.0223296508 0.0959912986 0.0010631351 93 13 4 0.59621346 
0.279722154 0.0306705516 0.0201214757 0.000606844842 86 26 8 0.520168066 
-0.121085592 -0.00646346249 0.0675167367 0.000514042098 139 69 24 0.567673028 
0.0164497159 0.00393005973 -0.309561372 0.000817097607 100 15 3 0.189722076 
0.0233225301 0.0113860546 0.0934279487 0.00100651034 70 29 10 0.593644202 
-0.224782497 -0.0286840182 -0.137414232 0.000768983155 170 113 73 0.362267703 
0.0101341037 0.029116435 -0.369870156 0.000636921264 164 71 22 0.129273683 
0.432211548 0.0321910419 0.130102307 0.000866148155 90 35 12 0.630403399 
0.344100833 0.0230842922 0.0617583729 0.000607228954 130 44 15 0.561901331 
0.402311087 0.0298565645 0.10553053 0.000814294093 91 38 13 0.60577482 
0.241905525 0.0271248035 0.013786518 0.000492033374 109 27 9 0.513818443 
0.0306927711 0.0517865978 0.166173384 0.000631134491 86 34 12 0.666558027 
-0.226893529 -0.00366426469 -0.15141049 0.000586427341 95 31 15 0.348239034 
0.0429598466 0.0304782074 0.132808357 0.00090122025 129 55 19 0.633115768 
-0.0836561248 -0.019527398 0.069798477 0.00059273612 108 47 17 0.569960058 
-0.364592195 -0.0120882485 0.200959951 0.000771064835 113 14 3 0.701425135 
-0.288239598 -0.000404861639 -0.248002857 0.00076174998 102 11 2 0.251423091 
-0.252833307 -0.0578354485 0.119734988 0.000918092846 88 14 4 0.620012164 
-0.204672545 -0.0198182575 -0.126948044 0.000649222929 113 47 15 0.37275812 
0.443566352 0.0268808343 0.106668681 0.000818242319 116 46 16 0.606915593 
-0.241733447 -0.0192682147 -0.140374139 0.000903257518 89 30 9 0.359300941 
-0.0624560118 0.0686257705 0.0567742847 0.000624203822 102 44 16 0.556905687 
0.288718939 0.0324902311 0.00915428903 0.000970790978 150 70 25 0.509175479 
-0.133157209 0.0276445039 -0.0394273512 0.000586397422 50 13 3 0.460481375 
0.167565569 0.0434341729 0.0103700077 0.000919556478 89 50 20 0.510393977 
-0.371934146 -0.0300885234 0.192874163 0.000782073708 119 43 15 0.693320632 
0.388709754 0.0179273095 0.0786155537 0.000780936563 90 17 5 0.578797519 
0.0121188629 -0.0182211138 -0.264045775 0.000879838073 112 45 13 0.235343039 
0.226301923 0.0431483611 -0.00279895519 0.000983034144 107 37 14 0.497194588 
-0.213788345 -0.0252052583 -0.123291068 0.000911674986 147 75 28 0.376423538 
0.0400930271 0.0376671478 0.110611625 0.000818717934 103 40 14 0.610867679 
-0.217918277 -0.0307554416 -0.122647695 0.000682869984 174 89 39 0.3770684 
0.41753751 0.0197062865 0.0966548026 0.000861122273 85 12 3 0.596878529 
0.46106407 0.0441095568 0.126254871 0.0010779514 77 18 4 0.626547158 
0.442861438 0.0472702645 0.123254575 0.000534274383 131 56 21 0.623539865 
-0.0874087438 0.0188408699 -0.0313636661 0.000710755703 94 43 17 0.468563735 
0.413074046 0.0322021469 0.11312212 0.00086583785 100 40 14 0.613383949 
-0.10910859 -0.000580016756 0.0643904954 0.00094734662 69 26 8 0.564539552 
-0.244285151 -0.0191146173 -0.153540045 0.00061220082 114 14 3 0.346104532 
0.100550286 0.017682422 0.00470142113 0.00100312615 89 24 7 0.504712284 
-0.233571157 -0.0197739247 -0.108212858 0.000370607129 98 31 9 0.391536653 
-0.126766577 0.00582402805 -0.0391705371 0.000903130509 151 75 41 0.460738778 
-0.221870989 -0.00754647609 -0.146827087 0.000362414372 95 23 9 0.352833033 
-0.00862630177 -0.0121277384 0.0924639925 0.00106785912 97 47 18 0.59267807 
0.0138647137 -0.0272011589 -0.280735344 0.000885443296 67 13 3 0.218614817 
-0.435423791 0.0195811782 -0.332644135 0.000746542355 136 59 21 0.166585878 
0.332700163 0.0435509793 0.0262316242 0.000630297814 73 22 7 0.526292324 
-0.253948271 -0.0420547798 0.135281429 0.000559972657 104 57 22 0.635594606 
0.0773949325 0.0276372191 0.00772536779 0.000580583059 106 23 7 0.507743239 
-0.395115674 0.00969953369 0.220675886 0.000657597382 127 74 30 0.721186697 
0.31773594 0.0314532705 0.01036679 0.000860238215 80 12 2 0.510390759 
-0.220653638 -0.0582688041 0.108370416 0.000733398367 123 45 15 0.608621299 
0.391176581 0.0154741127 0.0776400343 0.00077339384 78 12 3 0.577819765 
0.451709479 0.0465145148 0.129699856 0.000614319812 119 39 10 0.630000114 
0.337386817 0.0320013836 0.0504572466 0.000478787086 110 53 20 0.550574064 
0.456538796 0.0444461741 0.125492945 0.00106603489 113 33 8 0.625783443 
0.0315706842 0.0493303724 0.00520657143 0.000856452505 91 33 11 0.505218625 
-0.143368647 -0.00484806625 -0.0446071401 0.000434651942 97 21 6 0.455289602 
-0.192752108 -0.0129566742 -0.118970275 0.000995966722 98 17 4 0.380754322 
0.464276046 0.0317280516 0.133794591 0.000420610915 136 64 24 0.634104252 
-0.135072619 -0.018948758 0.0690188557 0.000752081454 127 49 18 0.569178641 
0.1597009 0.0253948271 -0.0064851027 0.000949731795 92 21 7 0.493499875 
-0.0116401268 0.0267356075 -0.47376737 0.00072004844 109 50 27 0.0251359884 
0.123191014 0.0347438566 0.012798653 0.000535101804 88 11 2 0.51282829 
-0.117005154 0.0326157361 -0.0264602154 0.000642945524 86 24 7 0.473478556 
-0.255482942 -0.0167549606 -0.18696177 0.000821140944 101 30 9 0.3126055 
-0.00260108896 0.0327888727 0.112869523 0.00079874415 133 79 33 0.613130808 
0.016911 0.00505860988 0.0939688385 0.000232597493 66 22 7 0.594186366 
-0.252829641 0.00254134578 -0.20610486 0.00083441817 95 30 9 0.29341808 
-0.110307544 0.0509566888 0.0453465208 0.000794679101 82 40 15 0.545451522 
0.0280278772 0.0394186862 0.263406545 0.000934683776 98 22 8 0.764016271 
0.00570006995 3.11156618e-05 -0.33929047 0.000516546483 60 7 1 0.15992415 
0.504534841 0.035001535 0.152291507 0.000730870699 111 37 11 0.652644038 
0.340435445 0.0375701673 0.0244054943 0.000592766271 69 11 3 0.524461985 
0.0239917748 0.0450754315 0.279700249 0.000917943544 110 60 24 0.780347645 
-0.289426863 -0.0087048104 -0.241992578 0.000539947825 152 100 51 0.257447273 
0.468239695 0.0376827866 0.129876673 0.000808556098 91 27 7 0.630177319 
0.35130471 0.029266445 0.0625767335 0.000881840708 102 33 10 0.56272155 
0.0224316176 0.0285382792 0.333386391 0.000890694908 114 67 27 0.834158123 
-0.086700134 0.0663813949 0.0343136378 0.000320328545 111 37 10 0.534393072 
0.38723743 0.0320965834 0.0864230245 0.000592496537 69 6 1 0.586623073 
-0.331480205 -0.0411608927 0.177634001 0.000961284386 119 49 17 0.678045213 
0.085481666 0.0257950779 0.00558891986 0.00057645014 157 73 26 0.505601883 
0.430884898 0.0247389469 0.109195739 0.000651846523 95 19 5 0.609448552 
0.396362036 0.0288974177 0.100311778 0.000874807942 77 13 4 0.600543976 
0.0906451568 0.0207112525 0.0339372307 0.000737734605 142 83 34 0.534015775 
0.00933765341 0.0346024707 0.128298312 0.000655944983 105 24 10 0.628595293 
0.0285952203 -0.0292223878 -0.166094869 0.000678747951 110 31 9 0.333520651 
-0.163409546 -0.0313838124 0.0756479874 0.000765231322 143 50 13 0.575823069 
0.43611908 0.0270364955 0.114808522 0.000720387732 92 49 19 0.615074277 
-0.372371465 -0.0296789967 0.203994513 0.000913578551 95 25 9 0.704466701 
-0.146297172 0.0166540518 0.0779420659 0.00101204822 78 25 7 0.578122497 
-0.317410111 0.00199341448 -0.239395335 0.000511710707 53 2 0 0.260050535 
0.00894419849 -0.0134688532 -0.305677354 0.000784709002 115 37 11 0.193615079 
-0.340348721 0.0215720758 -0.267570585 0.000797897228 96 42 15 0.231810078 
0.136327207 0.0426102653 0.0228671636 0.00080087164 90 23 6 0.522920072 
0.0265581459 -0.0077414629 -0.163629815 0.000746970763 145 73 24 0.335991412 
-0.246757299 -0.0165497418 -0.190512702 0.000559119857 115 51 18 0.309046298 
-0.350392997 -0.0380863063 0.196154669 0.00083538983 124 42 12 0.696608782 
0.384182572 0.0370753184 0.0716035664 0.00069048861 66 7 2 0.571769297 
0.00555762183 0.0101133529 -0.0227869805 0.000746177975 118 62 23 0.477160275 
-0.318817049 -0.0542807616 0.165323824 0.000934880518 106 53 25 0.665706515 
0.0688624233 0.0355981104 0.0253023654 0.000786927936 135 87 36 0.525360942 
0.462941229 0.0453782529 0.136940137 0.00100792106 105 39 13 0.637257099 
0.0233914405 0.0332313552 0.303170025 0.00104632485 96 24 6 0.803871751 
-0.176950127 -0.0150154289 -0.0843299106 0.000911806012 119 55 20 0.415474892 
0.0373651162 0.0419694223 0.115260914 0.000563813082 79 27 9 0.615527749 
-0.254858553 -0.0571217202 0.151083112 0.000632108131 114 21 7 0.651432872 
0.0173087288 -0.03885369 -0.248979554 0.000231820042 108 50 19 0.250444114 
-0.20503585 -0.0356894732 -0.0973022208 0.000803784525 121 66 26 0.402472556 
-0.275418252 -0.0674566925 0.162657142 0.000796962006 111 50 26 0.663033664 
0.441467822 0.034865357 0.101765476 0.000807830889 93 30 9 0.602001071 
0.0261745993 -0.000836009684 -0.152289271 0.000697640702 143 65 20 0.347358197 
0.0255375504 0.0175211709 -0.0897854343 0.00031546026 93 10 2 0.410006732 
0.021442879 0.00189438416 -0.317400903 0.000899949286 135 54 16 0.181864396 
0.0312552713 0.00773810688 -0.115444005 0.000905371853 139 79 32 0.384288788 
-0.38031581 0.0501696244 -0.271241874 0.000845845498 106 29 13 0.228130281 
-0.174797624 -0.0145671535 -0.0759616345 0.000658902223 100 33 9 0.423862547 
-0.128189713 -0.00878601056 0.040157944 0.000450226129 111 42 14 0.540250897 
-0.42924881 0.0649507046 -0.323694795 0.000843138609 160 100 42 0.175555944 
-0.095845446 0.0260629877 -0.0173880607 0.00083578378 117 36 10 0.482571691 
0.0719757825 0.0370722041 0.0276044104 0.000704931386 108 52 20 0.527668297 
-0.393784493 -0.0110722519 0.201333001 0.000816122862 103 23 7 0.701799035 
-0.0420230627 0.0148976892 0.10109847 0.000950422429 72 16 4 0.601332486 
-0.190195367 -0.0123249171 -0.112285987 0.0010431899 83 26 7 0.387454093 
0.0154709397 0.0435932875 0.099177286 0.000192793232 155 80 30 0.599406838 
-0.16785726 -0.0144252842 -0.06376791 0.00061366288 155 71 25 0.436084479 
0.41258654 0.039788641 0.104715414 0.000843022892 113 64 26 0.604957819 
-0.0043426347 0.0215709582 -0.373607725 0.000885851216 116 57 22 0.125527456 
-0.302656412 -0.0489958301 0.165654331 0.000822500209 133 73 31 0.666037798 
0.18771936 0.00568795018 -0.00704594376 0.000276949635 128 67 26 0.492937744 
-0.123109296 0.00636132015 0.0545568876 0.00087349728 73 21 6 0.554683149 
-0.226003602 -0.0130558535 -0.171173006 0.000893356046 84 7 1 0.328430772 
0.0110584646 0.0328499638 0.144165173 0.000587938295 79 23 8 0.644498885 
0.00601843325 -0.0096828239 -0.140545592 0.00099979504 106 34 10 0.359129101 
0.00216819276 0.0469703637 0.112788796 0.000369488291 154 104 44 0.613049865 
0.0239091162 -0.011082341 -0.290644139 0.000725121237 102 12 2 0.208683088 
-0.370091259 -0.0238890778 0.18698138 0.000621221552 139 70 27 0.687414229 
0.0426312424 0.0169178955 0.136761576 0.000707922271 169 63 18 0.637078166 
-0.344857633 0.0122932559 -0.25281623 0.000741174619 104 51 19 0.246598572 
-0.211485654 -0.0389931388 0.127294213 0.000450623338 122 95 44 0.627588928 
0.35886243 0.0207560137 0.0670249462 0.00076517096 119 45 15 0.567180097 
0.322859347 0.0481433831 0.0261057373 0.000718838943 117 55 21 0.526166141 
-0.314336002 0.0130664678 -0.255917639 0.000969924906 91 49 20 0.243489981 
-0.42721349 0.0304130707 0.25496009 0.000432854518 80 15 5 0.755550265 
0.360509127 0.020934213 0.0630398989 0.00094888173 137 51 16 0.563185811 
-0.0254478641 0.0261855144 -0.064867571 0.000798926514 32 8 2 0.43498227 
-0.299124718 -0.00660432409 -0.246045277 0.000854863378 91 38 14 0.253385216 
-0.0270183943 0.0405469462 0.455258042 0.000764176715 95 51 20 0.956311822 
0.363704145 0.0331773981 0.0673747808 0.00091031607 93 37 13 0.567530751 
0.0211246591 -0.00390349282 -0.32003352 0.000604266534 64 25 9 0.179225698 
0.405102164 0.0408527516 0.0865001753 0.000853437465 128 54 27 0.58670038 
0.220060676 0.0452235788 0.00599496439 0.000887600181 68 11 2 0.506008804 
0.0178156123 -0.0175239183 -0.244868949 0.000902583706 119 66 19 0.254564255 
-0.337881833 -0.0421150401 0.177810133 0.000500889844 155 90 39 0.678221703 
-0.288815588 -0.0718203187 0.159623519 0.000745567144 96 30 11 0.659992993 
0.294034213 0.0320841111 0.00803376548 0.000559362874 78 25 8 0.508052349 
-0.187560439 -0.0184023324 -0.111628868 0.00038250137 59 5 1 0.388112754 
0.413759023 0.0435287021 0.105400875 0.000906037807 138 73 29 0.605644882 
-0.359795332 -0.0148295742 0.196737066 0.000809404359 66 10 3 0.69719249 
-0.00265214778 0.0458841175 0.107849084 0.000741976779 65 10 3 0.608098745 
-0.234228149 -0.0178300235 -0.169696674 0.000582151348 85 7 1 0.329910517 
-0.101834811 0.029234346 0.0637400299 0.000946876593 155 86 33 0.563887537 
0.0433425754 -0.0112789329 -0.173139423 0.000838226057 98 13 3 0.326459795 
-0.237677395 -0.0124449041 -0.186422706 0.000727409148 93 13 4 0.313145757 
0.338944644 0.0304459017 0.0538331158 0.000708869367 118 63 25 0.553957701 
0.00956013612 -0.00415232219 -0.140203014 0.000819636974 127 41 11 0.359472454 
0.102180302 0.0299776662 0.000749396102 0.000768571917 117 60 24 0.500751138 
0.058025945 0.0257879905 0.0380704813 0.000854946615 97 10 2 0.538158596 
0.0271738991 0.0468457676 0.291591674 0.00045517995 128 63 23 0.792266667 
-0.397980899 0.00723665301 0.219152704 0.000863405177 89 40 15 0.719659984 
-0.215139464 -0.00485107396 -0.123614691 0.000844146474 101 17 4 0.376099169 
0.324586809 0.0399230905 0.0342554748 0.000336339668 91 32 15 0.534334779 
0.0300126281 -0.0149753243 -0.122686245 0.000907865411 141 65 23 0.377029777 
-0.0615204982 0.0711460486 0.0437013432 0.00106959185 74 38 15 0.5438025 
0.321384758 0.0289092138 0.023861099 0.0010008614 86 15 4 0.523916364 
0.00696495874 -0.00921623874 -0.290904313 0.00059267896 106 13 3 0.208422318 
-0.0242484082 -0.0178819876 -0.0264123343 0.000617499056 107 43 21 0.473526537 
0.0085346736 0.0299663842 0.327483565 0.000935037038 106 22 6 0.828241587 
-0.16325964 -0.00829289109 0.0574712083 0.000944002008 129 47 21 0.557604253 
-0.0921660662 -0.0086331116 -0.0127698528 0.000800062786 80 37 14 0.487200588 
0.388171911 0.0368750319 0.073624745 0.000933602045 82 11 3 0.57379514 
-0.115926117 -0.000663523329 0.0595258027 0.000799708709 84 34 12 0.559663594 
0.00875981431 0.0314241163 0.367094278 0.000433699926 118 51 18 0.867944002 
0.230072871 0.0232794415 -0.00245456537 0.000868097472 112 25 8 0.497539729 
0.0181396399 -0.00477620075 -0.283175617 0.000742091681 88 9 2 0.21616891 
0.00452623004 0.0303063262 -0.0779086798 0.000645127962 69 7 1 0.421910971 
0.125325337 0.011763175 0.00143379776 0.000967866334 121 47 15 0.501437128 
-0.317323416 -0.0597750954 0.182196587 0.000915329205 108 25 7 0.68261838 
0.139116049 0.0307637658 0.0219819266 0.000406390143 113 35 10 0.522032797 
0.344549894 0.0338429809 0.0300076213 0.000799127156 111 27 8 0.5300771 
0.466092616 0.0444398187 0.135115996 0.00106003985 106 32 9 0.635428786 
-0.230599299 -0.0262590125 0.113346182 0.000816992018 142 61 21 0.613608539 
-0.178054169 -0.00326080271 -0.085326694 0.000502218434 68 22 7 0.414475799 
0.315428078 0.0302878283 0.0192884523 0.000921889732 93 15 4 0.519333065 
-0.219868645 -0.030144684 0.0854731277 0.000909552909 100 10 2 0.585671008 
-0.270406991 -0.00879283063 -0.231406495 0.000628112175 102 37 12 0.268057883 
0.019216245 -0.0034920522 -0.29490447 0.000745676516 71 6 1 0.204412907 
-0.222237527 -0.0145680774 -0.164091602 0.000786234043 98 10 2 0.335528582 
-0.00115028734 0.019512048 0.123853199 0.000323912769 108 46 16 0.624139905 
-0.200364113 -0.0381222367 0.12141943 0.000746940961 131 51 18 0.621700466 
0.0596525557 0.0149241537 0.0327459499 0.000502386305 105 20 7 0.532821774 
0.0300318394 -0.00949275773 -0.200591505 0.000953603419 123 38 12 0.298944175 
0.433356613 0.0353256203 0.12688823 0.000503448537 114 25 8 0.627182007 
-0.0134154987 0.0372107923 0.0983193815 0.000674311654 126 44 11 0.598546982 
0.0387514569 0.0176429022 0.0224371348 0.000782435702 144 54 20 0.522489071 
-0.170233786 -0.0116971238 -0.081769824 0.000979721081 142 61 30 0.418040901 
-0.39019838 0.00697636511 0.214985147 0.000718568685 137 54 13 0.715482831 
-0.0122941174 0.0567668676 0.0875121504 0.000817420543 125 55 19 0.587714732 
0.164766788 0.0150881279 0.0258216653 0.00089984131 86 18 6 0.52588141 
-0.175752565 -0.0205480624 -0.0694697201 0.0006410692 151 69 24 0.430369467 
0.0297984332 -0.0327333324 -0.159465209 0.000795117987 114 25 7 0.340165675 
0.0292556603 -0.0122282412 -0.231300503 0.00063063862 21 5 1 0.268164098 
-0.211830303 -0.0291978531 -0.114534393 0.000875452009 156 69 24 0.385200471 
0.275167048 0.0310731661 0.00416244427 0.000273405138 85 19 6 0.504172087 
0.0192606896 -0.0401520208 -0.241997764 0.000443606987 121 42 15 0.257442087 
-0.110023975 0.0185614638 -0.0405837484 0.000748159946 42 26 12 0.459322304 
-0.019858947 0.038626492 0.0961135626 0.000993937952 99 55 23 0.596336067 
0.41810742 0.0437357873 0.0975080654 0.000954682939 61 19 6 0.597733796 
0.151902825 0.0360395275 0.0199865755 0.000579233048 110 46 19 0.520032823 
0.394297808 0.0297938827 0.0674727038 0.000794413732 123 39 13 0.56762886 
-0.011656574 0.0358109064 -0.466138303 0.000861519016 136 68 26 0.0327827111 
-0.310093999 0.0125661604 -0.251922518 0.000354693126 71 39 16 0.24749434 
-0.339813054 0.0246934816 -0.263232321 0.000791850674 54 16 5 0.236158371 
0.198102415 0.0141135985 -0.00740775978 0.000707119529 44 17 6 0.492575079 
0.0179188866 0.0435505807 0.319559723 0.000726716011 134 68 34 0.820299447 
0.13052842 0.0104497727 0.0266029388 0.00108246948 160 74 26 0.526664495 
0.226982281 0.0256001223 -0.00780631648 0.000956305536 98 11 2 0.492175639 
-0.222445115 -0.0413302779 0.127999693 0.000818295404 108 53 20 0.628296018 
0.0576523319 0.0055344631 0.0149844494 0.000916016113 105 48 19 0.515019178 
0.0380129069 0.0231800135 0.119922236 0.000802625727 126 57 21 0.620199859 
0.0195924826 -0.0278569739 -0.195763603 0.00096002972 117 52 19 0.303783238 
0.154583663 0.0348105617 -0.00271696178 0.000955464086 123 81 35 0.497276753 
0.158474565 0.00959476456 -0.00479294965 0.00077533297 77 16 4 0.495195955 
0.094271794 0.0273168962 0.0310264006 0.000880017877 143 78 35 0.531098247 
0.0230187271 -0.0249173045 -0.174219668 0.000922944921 128 67 23 0.325377047 
0.437454253 0.0252224915 0.100803919 0.000774287968 112 40 14 0.601037264 
0.249318868 0.0258411784 -0.00216785679 0.000859898457 123 30 9 0.497827113 
-0.184052438 -0.00958180614 -0.0997662172 0.000551120494 130 76 43 0.400002867 
0.435961366 0.0452153422 0.11147587 0.000489140744 141 72 27 0.611733913 
0.245828494 0.0276087765 -0.00761871552 0.000721245422 108 55 21 0.492363632 
-0.0167699214 0.0273112487 0.103987031 0.000820077956 83 35 12 0.604227722 
0.00486650597 -0.00383469998 -0.303554088 0.000778734568 83 8 2 0.195743263 
0.292882264 0.0436273739 -0.00188847422 0.000837548345 111 20 6 0.498107135 
0.0265947171 -0.015237473 -0.0107323984 0.000794332474 116 59 22 0.489242733 
0.170606762 0.00503475405 0.00159854116 0.000530270743 116 27 9 0.501602232 
0.416397542 0.0176760089 0.0933576524 0.00093364116 69 7 2 0.593573749 
0.391522408 0.0360076651 0.07078401 6.82718528e-05 59 5 1 0.570947826 
-0.245522588 0.00405742461 -0.188631356 0.000926036271 91 40 14 0.31093201 
0.458011717 0.0383549854 0.118006177 0.000780847156 36 7 2 0.618279278 
-0.358335465 -0.0394511223 0.195354819 0.000714213878 90 24 8 0.69580704 
-0.175986722 0.00100181578 -0.0793843046 0.000647610927 111 48 17 0.420431942 
-0.23427029 -0.0350459516 0.12603648 0.000777603767 114 54 24 0.62632823 
-0.223054841 -0.0158496201 -0.158935189 0.000661971746 112 37 17 0.340696931 
-0.389898598 -0.00406894879 0.225648701 0.000747096026 99 22 6 0.726171017 
0.489711106 0.0336473249 0.148532659 0.000569278316 90 18 2 0.648876488 
0.0171674304 -0.0170221068 -0.181145608 0.000877157727 73 8 2 0.318435103 
-0.28779164 -0.00818165671 -0.229636207 0.000628379406 102 22 6 0.269832253 
-0.0111917844 0.0347654782 -0.401328415 0.00081444229 96 31 10 0.0977426246 
-0.240218714 -0.0460251272 0.0987148285 0.00087717094 110 22 6 0.598943353 
0.0254587606 -0.0138948299 -0.282539815 0.000786875084 83 8 1 0.216806188 
-0.191419527 -0.00692993356 -0.0965375006 0.000661020807 120 67 27 0.403239042 
-0.207412586 -0.0070674587 -0.113455325 0.000782917952 58 4 1 0.386282057 
-0.354400367 -0.0206681415 0.193704039 0.00073846837 92 34 11 0.694152415 
0.0323309898 0.0467262305 0.136500269 0.00102555146 81 14 4 0.636816204 
-0.396094501 0.0102242548 0.235946044 0.000712976384 126 72 29 0.736492217 
-0.320681363 -0.0618262254 0.171442166 0.000859963417 98 27 11 0.671839058 
0.423839748 0.0408903211 0.0876547098 0.000710955181 132 63 23 0.587857604 
0.113783732 0.000639601552 0.003712059 0.000933035044 126 52 17 0.503720641 
0.403214306 0.0231450535 0.098332338 0.000165025209 106 17 5 0.598559916 
0.00805461314 -0.0241327174 -0.27368468 0.000739585666 121 76 33 0.225681826 
0.139894933 0.0212717317 0.0270262901 0.000886766124 104 49 18 0.527088881 
-0.292105585 -0.0491674505 0.165872931 0.000604212459 77 10 2 0.666256905 
-0.237538844 -0.0662288666 0.130995259 0.000818232947 98 17 5 0.631298482 
0.00768957986 -0.0101261819 -0.316828221 0.000593027507 96 17 5 0.182438388 
-0.0354433879 -0.0230318476 0.0901450813 0.000842816196 108 54 21 0.590353727 
0.392178208 0.0264344011 0.0686697215 0.000782951305 121 38 12 0.568828702 
-0.303997874 0.0031801851 -0.25378105 0.000890869705 83 7 1 0.245631516 
0.283004373 0.0343566798 -0.0026059621 0.000930107897 137 59 21 0.497388005 
0.0471344925 0.0511321798 0.170992613 0.000618925143 132 43 10 0.671388388 
0.305816919 0.0422949754 0.0211126246 0.000706313411 129 69 27 0.521161497 
-0.040617507 -0.0306166206 0.080726862 0.00043480951 118 56 21 0.580913723 
0.134166509 0.00794300437 0.014373472 0.000360007194 93 25 7 0.514406741 
0.300373971 0.0322610885 0.014849944 0.00101149105 154 68 24 0.514884353 
-0.115993157 -0.00334278424 0.061747279 0.000630914699 110 47 17 0.561890185 
-0.3849819 -0.0107105356 0.218886897 0.000859547115 86 14 4 0.719393551 
-0.159585282 -0.0131535968 0.0607026145 0.000593240664 115 31 11 0.56084311 
-0.202640668 -0.0260772556 -0.104484811 0.000774783606 126 51 17 0.395273328 
0.161460415 0.0429982878 0.0124367662 0.000643501524 95 53 22 0.512465537 
-0.122925714 0.0230084527 0.00979266316 0.00015404931 140 55 18 0.509815335 
0.4404504 0.0414786004 0.126840904 0.000889048097 95 39 14 0.627134502 
0.369854778 0.0284659341 0.0512423627 0.00086935173 107 36 10 0.551360965 
-0.195992768 -0.0219965633 -0.104247868 0.00076899206 97 14 3 0.395510852 
-0.441019744 0.032558009 -0.336969435 0.000440118747 124 49 17 0.162250564 
-0.0649930835 0.0527821667 -0.0372802988 0.000718197902 163 83 37 0.462633401 
0.0281725153 0.039697472 0.349899501 0.000701418903 105 21 6 0.850709438 
0.0101302397 -0.0153785972 -0.308022469 0.000771489169 119 35 11 0.19126454 
-0.00895957742 0.0197469965 0.114269987 0.000867725874 80 41 16 0.614534497 
0.424388438 0.0420230553 0.0949500874 0.000762925192 65 28 10 0.595169902 
0.338282138 0.0349462405 0.0476291887 0.00083173468 104 51 21 0.547739446 
0.0874084234 0.0350549817 0.0301524829 0.000801697723 110 38 11 0.530222297 
-0.243817955 -0.0213977806 -0.179032728 0.000608845556 86 9 2 0.320552886 
0.276669264 0.0396096185 0.00970032718 0.000899579667 109 26 8 0.509722769 
-0.24105458 -0.0680070147 0.128932163 0.000494267733 107 19 5 0.629230618 
-0.340899497 0.0292512514 -0.258855671 0.000761847012 102 43 16 0.240545139 
-0.0514947064 -0.0254697949 -0.0262720473 0.000856186904 106 53 20 0.473667115 
-0.217861503 -0.0161915291 -0.155858263 0.000643792737 112 27 9 0.343780965 
0.119720571 0.00665773591 0.00270155258 0.00108698464 129 50 16 0.502707839 
-0.308877349 -0.054980129 0.160897106 0.000842679234 118 68 28 0.661269546 
-0.261887878 -0.00816853717 -0.226338342 0.000657878525 119 56 21 0.273137748 
-0.231036589 -0.031027209 -0.133477792 0.000862880668 163 88 43 0.366213262 
-0.200770825 -0.01218074 -0.126395553 0.000211415027 79 10 2 0.373311907 
-0.37319085 -0.0114608221 0.19452475 0.000813221734 104 12 3 0.694975078 
0.238016382 0.0246195793 -0.00817628205 0.000824512856 86 13 3 0.491804808 
0.442495674 0.0462360196 0.119846761 0.000377612654 148 68 24 0.620124221 
-0.110019356 0.0379070267 0.0531137846 0.000640374899 108 59 23 0.553236723 
0.355317563 0.041164428 0.0536109544 0.000862268149 145 63 22 0.553735077 
0.0127783855 -0.00097068696 -0.295319676 0.00064055738 110 14 3 0.203996733 
-0.219784588 -0.00889410358 -0.165496975 0.000453870016 106 62 26 0.334119916 
-0.196903035 -0.0215684902 -0.107953571 0.00100617611 100 23 6 0.391796529 
-0.382822543 -0.00245733559 0.202872649 0.000728751882 102 12 2 0.703342259 
0.121594667 0.0031822531 0.00315821799 0.000524536415 126 51 16 0.503165543 
-0.197037488 -0.011486968 -0.114775568 0.000377939112 129 26 6 0.384958774 
-0.217608646 -0.00998646393 -0.152958706 0.000974410796 102 29 11 0.346687227 
-0.192050353 -0.00329202251 -0.0926983356 0.000760103227 110 50 18 0.407087088 
-0.162352294 -0.0201060157 0.0820818171 0.000533222803 101 19 5 0.582271814 
-0.293426752 -0.0625230521 0.176081359 0.000840818975 79 13 3 0.676488936 
-0.254775912 -0.0511202179 0.112258054 0.00106264208 90 16 5 0.612517893 
-0.308173746 0.00230745412 -0.25316745 0.000378844619 161 82 26 0.246246532 
0.0060474202 -0.0154492278 -0.293747514 0.000357389799 108 38 12 0.205572546 
-0.0292154197 0.05767373 0.386999547 0.000323203276 63 6 1 0.887895346 
-0.229450539 -0.0640506446 0.126821175 0.000676452648 115 24 8 0.627114713 
0.00577740604 0.0632430539 0.00323117338 0.00101385417 112 57 22 0.503238618 
0.021402983 -0.0136926472 -0.244608149 0.000805169926 85 45 18 0.254825652 
0.346585274 0.021734247 0.0432577804 0.000791679544 105 26 9 0.543357909 
0.129748061 0.00160764111 4.05302417e-05 0.00104208 119 40 12 0.500040591 
0.0149017042 0.0122722099 -0.332769036 0.000698933494 148 87 30 0.166460693 
-0.235882208 -0.0512593277 0.141453519 0.00105578883 103 60 25 0.641780972 
0.0257164575 -0.0144105125 -0.210487589 0.000938988989 40 6 1 0.289025187 
-0.46266225 0.0362799428 0.280503631 0.000823113485 128 46 14 0.781152904 
0.000841726782 -0.00117683131 -0.321074814 0.000709020882 116 28 9 0.178181991 
-0.32002911 0.0165365916 -0.254085362 0.000579343818 108 55 21 0.245326504 
-0.28325507 -0.056215141 0.141431957 0.0010504839 106 35 10 0.641759396 
-0.00293629616 0.00251406129 -0.103850052 0.00100295141 119 49 17 0.395909548 
0.14474304 0.016692698 -0.00240722089 0.000117852935 139 71 35 0.497587204 
0.106936015 0.0156454016 0.00418967847 0.000251844351 113 36 11 0.504199386 
-0.13937588 0.00447856309 -0.0583471656 0.00100286468 132 60 22 0.44151777 
-0.233838931 -0.0674874708 0.123932324 0.000891448173 100 18 5 0.624219179 
0.508150756 0.0318219103 0.155404702 0.000862620247 141 69 25 0.655764461 
0.0257125385 -0.0132234944 -0.243045643 0.000739970594 28 8 2 0.256391764 
0.42497173 0.0352347195 0.119666047 0.000831897021 112 67 28 0.619943023 
0.457128376 0.0317984335 0.132137641 0.000769620645 131 56 24 0.632443547 
0.0775080323 0.0212404113 0.00987569429 0.000774027314 89 14 3 0.509898543 
-0.355323404 0.0175517797 -0.267060071 0.000288389099 117 72 31 0.232321754 
-0.152658343 0.0170179699 -0.0560432859 0.000900209881 60 22 7 0.443826973 
0.000368105888 0.00105809653 -0.0460599028 0.0009643347 63 25 8 0.453833491 
-0.00189980527 0.00786398444 -0.339857668 0.000823282695 110 35 13 0.15935564 
-0.230946869 -0.0157388989 -0.169725269 0.000749744824 105 44 16 0.329881877 
0.385429353 0.0252718553 0.0644310415 0.000919826329 170 70 22 0.564580142 
-0.167346805 0.010616052 -0.0679197386 0.000853390025 80 33 11 0.431923062 
-0.252385765 -0.0145432083 -0.146982104 0.000754899578 85 10 2 0.352677673 
0.0102529423 0.0440396369 0.335191756 0.000866964925 61 22 8 0.83596766 
0.416606218 0.0210561771 0.0860289261 0.000320960593 105 19 6 0.586228073 
0.153751493 0.0117840553 0.0134482924 0.000944971456 95 18 5 0.513479412 
0.403724045 0.0321875811 0.102650158 0.000866179122 131 69 27 0.602887809 
-0.193008602 -0.0245436598 0.0715184063 0.000787896512 97 37 12 0.571683943 
0.0261217542 0.0116430735 -0.129315272 0.000766309444 179 94 30 0.370385408 
-0.312362373 0.00253407098 -0.25357452 0.000692413189 77 27 9 0.245838523 
0.023330437 -0.0182530712 -0.111346982 0.000691493507 123 49 16 0.38839528 
0.440858066 0.0304696467 0.128296465 0.000734552799 71 24 8 0.628593445 
0.529817164 0.0332624838 0.164305344 0.000926855835 126 76 31 0.664685726 
-0.275859147 -0.0722428262 0.152242526 0.000481608004 98 38 13 0.652594924 
-0.256047815 -0.0123618832 -0.175559849 0.000831217738 94 9 2 0.324033767 
-0.321593046 0.00350402831 -0.240604162 0.000968727807 95 9 2 0.258838922 
0.430902511 0.0402563848 0.119633786 0.000784623437 77 41 17 0.619910717 
0.297954857 0.0351097398 0.023663152 0.000646553468 97 12 3 0.52371794 
0.432702929 0.0456349403 0.109933607 0.000676543685 116 55 21 0.610188127 
-0.371967763 -0.0045732283 0.203460738 0.000769939274 93 9 2 0.703931749 
0.327013671 0.0269342065 0.0391166769 0.00106617692 117 29 9 0.53920722 
0.459633797 0.0319768526 0.123367377 0.000735919224 102 29 8 0.623652935 
-0.372011781 -0.0152301574 0.21362026 0.000798847061 62 7 2 0.714114726 
0.276808113 0.0357708931 -0.0055662198 0.00105126447 155 69 27 0.494420886 
-0.234311149 -0.0325132124 0.117978096 0.000917657104 78 17 4 0.618251204 
-0.100525051 -5.84956724e-05 -0.0129811056 0.000436504895 81 28 9 0.486988842 
-0.277786463 -0.00175212079 -0.242900357 0.00073472067 135 56 19 0.256537378 
0.0143203717 0.0117858695 -0.329159021 0.00082742481 131 71 24 0.170079052 
0.00724997465 -0.0142137641 -0.299138993 0.000833586499 141 61 20 0.20016858 
0.390798509 0.0357522704 0.0673640221 0.000752247055 98 15 4 0.567519963 
-0.237652317 -0.0221499614 -0.168256342 0.000822595961 100 10 2 0.331354201 
-0.287742227 -0.00648130989 -0.225943476 0.000809153076 152 67 30 0.273533523 
0.00512165437 0.0544022396 0.368630022 0.000830329605 142 68 29 0.869483352 
0.205871627 0.0417961404 -0.00437105587 0.00107222341 72 8 2 0.49561882 
-0.296548694 -0.0567927845 0.150332749 0.000723635138 89 9 2 0.65068078 
-0.210759327 -0.0179998782 -0.139635623 0.000917302095 105 37 11 0.360041142 
-0.180113047 0.00670690695 0.0734506473 0.000719647505 122 47 16 0.573620677 
0.324971974 0.0365359075 0.0365931764 0.000820165966 139 70 27 0.536677897 
0.0396698005 0.0170246251 0.0126921581 0.000855495513 142 48 13 0.512721539 
0.486710399 0.0341555476 0.146246046 0.000868080941 153 56 19 0.64658457 
0.43854329 0.0327619724 0.100066073 0.000862614717 90 24 7 0.600297689 
-0.428257048 0.0222153906 -0.338612139 0.000760237104 83 18 4 0.160604075 
0.0126472693 0.00238418626 -0.128911436 0.000684438855 77 33 12 0.370790154 
0.251918077 0.0461565517 -0.00115464372 0.000782146235 156 96 49 0.498842686 
0.00796803366 -0.00546159968 -0.297159314 0.000890566618 100 12 2 0.202152848 
-0.014759968 0.0435137153 -0.451747119 0.00080280978 73 38 14 0.0472072177 
0.0143480347 0.0552426577 -0.00765006989 0.00071852433 92 38 13 0.49233225 
-0.00848965626 0.0457002185 0.359923303 0.00081476185 121 50 17 0.860756457 
0.383644432 0.0174500365 0.0649381727 0.000288542447 136 52 17 0.565088511 
-0.294499069 -0.0568303876 0.176275015 0.000789615849 140 69 27 0.676683068 
-0.281993598 -0.00151874102 -0.244282469 0.000667360029 89 16 5 0.255152076 
0.0295994803 -0.0363602191 -0.183265254 0.000663935964 111 43 15 0.316310555 
0.466109008 0.0439584181 0.131220043 0.000350446673 126 45 12 0.631523788 
-0.345157146 0.0236082003 -0.270753145 0.000680358382 122 66 27 0.228620142 
0.19787778 0.0442023501 0.00240703858 0.00072669721 86 11 3 0.502412617 
0.0115890428 -0.00740587851 -0.149288893 0.00100590091 134 66 22 0.350365579 
0.324332893 0.028320469 0.0266098659 0.000874674879 110 24 8 0.526671469 
-0.0842048153 -0.016567748 0.073445268 0.000796393084 166 119 68 0.573615313 
0.000233023078 0.00068355765 -0.323974878 0.000526817748 106 23 7 0.175275192 
-0.00667639915 0.0261624232 -0.380268067 0.000806726399 138 79 34 0.118851721 
0.0213354509 -0.00881622452 -0.102491379 0.000571042532 108 49 18 0.397271365 
-0.391178578 0.00721119158 0.226686344 0.000512138591 109 55 21 0.727211058 
-0.209411457 -0.0119563006 -0.149224401 0.000839133339 87 14 4 0.350430161 
0.324161351 0.0303866174 0.014793192 0.000621670624 82 12 3 0.51482743 
0.434770525 0.0362690687 0.093110688 0.000733497378 74 10 3 0.593326211 
0.299898207 0.0325024612 0.00177670247 0.000907241832 113 47 19 0.501780808 
-0.0287813973 -0.0291695241 0.0823758915 0.000890263473 123 62 23 0.582566559 
0.432600826 0.0365440659 0.124218479 0.000878694293 130 82 34 0.624506056 
-0.2678895 -0.00154117891 -0.198937565 0.000738935662 114 60 29 0.300601959 
-0.338331729 -0.0527034402 0.179885745 0.000744765217 144 65 23 0.680302203 
0.424205601 0.0244831592 0.105657823 0.000607656373 93 13 3 0.605902374 
-0.0536411032 -0.00539739244 0.103806138 0.000513547973 82 46 19 0.604046404 
0.0115733854 -0.00478080101 -0.330521524 0.000857273117 81 46 19 0.168713406 
0.409493357 0.0231653284 0.0810321569 0.000773873646 95 14 3 0.581219733 
0.117965132 0.010678255 0.00267025689 0.00102411164 96 38 12 0.502676427 
-0.165273249 -0.00982881431 -0.0485463627 0.000773086795 140 38 12 0.451341242 
-0.385528535 -0.0125486357 0.198428482 0.00121023343 96 37 12 0.698887825 
-0.226531938 -0.00532423379 -0.154735476 0.000584047171 104 42 17 0.34490636 
-0.00550601585 0.0044305115 -0.116676658 0.000875348458 81 19 6 0.383053243 
-0.269356191 -0.00821317919 -0.200899497 0.000359868282 116 22 6 0.298635483 
0.434039563 0.0431431718 0.101204582 0.0010299487 93 29 9 0.60143882 
0.192525029 0.0246715788 -0.00861210655 0.00064357341 158 99 51 0.491367966 
-0.183043137 -0.00861477107 -0.0966149718 0.000723475008 131 76 43 0.403161407 
0.12533325 0.000403187994 0.00633569388 0.000690472312 85 20 8 0.506350338 
-0.270754635 -0.00661454909 -0.19385384 0.000462802709 106 26 11 0.305697441 
-0.136843562 0.0133231049 -0.0553045943 0.000874469988 126 30 10 0.444567382 
0.221287712 0.0376550481 0.00706145354 0.000854805403 125 32 6 0.507077813 
0.0491163693 0.0361825675 0.265290082 0.000858877786 106 23 7 0.765904188 
-0.0725646168 -0.012753929 -0.0400495417 0.000711745233 118 54 24 0.459857762 
-0.32592237 0.00705143157 -0.258026391 0.000918562524 114 43 13 0.24137634 
-0.345118314 0.0115596214 -0.262750775 0.000441876269 114 46 15 0.236641034 
-0.285939664 -0.0723875538 0.162719935 0.000927419343 109 42 15 0.663096607 
0.185350582 0.0352475531 0.0142315337 0.00101436116 84 13 3 0.514264464 
0.286275923 0.0413636826 -0.00302410009 0.000460960204 98 28 10 0.496968895 
0.0747374073 0.0170402639 0.0363259055 0.000726566301 147 80 42 0.536409974 
-0.211167738 -0.0229616761 -0.124292985 0.000878145045 129 71 45 0.375419289 
0.343945026 0.0221418459 0.0407304652 0.000517024309 99 22 7 0.540824711 
-0.240276858 -0.0253009703 -0.153349131 0.000834465842 97 9 2 0.346295923 
-0.231093824 -0.0172981936 -0.0927732363 0.0007985431 101 10 2 0.407012016 
-0.255868018 -0.00147580891 -0.223519593 0.000897798978 81 17 6 0.275963008 
0.483797282 0.0388612896 0.142321974 0.000926675799 102 31 8 0.642651439 
-0.212462857 -0.00290202978 -0.117992558 0.000783145661 97 15 4 0.381734312 
-0.127837002 0.00776359811 -0.0152665591 0.000721935648 113 45 15 0.484698087 
-0.390750527 -0.0217513032 0.213174835 0.00079525687 93 21 7 0.713668287 
-0.226923987 -0.0267438255 0.110554405 0.000605220615 101 36 12 0.61081028 
-0.230199948 -0.0537869632 0.150079846 0.000295802893 137 64 23 0.650427282 
0.0464817323 0.0179184116 0.035723526 0.000669923786 97 34 11 0.535806239 
-0.403448194 0.0175526459 0.231210768 0.000418198353 129 83 46 0.731745958 
0.356164992 0.0385075621 0.0471078344 0.00101076753 71 23 7 0.547216833 
0.129801631 0.00747217983 0.0155518427 0.000878740684 72 24 8 0.515587866 
0.0442521088 0.0443384424 0.186253816 0.000980084646 98 17 4 0.686684966 
-0.0721376613 0.0595858879 0.0739238411 0.000871822296 82 38 14 0.574094951 
0.0335677229 0.0140806148 0.134234905 0.000749793893 91 25 4 0.634545624 
-0.0799990222 0.0469240434 -0.0277153887 0.000482344069 101 39 14 0.47222048 
0.0156445466 -0.00587040046 -0.289114088 0.000448713836 86 9 2 0.210216686 
0.0204595271 0.000734795874 0.0928564742 0.000896072073 93 41 14 0.593071401 
-0.386946708 0.00207706448 0.226760998 0.000791791535 109 50 18 0.727285922 
0.350707948 0.0313877501 0.0594768748 0.000693634094 78 20 5 0.559614539 
-0.347443342 -0.0444584899 0.192191973 0.000872287666 119 44 14 0.692636847 
0.344690323 0.0253463406 0.032895159 0.000275621947 106 25 8 0.532971323 
0.129273921 0.0333802886 0.00462650694 0.000190746738 91 19 6 0.504637241 
-0.214240804 -0.0487896986 0.12210355 0.000619167171 109 35 11 0.622386217 
0.0378367156 0.0246485174 0.182655215 0.000651422888 104 19 6 0.683078051 
-0.00804359 0.0261837468 -0.376496941 0.000730697066 110 54 21 0.122631565 
-0.198343739 -0.0297103934 0.121883467 0.000733713852 97 38 13 0.62216562 
-0.336188823 0.0239232276 -0.250705123 0.000981625635 99 51 20 0.248714581 
-0.214710191 -0.0329642817 0.080344528 0.000552866724 110 60 24 0.580530524 
0.352865547 0.0220877733 0.0699528232 0.000799234316 136 58 20 0.570114732 
-0.125666797 0.0080114454 0.0524368361 0.000666362292 123 71 29 0.552558184 
-0.196619973 -0.00831889827 -0.102905601 0.000889487914 84 42 16 0.396856189 
-0.212783232 -0.0163041521 -0.148299575 0.000977930264 106 23 7 0.351357132 
-0.346046567 -0.0221465416 0.187530398 0.000659087847 63 18 5 0.687964499 
0.00311755412 -0.0220542643 0.0864984468 0.00074334105 130 82 47 0.586698651 
-0.0418149903 0.0681744441 0.071633324 0.00104076369 84 26 8 0.571799159 
0.156947762 0.0373607576 0.00500723906 0.000526080898 54 21 7 0.50501883 
0.142368853 0.0340364128 0.0206456315 0.000579178799 144 52 14 0.520693421 
-0.221682072 -0.026257623 0.101911567 0.000753757486 123 57 29 0.60214746 
-0.190302089 -0.0187565163 -0.113991544 0.000328343682 107 29 8 0.385744572 
-0.33740449 -0.0351474956 0.187186956 0.000688509375 123 80 35 0.687620282 
0.376024693 0.0197998118 0.0745781511 0.000479490584 134 55 18 0.574750781 
0.372865111 0.0360849164 0.0587353706 0.000766341924 102 48 18 0.558871329 
0.359797448 0.0285188742 0.0441476665 0.000632800453 98 20 6 0.544249833 
0.1819188 0.0466410182 0.0101224156 0.000656997552 93 18 5 0.510145843 
-0.160845473 0.0170638505 0.0702538043 0.000807246077 144 68 25 0.570416451 
-0.232301474 -0.012024926 -0.114499345 0.00102590455 91 17 6 0.385235608 
-0.120479278 0.0144975157 0.0787189379 0.000762649288 125 45 14 0.578901172 
0.040878728 0.0178610999 0.0325791538 0.000164686804 99 35 11 0.532654583 
-0.352272034 -0.0292480327 0.185303479 0.000756216061 131 68 27 0.685732424 
0.14670296 0.018486809 0.0299807973 0.000351463998 73 30 10 0.530050218 
0.0390789434 0.0354584157 0.292601645 0.000899999635 104 40 13 0.793278933 
-0.251874 -0.00316574005 -0.228303388 0.00076273072 110 27 10 0.271168143 
0.464502633 0.0384871289 0.125352234 0.000685392821 116 40 11 0.625642419 
-0.219094768 -0.0202734303 0.102092892 0.000943527033 132 47 13 0.602329195 
0.193456382 0.0242557451 0.0232469123 0.000776656496 105 15 4 0.523300707 
-0.0231927428 0.0468148552 0.438082784 0.000772725383 107 21 6 0.939096868 
-0.33575803 0.0121963639 -0.244211391 0.000353143841 102 60 25 0.255223334 
0.102551624 0.0146466317 0.0387252495 0.000767352234 123 33 10 0.538814902 
-0.288785696 -0.0681400523 0.153232038 0.000897797872 81 22 7 0.653586745 
-0.29388532 -0.0627928302 0.145335078 0.000832892605 135 53 22 0.645671487 
0.384470999 0.0268400554 0.0904483944 0.00077395956 79 8 2 0.590657771 
-0.289576679 -0.0664833188 0.17093648 0.000735460897 80 17 5 0.671332181 
0.224063292 0.0307317059 -0.0102831125 0.000474836968 95 16 4 0.489693075 
0.0422159955 0.0020276031 -0.00584852649 0.000981309218 96 36 14 0.494137913 
0.159120679 0.0201511923 0.0282996893 0.000211070408 89 35 12 0.528365195 
0.305805385 0.0491782129 0.0148849841 0.000545865507 89 12 3 0.5149194 
-0.274825394 0.00199257955 -0.244406909 0.000771916821 115 26 8 0.255027354 
0.39679563 0.0369792879 0.0760437846 0.000280019914 107 17 5 0.576219797 
0.0103616398 0.0309717637 0.152297437 0.000471916399 154 96 42 0.652649999 
0.00587177835 0.013470727 -0.325963467 0.000818545464 130 71 25 0.173281997 
-0.397434741 0.0501281656 -0.279469192 0.00055762328 143 61 21 0.219883919 
0.00171946851 0.0316409506 0.118905142 0.000840001623 101 44 16 0.619180381 
0.44576019 0.04582927 0.121169657 0.000764652446 138 52 16 0.621450126 
0.0139911119 -0.00478507066 -0.327491343 0.000744768418 83 14 4 0.171750605 
-0.310686916 0.00352963363 -0.231896058 0.000955065247 86 7 1 0.267567158 
-0.154461771 0.0145785175 -0.0585237034 0.000508781697 95 17 5 0.441340834 
-0.361112446 -0.0234854575 0.20654206 0.000736201124 102 25 8 0.707020164 
-0.195641294 -0.0190442316 0.0652951971 0.000694911345 160 64 20 0.565446317 
0.146452814 0.00811494421 0.0104497671 0.000792667503 96 16 4 0.510473967 
0.0211612079 0.0160154663 0.0963534117 0.00103868044 93 42 15 0.596576452 
-0.150502443 0.011926624 -0.0218142234 0.000316821388 85 26 8 0.478135288 
-0.201283202 -0.00383735728 -0.0665921122 0.000774528133 143 66 27 0.433253765 
-0.426151752 0.0220920909 0.256948769 0.000422793673 122 51 18 0.757543564 
0.0978339389 0.00416350132 0.017710207 0.00089663628 95 19 6 0.517751217 
-0.168817461 0.00531019783 0.060272295 0.000222227187 113 65 27 0.560411811 
0.411356628 0.0454361327 0.0985935926 0.00102719723 71 26 9 0.598821819 
0.109640621 0.0228533782 0.000639523903 0.000766187557 121 42 13 0.500640988 
0.00256144092 0.0378702022 -0.376665413 0.000751034764 173 95 35 0.122462697 
-0.249041095 -0.0472265743 0.112568438 0.00061597937 162 90 49 0.61282897 
0.403891802 0.0351842046 0.09913259 0.000863008783 104 46 18 0.599362075 
0.430261701 0.0434843898 0.102985576 0.000933270378 95 29 9 0.603223979 
-0.202404469 -0.0400080308 0.124128923 0.000793735438 141 56 18 0.624416232 
0.421069622 0.0263209604 0.112180717 0.00101142155 144 48 18 0.612440348 
-0.297635257 0.0014233503 -0.251817793 0.000777579437 67 5 1 0.247599334 
0.433409691 0.0291555226 0.124341398 0.000770127052 127 70 28 0.6246292 
0.435863972 0.0373921469 0.125964165 0.000511876191 124 35 12 0.626255751 
-0.0384511799 0.0530722924 0.400424272 0.000357765937 111 25 11 0.901351213 
0.304189146 0.0454714224 0.00306624989 0.00087407371 96 14 3 0.503073335 
-0.19005011 -0.0170663986 0.101296842 0.000681145641 106 12 2 0.601531327 
0.293377519 0.030956598 0.00451435568 0.000875928497 75 28 9 0.504524827 
-0.2670497 -0.0717146099 0.152068838 0.000842912239 104 42 18 0.652420819 
0.00229735347 -0.0170383416 -0.282888681 0.000753307715 100 42 15 0.216456503 
0.381894261 0.0391459875 0.0740312785 0.000921914354 69 8 2 0.574202657 
-0.13470459 -0.0123757618 -0.029937556 0.000897991646 99 22 7 0.469993144 
0.354216754 0.0339414291 0.0600845888 0.000859350781 124 45 14 0.560223699 
0.105119161 0.0083900122 0.0254630093 0.000915549288 95 25 7 0.525521934 
0.309701294 0.0296209641 0.011686503 0.000864617818 150 58 25 0.511713564 
-0.0140544092 0.0373752415 -0.411526799 0.000422331854 72 16 4 0.0875206143 
-0.164692879 0.00768384151 -0.0689069033 0.000824839924 115 44 16 0.430933595 
0.296001107 0.046134565 0.00335213519 0.000869246607 85 12 3 0.503359854 
-0.213182613 -0.0469814464 0.132556766 0.000921147526 102 20 5 0.632863581 
0.199643031 0.0155499987 0.00120014499 0.00028134248 112 62 25 0.501202881 
-0.15738073 -0.00260383985 0.0961889327 0.000478202302 63 29 11 0.596411586 
-0.00237761112 0.0246232189 0.125919819 0.000640257611 85 30 10 0.626211286 
-0.24801676 -0.0188106392 -0.171810538 0.000542786787 128 42 12 0.32779175 
0.193270996 0.0400190577 0.0114389192 0.000179765455 114 51 19 0.511465371 
-0.182410344 -0.0214476194 0.111711688 0.000775113585 77 7 1 0.611970246 
0.0320236385 -0.0212574173 -0.130567715 0.000952300674 120 56 21 0.369130045 
0.0290201176 0.054620076 0.179034233 0.000901026709 121 52 19 0.679448605 
0.135761887 0.00583038898 0.0109090572 0.000859866617 100 21 6 0.510934293 
-0.209942192 -0.0569895282 0.105106719 0.000622733263 173 123 55 0.605350018 
-0.370542467 0.0356998481 -0.276590645 0.00051169598 130 57 20 0.222769126 
0.389142543 0.0198850129 0.0816574246 0.000645749155 62 6 1 0.581846416 
-0.430682987 0.0546822138 -0.328623593 0.000881273823 110 21 6 0.170615733 
-0.294528574 -0.072511144 0.164255425 0.000491218176 108 25 8 0.664635658 
-0.103357352 -0.0156207317 0.00190677179 0.000635171775 157 91 37 0.501911163 
-0.191950649 -0.0131201586 0.0956723616 0.00069663371 74 6 1 0.5958938 
-0.111024015 -0.0136247613 0.0600441955 0.000806807773 123 51 17 0.560183167 
-0.376468241 -0.00972470641 0.195912316 0.000668470573 87 9 2 0.696365774 
-0.196774453 -0.0100132963 -0.107433282 0.00100637553 112 35 9 0.39231804 
-0.237864628 0.00126388739 -0.15789257 0.000808545388 81 32 11 0.341741949 
0.301941156 0.0317339897 0.0203498956 0.000193970918 140 57 19 0.520397007 
-0.37106663 -0.0330195725 0.200900689 0.000510496495 77 8 2 0.701365769 
0.0882552639 0.0352948233 0.0248039458 0.000585563539 103 31 8 0.524861395 
0.162645057 0.0123063102 0.0113237062 0.000731949112 89 16 5 0.511349916 
0.348622292 0.0408150814 0.0438954681 0.000940295227 117 61 24 0.543997049 
-0.0605752431 -0.0114654023 0.102048092 0.000957770681 110 43 17 0.602284312 
0.214268461 0.0322665162 0.0122995693 0.000890366675 98 24 8 0.512328029 
0.0658915713 0.0339047946 0.0325941406 0.000649735623 134 53 17 0.532669604 
-0.328187466 -0.0573660657 0.173396796 0.00038299727 99 44 15 0.673798203 
0.0248443261 -0.043199569 -0.229832962 0.000310116069 92 16 5 0.269635051 
-0.245102033 -0.0368191339 0.12895976 0.000550240511 126 65 26 0.629258275 
-0.274715692 -0.00938254781 -0.214124173 0.000837780593 125 39 14 0.285380185 
0.00830741972 -0.00156548782 -0.339643002 0.000349894806 82 14 4 0.159570828 
-0.0323329307 -0.0278623682 0.0844806209 0.000866388378 111 58 23 0.584676147 
0.317395926 0.0450959541 0.0287602991 0.000862076064 123 62 30 0.528826892 
-0.300592899 -0.0663337409 0.174523652 0.00060104765 77 26 8 0.674927652 
-0.34924233 -0.0467374697 0.188472211 0.000752227439 137 61 22 0.688908458 
