ply
format ascii 1.0
comment created by gply, a Houdini tool.
comment converted from .[b]geo
comment for more information about Houdini, try:
comment www.sidefx.com
element vertex 641
property float x
property float y
property float z
property float depth
property uchar red
property uchar green
property uchar blue
property float length
element face 0
property list uchar int vertex_indices
end_header
-3.39024329 0.203498796 1.96834147 0.0256745387 172 86 50 0.204158247 
-0.61594975 0.353808612 -0.0385702513 0.0259733386 177 121 75 0.50589174 
-0.2967031 0.488464355 0.356968343 0.0280329119 140 87 51 0.44642362 
-0.498976588 0.180217847 -0.305419862 0.026066184 148 79 44 0.546011806 
-0.189049795 0.356202573 2.93653679 0.0275468323 147 99 62 0.0585926436 
0.260718018 0.350951076 1.25075126 0.0249717236 172 116 72 0.312045753 
0.0646786094 0.205349833 2.15931916 0.0250655804 133 70 40 0.175445244 
0.160561889 -0.169250205 0.168508902 0.0279315542 171 104 61 0.47475794 
-2.34348226 0.0874132439 -1.73908961 0.0260059331 199 155 125 0.761560082 
-1.39089394 -0.00229360443 -0.625639379 0.0262746662 143 100 65 0.594155908 
-1.56816041 -0.182841554 -0.979365826 0.0265502799 164 85 53 0.647337735 
-2.26771855 -0.303762823 1.27284586 0.025427999 181 126 79 0.308724046 
0.295972526 0.272657871 0.963798106 0.0278900396 168 131 87 0.35518837 
-1.54128873 -0.140747175 -1.04044509 0.0260405429 170 60 28 0.656520844 
-0.140017748 -0.0198063888 0.633562982 0.0280859321 190 151 102 0.404838473 
-0.171762928 0.0592043102 -0.24010624 0.0270277895 188 133 84 0.536192119 
-0.165772706 -0.279409289 0.0764492527 0.0276479311 177 125 82 0.488598883 
-0.207725391 0.280724198 2.97220254 0.0248826705 173 97 54 0.053230498 
1.93884313 0.232862934 -0.00583489891 0.02577281 169 108 65 0.500970066 
1.28632259 0.228119269 0.0918808132 0.0256266519 113 67 36 0.486278743 
-2.4568522 -0.145001531 1.38409734 0.0272140615 157 73 41 0.291997731 
0.341849536 0.263457 1.99854231 0.0251457766 177 100 52 0.19961755 
-0.238869384 0.459475994 -0.00122328976 0.0266335215 167 106 63 0.500276744 
0.189343989 0.380525082 1.21516144 0.0278350059 159 112 71 0.3173967 
-0.047387436 -0.249296218 0.0584556274 0.0254650749 193 142 92 0.491304129 
2.11432314 0.22734414 0.248153076 0.0258064382 179 136 90 0.462783635 
-0.133216232 -0.216529161 0.503071725 0.0254574958 134 78 44 0.424457341 
-0.148105413 -0.0443532802 -0.203529567 0.0252054539 183 146 99 0.530692875 
-0.32962954 -0.285285652 0.332889497 0.0252691656 162 121 79 0.450043708 
-0.194830477 0.275016844 2.67737079 0.0267894696 159 90 53 0.0975575224 
0.255175501 0.213618353 2.17955518 0.0271321014 168 110 65 0.17240274 
-2.04539251 0.0557327457 -1.57193077 0.0255858302 162 94 56 0.736428201 
3.09481144 0.287436962 0.949421048 0.0253238603 198 165 116 0.357349962 
0.249661505 0.261391222 0.450896859 0.0248281527 181 134 86 0.43230167 
-1.71979177 -0.0756505057 -1.42115438 0.0255529918 192 141 90 0.713759482 
0.165722847 0.301819175 0.602500081 0.0263836179 182 152 104 0.409508675 
0.0460189991 0.357152075 -0.089606449 0.0263019409 216 172 118 0.513564885 
-0.750484347 0.0495039709 0.478482693 0.0257955268 179 74 37 0.428154171 
-0.550819874 0.031846676 -0.241114855 0.0254700147 168 118 74 0.536343753 
-0.784309447 -0.00567592913 0.457774609 0.0263584647 161 100 60 0.431267679 
-0.0522565581 0.263683021 0.684118629 0.0264725853 185 154 104 0.397237509 
0.218435809 0.255598724 1.42963529 0.0263905954 195 151 100 0.285151184 
0.290661067 0.353732049 2.03257918 0.026176814 165 93 51 0.194500074 
0.669161737 0.128445014 0.2264743 0.0261684004 147 70 40 0.466042966 
-1.6081512 -0.160672918 -1.04642737 0.0285009798 141 42 19 0.657420218 
-2.16225886 0.117568605 -1.73335361 0.0250867419 186 133 84 0.760697722 
2.13560963 0.303195477 0.207635731 0.0253907032 150 82 49 0.468875378 
-0.193937495 -0.0802259669 -0.214774966 0.0255740844 159 108 68 0.53238368 
-0.264699519 0.322274953 2.61718392 0.0256128833 157 63 34 0.106606536 
0.0303396918 -0.0728645101 -2.00070405 0.026414983 153 87 49 0.800893068 
-0.263469219 0.38906008 2.73956442 0.025995655 178 121 86 0.0882068723 
0.267015517 0.168866903 0.848269641 0.0254668202 195 134 82 0.372557938 
0.286951512 -0.110255852 -1.33273566 0.0264403019 170 115 72 0.700465918 
0.259828895 0.37500602 2.01030731 0.0254299566 198 137 84 0.197848722 
0.157534704 -0.109047957 -1.28622663 0.0252145063 170 115 72 0.693473458 
-2.91060996 0.399931908 -2.12951922 0.0272044931 146 45 20 0.820260108 
-2.05524421 -0.385807514 1.21790493 0.0259082336 162 78 45 0.316984087 
0.380585968 0.34552753 1.74509692 0.0281768627 158 64 35 0.237722322 
-0.209793478 0.249186039 -0.255336493 0.0267837439 183 136 88 0.538481951 
-0.124287434 -0.25448823 0.0304276962 0.0256184842 124 97 65 0.495518088 
0.220011696 0.279936492 1.65504563 0.0257883538 151 61 33 0.251261204 
0.3516877 0.397657037 1.76532233 0.0257723369 177 138 92 0.234681547 
-0.99358964 -0.0611611903 -0.316561371 0.0262553189 150 70 40 0.547686875 
-0.544996798 -0.0685376599 -0.187155142 0.0261380114 166 120 78 0.528231084 
-1.01816213 0.142394081 -0.360882401 0.0274050813 153 83 51 0.554350495 
0.220570296 0.279658258 0.306702524 0.0257774033 190 152 104 0.453980953 
0.208698645 -0.0794668496 -1.49773777 0.0265202504 99 51 26 0.72527355 
-0.0329226553 -0.279104441 0.23449266 0.0269904938 159 103 64 0.464837402 
-1.68902409 -0.0782357752 -1.09717727 0.0254009925 152 50 23 0.665050328 
0.18211703 -0.143297404 0.337728232 0.0266281255 165 112 71 0.449316323 
0.115892775 -0.196251735 0.350212008 0.0263968315 189 133 93 0.447439373 
0.0922076106 -0.0961925983 -1.15705526 0.0256977119 185 123 71 0.674052835 
2.45534706 0.246556148 0.472461939 0.0261326376 175 137 91 0.429059446 
0.36721015 0.0889535472 0.110281467 0.0270459168 149 106 68 0.483512193 
-0.104024328 0.250829309 2.61394787 0.0280832499 190 126 80 0.107093014 
-1.18959165 0.0767155737 0.502743781 0.0260759182 185 121 71 0.424506724 
0.356805146 0.392583072 1.83386207 0.0247706193 141 104 68 0.224376693 
-1.53186572 -0.0258789249 -0.875042021 0.0258014984 170 74 38 0.631652951 
-1.7219342 -0.000274897146 -1.25421691 0.0262349844 139 83 49 0.6886608 
-1.99181998 -0.413685799 1.00003636 0.0268267989 173 93 59 0.349740058 
-1.28397954 -0.176260263 -0.577883899 0.0257151555 153 54 27 0.586976111 
0.225141108 0.104291551 0.924328923 0.0255951453 152 80 39 0.361122519 
0.15517278 0.217342466 2.09739232 0.0260381643 180 110 63 0.184755817 
-0.489050478 -0.191891283 -0.0431861877 0.0259785615 169 123 79 0.506585717 
-2.91829062 0.281421214 1.7983011 0.0257599335 172 63 31 0.229723141 
0.791465044 0.0720842481 0.226872206 0.0260932278 185 122 74 0.465983212 
-0.0423047654 0.355619639 -0.117789 0.0255261082 133 93 60 0.51780206 
-0.55023855 0.227475703 -0.23019278 0.0268685762 160 130 89 0.534701586 
3.24766207 0.262219012 1.02661991 0.0254000984 159 85 43 0.345743328 
-1.99391747 -0.358188659 1.05288172 0.0260103811 176 94 58 0.341795057 
-0.16427961 0.461053938 0.466961473 0.0249837469 183 139 92 0.42988658 
-0.159681618 0.330910176 3.06514883 0.0254501291 170 121 77 0.0392562151 
-1.44552588 -0.0633707121 -0.999412894 0.026457293 161 80 48 0.650351763 
0.103450201 -0.0857308507 -1.12800372 0.0277837012 195 133 76 0.669685066 
0.149016365 0.298155129 0.760755897 0.0248201974 199 151 102 0.385715306 
-0.149503961 -0.205049694 -0.0603206642 0.0257651694 154 112 72 0.50916183 
-0.162789971 0.279973537 2.57351351 0.0256801061 190 128 79 0.113172248 
-0.495373756 0.130072132 -0.3090702 0.0253251325 109 86 58 0.546560645 
-0.794632971 0.0179328211 0.386011928 0.0250996873 162 116 75 0.442056954 
-0.00177235762 0.35643217 2.3631103 0.0260781255 200 159 106 0.1448057 
0.0294447467 -0.0225268528 -0.922858655 0.0258496888 192 119 57 0.638841987 
-1.81965041 -0.377545059 1.08193541 0.025451066 161 56 26 0.337426752 
0.30597043 0.302308738 1.37016428 0.0270962212 193 119 68 0.294092417 
0.272303015 0.267983377 1.84000611 0.0262457579 140 60 35 0.223453075 
-1.23673117 -0.0688732266 -0.708527148 0.0254555363 174 126 82 0.606617928 
-0.0645934492 0.0266351867 -0.763127923 0.02605295 170 79 45 0.614826918 
-2.19796133 -0.270394146 1.23931563 0.0267786793 151 119 79 0.313765079 
0.0801471025 0.251756132 -0.131684095 0.0267160591 160 100 58 0.519891202 
-0.208549872 0.309602797 3.0206728 0.0264322236 207 150 94 0.0459430926 
-0.294555038 -0.208558157 0.517269433 0.0260795951 171 120 76 0.42232278 
-2.91669154 0.30843237 -2.20307517 0.0249283258 198 164 121 0.831318974 
-1.04958308 -0.103380218 -0.349236876 0.0261967741 168 99 62 0.552599609 
0.160971746 0.330823809 2.26947761 0.0251130611 128 52 27 0.158883125 
-0.0935474411 0.27109158 2.5094862 0.0260532107 199 138 86 0.122798607 
-1.35847735 -0.0317828842 -0.709230304 0.0253063403 183 105 59 0.606723666 
0.0666494668 -0.00716988556 -0.904876351 0.0259041842 205 127 64 0.63613838 
0.167079598 0.324914068 0.585362434 0.0264766067 143 115 78 0.412085265 
0.0223601572 0.239039391 2.42722249 0.0256905146 156 85 51 0.135166734 
-0.393288761 -0.276412845 0.307713181 0.0252048187 177 123 78 0.45382905 
-0.937095225 -0.0110537736 -0.196859643 0.0255238488 167 78 42 0.529690087 
0.101152688 -0.201634288 0.371383488 0.0253568422 198 136 84 0.444256276 
0.0642934814 0.211428836 2.22098756 0.0272926632 166 76 43 0.166173562 
1.25293505 0.300395519 0.0468425788 0.0251877345 175 79 44 0.493050218 
-1.51104712 -0.174172491 0.79220289 0.0271827802 175 129 84 0.380987346 
-1.64237905 0.00996844843 -1.31158447 0.0256686732 185 124 90 0.697285891 
-0.614115894 0.177669644 -0.127209842 0.0263540205 169 135 92 0.519218445 
-0.496631086 0.0205916241 -0.300414592 0.0252535343 199 153 101 0.545259297 
-1.67047393 0.00921121333 -1.20445526 0.0256956127 167 108 66 0.681179345 
0.107218668 0.327553153 0.987651944 0.0258465912 184 122 75 0.351602077 
-2.37815595 -0.140618935 1.35569859 0.0270099789 147 51 26 0.296267241 
0.177468002 0.2437592 1.91935205 0.0262714047 185 132 85 0.211523563 
-2.06607127 0.0069225505 -1.57048392 0.0272192266 155 118 79 0.736210704 
-1.97545195 0.0849307925 -1.57356358 0.0259248652 164 77 43 0.736673713 
0.184118748 0.368051767 0.137190789 0.0259714834 188 140 99 0.479466498 
-0.196324512 0.315283507 2.51796556 0.0256888866 211 172 118 0.121523768 
0.0222966988 -0.251356751 0.137045816 0.0258005951 154 121 81 0.479488373 
-1.55773449 -0.0809306279 -0.73291719 0.0261236262 166 78 46 0.610284865 
-0.799066067 0.158682868 -0.248117715 0.0267036613 159 99 58 0.53739661 
-0.101115607 0.276735038 3.06492496 0.0272675604 196 150 117 0.0392898135 
2.27528 0.17209214 0.289285809 0.0259833951 190 111 70 0.456599474 
0.282523453 0.288234293 0.793504834 0.0260512214 197 141 91 0.380791575 
-1.11897898 0.143209368 -0.379181206 0.0257031117 161 84 56 0.557101607 
0.0587118752 0.0936020836 -0.147919282 0.026018979 170 133 89 0.522332072 
0.130165219 0.23672922 1.95351923 0.0250304937 173 106 62 0.206386656 
0.357716918 0.359187335 1.99970496 0.0255470164 143 77 39 0.199442714 
-2.11424994 -0.305789441 1.14529145 0.025477469 175 139 94 0.327901453 
0.26039353 0.121462896 0.50039494 0.0250438843 161 97 58 0.424859732 
-1.68446827 -0.0618321896 -0.993493617 0.0267902184 179 106 63 0.649461865 
-0.067179352 0.250012606 2.58360004 0.0253586695 182 125 76 0.111655697 
3.00179958 0.26081118 0.905222178 0.0253341291 166 101 59 0.363995105 
0.158684805 -0.149723291 -1.87462497 0.0271560997 142 76 39 0.78193742 
-1.82033312 -0.351805151 0.957725108 0.0262963716 167 76 41 0.356101424 
-0.253274441 0.338015288 2.91410995 0.0263857096 190 137 95 0.0619644262 
3.43669987 0.250149906 1.05597258 0.0256242584 153 113 74 0.34133026 
0.67199868 0.153208002 0.0195236206 0.0263585951 179 111 66 0.497157544 
-1.23430943 -0.0661000758 0.370660305 0.0259232707 166 87 54 0.444364995 
0.223149121 -0.0110133607 0.571611345 0.0259804167 190 133 87 0.414152652 
0.378882438 0.31736055 1.88269615 0.0262314659 177 94 58 0.217034727 
-0.000988687505 -0.017695006 -0.816067159 0.0273393895 190 130 90 0.622786283 
-1.53047657 -0.0376707651 -0.851734161 0.0258129276 159 68 38 0.628148615 
0.188491091 0.128163263 0.613655865 0.0266956165 177 141 96 0.407831281 
-1.09500575 -0.116500326 -0.385509998 0.0256767236 200 145 92 0.558053136 
0.0361915939 0.0746141374 -2.1489327 0.0255606752 180 121 71 0.823178887 
-0.287577748 0.33751151 2.75748158 0.0260006208 190 140 91 0.0855131522 
-0.0713887438 0.261666954 2.51772118 0.0267289877 160 96 57 0.121560469 
0.0216550771 -0.0665417761 -0.530724227 0.0258840732 182 91 52 0.579885662 
-2.2321353 -0.303210318 1.16318083 0.0258230716 136 84 50 0.325211823 
-1.33241582 -0.0621925816 -0.743636549 0.0258267671 155 64 29 0.611896455 
1.11353207 0.0572375096 -0.0278517269 0.0257842746 164 82 55 0.50428021 
0.0335292257 0.0513688512 0.633395314 0.0274317898 113 62 35 0.404863626 
0.222732052 0.197671115 1.22336745 0.0269017387 177 82 45 0.316162854 
-1.21962035 -0.165044725 -0.43734163 0.0259649251 191 127 82 0.565845966 
0.127048299 0.121337794 -0.70281142 0.0268477928 156 66 35 0.605758488 
0.320409179 0.252403527 2.04833674 0.0253475439 170 96 51 0.192131042 
0.302764297 0.257606983 2.09815645 0.0253276788 180 120 72 0.18464084 
0.225114718 -0.265868098 -1.3241719 0.0265949257 146 50 24 0.699178457 
0.226820409 0.324233562 2.17204404 0.0249866899 169 77 44 0.173532084 
-0.103112362 0.210041791 -0.450993866 0.0260930117 107 77 50 0.567898512 
-1.21629477 0.055224333 -0.413871169 0.0272229221 169 129 85 0.562317252 
-0.218789294 0.36403504 2.92797327 0.0247449148 154 90 52 0.0598801896 
0.137220725 0.0588717945 0.624419272 0.0264944881 156 103 61 0.406213135 
0.291981965 0.190467358 0.980949581 0.025739124 171 81 45 0.352609873 
0.26422295 0.206010818 2.02503204 0.0259473268 167 98 56 0.195634767 
-2.19494367 0.036521446 -1.71368408 0.0263673551 162 56 26 0.757740378 
0.100959562 0.352208555 2.40528846 0.0274636205 168 126 83 0.138464272 
-0.0853428543 0.265764177 2.4614594 0.0262311175 146 91 54 0.130019233 
0.0923578739 0.103278704 -0.351703912 0.027900992 166 112 69 0.552970529 
-0.27196914 0.374173164 2.7799418 0.025117619 163 98 58 0.0821363181 
0.0954070538 0.254631102 1.08144403 0.0253149085 184 141 94 0.337500691 
-1.20976925 -0.0656046346 -0.689143896 0.0263263602 176 125 81 0.603703678 
0.203226164 -0.240163505 -1.57182276 0.0256931279 158 72 42 0.736411989 
3.28723764 0.228223279 1.02349782 0.0256737266 171 96 46 0.346212834 
-1.85468769 -0.323577106 0.997322619 0.0261299517 162 57 27 0.350148171 
0.201850876 0.0530930422 -0.811996102 0.0269904938 206 164 109 0.622174203 
0.2043892 0.321210861 2.24628878 0.0286932178 136 54 29 0.162369475 
0.0658294111 -0.0565425158 -1.91707015 0.0260736253 154 54 26 0.788318992 
1.01248109 0.127973393 -0.0205696952 0.0251642354 199 157 105 0.503185451 
2.67630649 0.156494036 0.626496911 0.0268887971 173 73 39 0.405900717 
-0.893286288 0.079022117 0.197295845 0.0280890688 188 145 109 0.470429897 
-2.02769756 -0.413364917 1.03280735 0.0262994599 153 73 43 0.344813079 
-0.0462063365 0.315183014 0.673025012 0.0278692301 194 131 83 0.398905247 
0.408130616 0.23351258 0.0728711411 0.0267078802 164 102 60 0.489136726 
-2.60882807 0.0490382127 1.53557265 0.0257334206 190 152 110 0.26922375 
-1.13090086 -0.0230957679 0.354170293 0.0281392913 154 68 38 0.44684431 
0.189902037 0.349575073 1.98154604 0.0254495759 196 134 82 0.20217295 
0.250956506 0.186638668 0.791911125 0.0275187921 164 110 69 0.381031156 
-1.80240321 0.013497144 -1.6341902 0.0270031132 179 120 74 0.745788753 
-0.257543355 0.318195283 2.92711926 0.0264807157 174 111 68 0.0600086041 
-0.70054692 0.0818021297 0.479618013 0.0268130451 147 101 64 0.427983552 
0.275404632 0.178595021 2.06750393 0.0263211802 155 96 57 0.189249307 
0.349093378 0.35432896 1.49753547 0.0255766474 150 77 41 0.274942458 
-1.26207459 -0.1776696 -0.474660277 0.0259192642 168 63 31 0.571456671 
0.310534179 0.340671808 1.11234891 0.0260744039 195 138 89 0.332854271 
-2.68381214 0.0353339054 1.58114123 0.0260571875 198 138 86 0.262372553 
-1.15711939 -0.114264041 -0.373871982 0.0281225443 205 148 93 0.556303442 
2.51515794 0.161396027 0.395286709 0.0254509374 169 102 59 0.440662563 
-0.0559730269 0.396595895 -0.0813968554 0.0263473541 177 134 89 0.512330651 
-2.58683872 -0.100424044 1.44260883 0.0260004923 179 87 49 0.283200473 
2.83388853 0.255306125 0.779769897 0.0261966437 175 136 91 0.382856488 
-0.542032897 0.349966466 0.499291688 0.0258726645 198 160 108 0.425025761 
-2.09570169 -0.403566092 1.20497453 0.0258657355 164 80 45 0.318928182 
3.33393645 0.232105955 1.01139367 0.0257108249 163 90 45 0.348032594 
0.0660829991 -0.170259923 -1.80663407 0.0259072855 179 140 94 0.771715224 
-2.08096004 -0.409942269 1.08007717 0.0257739257 156 99 61 0.337706268 
-1.46736598 -0.140815169 -0.929397881 0.0273596216 204 145 91 0.639825165 
-0.0848599151 0.251902163 2.56032109 0.0251967404 179 113 67 0.115155712 
3.01104665 0.208644077 0.844991088 0.0265119821 180 114 67 0.373050719 
0.0253855977 -0.142014399 -0.0880339518 0.026004076 153 114 76 0.513328493 
1.03331411 0.145764485 -0.0291010849 0.0259245206 202 168 119 0.504468024 
-0.951437891 0.181637406 -0.222443551 0.0259940587 163 118 78 0.533536613 
1.03511047 0.0482511595 -0.0269894823 0.0257754289 171 82 48 0.504150569 
-0.274744719 -0.040524736 -0.281311989 0.0268312525 194 144 100 0.542387307 
0.342638969 0.333151788 1.55845022 0.0257102251 176 106 61 0.265784234 
2.14258885 0.275509834 0.213444442 0.0274664871 177 127 98 0.468001932 
-0.282249033 0.411458969 -0.124769144 0.0274087042 221 192 148 0.518851519 
-1.29654312 -0.226153761 0.810777485 0.0259754546 200 130 76 0.37819463 
0.120113991 0.110600546 -0.348837018 0.0256348215 164 103 61 0.552539408 
-1.54335821 0.00473593129 -0.954344988 0.0262012444 170 82 48 0.643575966 
0.200341254 0.268341899 2.30971217 0.0279299691 163 73 40 0.152833939 
0.138479739 0.164252684 0.975175142 0.0251827035 151 71 46 0.353477895 
0.227715552 0.409758806 1.45900536 0.0258933734 168 76 43 0.280735373 
-0.0296010971 0.0596826077 0.633213341 0.0264528356 137 90 54 0.404890954 
-0.0666474625 0.149598077 0.741729379 0.0270818416 188 145 96 0.388575882 
-2.50353098 -0.0294398852 1.41799819 0.0263571143 175 64 30 0.286900699 
0.133890405 0.208790272 2.17686009 0.0273814276 165 96 56 0.172808006 
-0.0210226774 0.375835657 2.51217055 0.0266003627 145 91 52 0.122394875 
0.177186832 0.373643845 0.16703029 0.0253045168 206 163 108 0.474980235 
-0.167490035 0.31279707 2.7784481 0.0269776136 149 72 43 0.0823608562 
1.42089117 0.284373134 -0.0286547597 0.0260102954 170 75 41 0.504400969 
0.20600073 -0.112509519 0.133235946 0.0256521497 143 98 61 0.480061144 
-1.86479282 -0.365117878 0.94961828 0.0282594524 154 51 24 0.357320249 
0.136936009 -0.191090718 0.238675639 0.026829401 201 131 77 0.464208513 
-1.85335743 -0.342773527 0.986349463 0.0258654784 124 62 30 0.351797849 
0.288463145 0.173160434 1.11324513 0.0271697491 144 53 27 0.332719505 
0.0143841878 0.371876717 2.47747064 0.0277387705 145 81 45 0.12761198 
0.170144156 0.329722673 2.2938993 0.027144054 153 100 62 0.155211449 
-1.7841928 0.0437069871 -1.50138533 0.0269577466 154 67 38 0.725821972 
0.261291087 0.189193919 0.122083679 0.0259208586 174 106 61 0.481737852 
-2.7789228 0.110820673 1.60198081 0.0266548544 187 127 78 0.259239405 
-1.38964665 -0.200138524 -0.716001213 0.0259590577 190 129 82 0.607741535 
-0.10102763 0.275446296 2.38447762 0.0267533641 169 120 91 0.141593277 
-0.556903362 0.282158524 -0.18038623 0.0265396405 160 122 81 0.527213395 
-0.979456723 0.0949583948 -0.115173146 0.0262299012 146 97 60 0.517408729 
-1.22550249 -0.118219934 -0.584923029 0.0259387456 145 48 23 0.588034391 
-1.12539506 -0.0497821756 0.664119303 0.0256978404 150 52 28 0.400244296 
2.88493562 0.195171654 0.78404963 0.0254960489 163 114 72 0.382213116 
0.233209938 0.299429327 -0.00740908366 0.0277074017 172 120 85 0.501206756 
-1.12205732 0.00431409758 0.359432429 0.0292140674 160 75 43 0.446053147 
0.0963355154 -0.140518814 -1.45901251 0.0267813206 100 54 30 0.719451308 
-1.28077054 -0.2835069 0.631819904 0.0267678909 192 126 75 0.405100435 
-0.0239356235 0.450233459 0.448977441 0.025256414 190 121 71 0.432590187 
-0.809374928 0.0142772384 0.488792002 0.0260242932 192 147 104 0.426604211 
-1.11477268 -0.219359785 0.50197053 0.0255669951 165 98 56 0.424622923 
2.80852938 0.272307634 0.563231468 0.0261496697 194 141 100 0.415412635 
-1.33433211 -0.0342494026 0.566125393 0.0255324226 167 65 34 0.414977491 
0.119885378 0.345448613 2.33267593 0.0272024889 166 114 72 0.149381474 
-1.03737152 0.0595539138 -0.439566761 0.0272755399 177 91 52 0.566180527 
-0.0684276819 0.327635318 2.62638855 0.0270444099 167 105 62 0.10522259 
0.2115127 -0.269474685 -1.40675974 0.0254770014 170 103 66 0.711595178 
0.0243571289 0.0233771876 -0.822524369 0.0253418125 221 165 96 0.623757005 
2.35858369 0.263841897 0.269362211 0.027785778 152 89 52 0.459594995 
-0.287909359 0.0464474857 0.677679121 0.0277896151 178 121 75 0.398205549 
1.19170189 0.262604386 0.100199573 0.024716014 180 134 88 0.485028118 
-1.49196279 -0.385809362 0.823443949 0.0257496778 145 58 30 0.376290232 
-0.106243081 0.20793134 0.673383474 0.0264770444 197 135 83 0.398851395 
0.262984514 0.175642624 0.477742165 0.0246815868 159 108 68 0.428265661 
-2.66475725 0.36156103 -1.85288274 0.0259496551 216 157 99 0.778668582 
-1.32064247 -0.0101106074 0.565541327 0.0261847526 143 48 24 0.41506514 
0.190565422 0.349943221 0.516975164 0.0264891535 173 123 79 0.422367036 
-1.60712147 -0.118195191 -0.841437697 0.0257046111 153 80 48 0.626600623 
-0.894581795 0.1781445 0.19907172 0.024959702 197 147 100 0.470162898 
-0.217856646 0.283218265 2.69077516 0.0257352646 198 128 79 0.0955422521 
-0.964418054 0.00616552122 -0.331852585 0.0259746779 179 94 56 0.549985945 
0.26910308 0.0100047272 0.497861296 0.025219921 198 142 98 0.425240785 
0.288234204 0.339065522 1.11021829 0.0256929994 146 85 48 0.333174646 
0.12511 0.414720953 0.419453561 0.0250643585 176 127 93 0.437029123 
0.108844772 0.0703021139 0.63139081 0.0282869879 170 115 72 0.405164957 
0.249534518 -0.241815791 -1.2668215 0.0256794635 179 122 76 0.690555811 
-0.00335035403 -0.0285004862 -0.898092687 0.0251150858 204 125 66 0.635118544 
0.0804996118 0.288300574 2.46780992 0.0256663617 179 124 92 0.129064515 
-0.0270017032 0.237192839 2.5286653 0.0264185164 174 123 79 0.119914912 
2.07118845 0.349566609 0.171800643 0.0278073587 163 101 60 0.474263161 
-2.06046915 -0.451767236 1.13624454 0.0254297443 170 115 72 0.329261452 
-1.39526796 -0.20239687 -0.617495477 0.0257752147 201 153 110 0.592931569 
-1.45731246 -0.214642033 -0.720714867 0.0253987387 183 119 72 0.608450294 
-1.3280021 -0.128551185 -0.785657644 0.0249423515 192 123 72 0.618214309 
2.43248582 0.165014103 0.332715005 0.0255795084 212 140 82 0.450069934 
0.264907777 -0.0167715941 -0.975183666 0.0254875254 190 138 84 0.646708965 
2.24354696 0.255197078 0.299742907 0.0258445274 186 148 102 0.455027193 
0.249930203 -0.0220820382 0.398372412 0.0250583757 188 133 84 0.44019869 
-2.46372271 -0.201061204 1.27102232 0.0259829201 181 121 81 0.308998197 
1.1573503 0.295593411 0.0662861094 0.0255816448 163 101 60 0.490126878 
0.092984125 0.113644846 -0.793817043 0.0256707706 174 118 70 0.619441032 
-1.32045257 -0.250673771 0.766420901 0.0268791281 183 119 73 0.384863585 
-2.56953478 0.00477884617 1.37113297 0.0266329516 171 70 36 0.293946713 
2.53454113 0.245015159 0.429089785 0.0250059552 160 88 62 0.435580373 
-1.24575281 -0.148440883 -0.546643853 0.0256156195 156 55 27 0.582279146 
0.355435789 0.235417947 1.9250977 0.024939118 168 94 55 0.210659802 
-0.540665865 -0.193428203 0.370090604 0.0267884564 202 139 91 0.444450647 
0.253007621 0.0145864123 -0.720812917 0.0255522653 149 93 57 0.608464956 
0.182507575 -0.0468528643 0.592410266 0.0260450374 168 117 73 0.411025494 
1.33761311 0.0837380365 -0.0571602546 0.028004406 189 131 81 0.508686721 
0.075667277 0.365343153 -0.0709834248 0.0263840966 166 114 73 0.510764956 
0.304504067 0.234215021 1.00737023 0.0252814107 139 54 31 0.348637551 
0.227927998 0.28264606 1.69783831 0.0246734135 161 72 41 0.244827434 
3.31434035 0.245986924 0.997423053 0.0254525561 148 81 38 0.350132972 
-1.41049576 -0.0217430051 -0.63615799 0.0269069076 162 121 80 0.595737338 
0.242939502 0.26853922 0.526952267 0.0250713956 160 102 61 0.420867056 
0.500026584 0.102684371 0.0858991966 0.0272653773 146 85 49 0.487178028 
-1.92808068 -0.343511283 1.0307343 0.0257383529 162 78 47 0.345124692 
-0.00586109981 0.137577683 0.661890924 0.0250660852 157 110 69 0.400579423 
-1.10515654 0.041934289 -0.24561888 0.0265375394 174 94 58 0.537020862 
-0.234628871 0.269586682 0.650388777 0.0250930656 188 147 97 0.402308732 
-0.281854093 0.430746615 0.549840987 0.02616762 169 106 64 0.417425781 
1.1281693 0.0993128046 0.0858232304 0.0270688422 176 88 52 0.487189412 
-1.4867841 -0.0450385921 -1.02629805 0.0251293089 150 67 38 0.654393852 
-0.0948476121 -0.056059368 0.6235587 0.0248102341 158 114 73 0.406342447 
0.212957397 0.260000974 0.67462343 0.0252689105 150 96 59 0.398665011 
0.0978930742 0.339475423 2.17931104 0.0250524338 167 76 45 0.172439471 
0.561573267 0.217816174 0.0902078524 0.0281248204 164 89 46 0.486530304 
0.0199034158 0.462777257 0.307576507 0.0251492821 175 131 87 0.453849524 
-0.133671865 0.314062744 2.69674015 0.0260678716 170 92 51 0.0946454182 
2.50048137 0.17710726 0.37914902 0.0254448503 190 127 75 0.4430888 
-1.87929809 0.0224846173 -1.46781206 0.0262149181 157 74 44 0.720774293 
-0.669019878 0.137625143 0.473527342 0.0252438784 122 86 55 0.428899348 
-0.629375279 0.391105056 0.340373099 0.0259515103 170 115 72 0.4489187 
-1.45368683 -0.010389477 -0.728335977 0.026367791 155 71 43 0.609596014 
0.164261788 -0.0978877097 -1.73754287 0.0256886296 169 115 68 0.761327505 
-1.79624557 -0.0550879389 -1.36349571 0.0265312362 177 119 82 0.705090582 
-0.0680283681 -0.0474158861 0.623120308 0.0257755574 177 129 84 0.40640831 
-1.8920567 -0.0719273388 -1.52923715 0.0265672728 168 66 33 0.730009377 
0.137316182 -0.103903204 -0.860912025 0.0252800975 168 111 67 0.629528582 
0.0610579066 -0.0502080657 -2.15548015 0.0268815551 202 143 94 0.824163198 
-0.0794284716 -0.145911545 -0.114118457 0.0262370687 162 105 78 0.51725024 
0.0126438867 -0.099937506 0.604434967 0.0259418506 188 159 110 0.409217685 
0.0498991124 -0.053006269 -2.13329625 0.0259565562 142 55 29 0.820827961 
-0.163932309 -0.0358227082 0.636226118 0.0262911506 175 129 85 0.404437959 
-2.41822147 0.256014109 -1.81998324 0.0264705308 176 132 87 0.773722172 
0.0995536298 -0.2240358 -1.72307527 0.0257198699 187 125 74 0.759152353 
-0.187427461 0.328593165 2.53166509 0.0257875808 211 172 118 0.119464047 
0.254933029 -0.233750746 -1.33406067 0.0266579278 204 161 109 0.700665116 
2.49503207 0.224233046 0.50470823 0.0256453902 168 135 90 0.424211323 
0.0334596746 -0.11715804 0.594461262 0.0258067828 111 76 48 0.410717219 
-0.157506645 0.452822477 -0.00377921946 0.0262687095 195 147 105 0.500660956 
-0.070487693 0.251095027 2.5412817 0.0269570835 187 140 91 0.11801818 
0.298993409 0.303167045 1.27033889 0.0270823296 168 78 43 0.309100896 
-1.31502485 -0.156532511 0.474328309 0.0257511791 153 91 53 0.428778797 
2.25884938 0.209193617 0.179248899 0.0255056825 157 77 46 0.47314316 
-0.638218701 0.0722581223 0.458590806 0.025519371 177 119 73 0.431145042 
-0.333055019 0.313836396 -0.296259344 0.0254982226 186 95 57 0.544634581 
-1.47439587 -0.195901588 -0.733810067 0.0262290332 194 130 80 0.610419154 
2.95737076 0.2108794 0.84111321 0.0267570168 176 121 75 0.373633862 
-1.47898304 -0.0630746633 -0.674155593 0.0254319981 195 134 89 0.601450205 
-0.755012751 0.219067246 -0.164090604 0.0256320834 175 126 82 0.524763346 
-1.70320141 -0.0406413674 -1.48129547 0.0253820345 164 111 70 0.722801447 
2.27850056 0.218616009 0.19243075 0.0255079847 177 93 56 0.471161336 
-0.160736576 0.27303955 2.5076375 0.0271714833 159 84 45 0.123076454 
0.240979329 0.335435987 2.117733 0.0250253156 170 73 40 0.181697547 
0.191044211 0.181277096 0.613730609 0.0273871496 155 108 68 0.407820106 
0.379159302 0.386829138 1.86624706 0.0265303161 181 160 112 0.219507694 
0.18732059 0.364944011 1.44339883 0.0268487185 174 117 73 0.2830818 
0.180622399 0.332512349 1.52455676 0.027283255 153 79 40 0.270879984 
-1.53730845 -0.0820812955 -0.687585235 0.0254436173 156 78 47 0.603469312 
0.00834924076 0.293147117 -0.137674034 0.0251878612 137 87 51 0.520791769 
-2.16396856 -0.392492533 1.15198445 0.0254099201 160 93 57 0.326895177 
0.141047865 0.404775977 1.29778683 0.0269762408 191 137 86 0.304974139 
-2.36630774 -0.14517647 1.33592784 0.026319569 187 113 71 0.299239695 
-0.000363164814 0.324340075 2.56580281 0.0256160051 187 132 84 0.114331521 
-1.23868477 -0.0207321625 0.392333925 0.0253518745 186 151 102 0.441106528 
0.810975194 0.257809401 0.122266822 0.0256528351 162 64 33 0.481710374 
-0.348028481 0.165206969 -0.33180058 0.0264340136 188 129 80 0.549978077 
-0.17871128 0.278074831 2.86630464 0.0258921254 169 75 40 0.0691519678 
-1.69423139 -0.0789464265 -1.37944651 0.0268551614 181 128 81 0.707488775 
-0.162753269 0.314061821 3.08083057 0.0267229192 154 95 58 0.0368985049 
-1.58351362 -0.00978004746 -1.21636271 0.0254958346 144 106 69 0.68296957 
0.197740704 -0.217823297 -1.68131149 0.0276713315 182 123 80 0.752873361 
0.232933432 0.0621051043 0.201485157 0.0272024889 168 108 65 0.469800025 
0.0262834188 0.376249254 2.42956305 0.0276491009 200 151 98 0.13481468 
0.214825824 -0.103075534 0.107737795 0.0254042223 168 132 88 0.483894616 
-2.32189393 0.124096222 -1.66605043 0.0254585166 182 140 94 0.75057888 
0.199264377 0.286257923 -0.0767701939 0.0262658391 170 115 72 0.511634946 
-1.47056496 -0.0126880771 -0.751152515 0.0254237447 167 79 46 0.613026559 
-0.0961395651 0.0360848792 -0.366553754 0.0255796369 186 126 81 0.55520308 
0.233392254 -0.0425809883 0.158270165 0.0273006037 175 122 77 0.476297349 
0.263985306 0.223069966 1.42872953 0.0264241472 176 135 89 0.285287321 
0.309400827 0.320497513 1.29254723 0.0256240442 159 77 43 0.305761904 
0.208171621 0.072276257 -0.580770433 0.0269520413 172 95 56 0.587410033 
-1.38764358 -0.134469509 -0.836213589 0.0267620794 187 124 74 0.625815213 
0.0556722097 -0.0230049081 -0.743860126 0.0254541747 166 107 65 0.611930192 
-0.475282669 0.370574594 -0.176246211 0.0252888724 140 42 18 0.526590943 
1.77134585 0.312565923 -0.0240422171 0.0275747105 179 132 93 0.503707469 
2.80559754 0.237323046 0.552860558 0.0263022892 170 81 54 0.416971803 
0.0848328471 -0.217190206 0.118855506 0.0257613063 139 101 65 0.482223183 
0.26877144 -0.0370552279 -1.08426821 0.0262076687 208 158 96 0.663109541 
3.04656816 0.23713237 0.798982322 0.0261235405 147 93 55 0.379968047 
-1.24010932 -0.193587661 0.743209481 0.026342649 168 101 58 0.388353229 
-2.01558638 -0.340749472 1.08634925 0.0262694489 184 133 87 0.336763114 
2.20268226 0.176969454 0.190024659 0.0254870132 139 59 33 0.471523166 
-1.18556082 -0.101711221 -0.617942631 0.025934048 168 65 33 0.592998743 
2.03901029 0.219156474 0.108549103 0.0249143038 180 108 64 0.483772665 
0.0042395452 0.385645092 0.567367136 0.0261982493 155 90 51 0.414790809 
0.280572534 -0.19530198 -1.19652033 0.0255083255 204 141 87 0.679986238 
1.81297183 0.305302441 0.0454564132 0.0257189274 160 94 55 0.493258506 
-2.06882095 -0.311633229 1.12987518 0.0255637933 157 91 69 0.330219209 
-1.47041094 -0.0312275495 -0.732043862 0.0256275069 178 92 56 0.610153615 
0.156521782 -0.122379944 -0.964516401 0.0257434994 185 93 52 0.645105124 
0.312666357 0.296410471 1.03067362 0.0271533877 167 115 72 0.34513396 
0.236470431 0.275752246 0.113199934 0.0251064785 154 93 54 0.483073503 
0.239746943 0.419935346 1.92519987 0.0270876996 157 107 67 0.210644379 
-1.36779225 -0.334045917 0.633929014 0.0263217892 211 160 104 0.404783398 
0.233173981 0.291866422 0.092381753 0.0271756183 180 124 78 0.486203462 
0.452729523 0.0938691199 0.207947597 0.0253437236 162 76 55 0.468828559 
0.240078911 0.138759673 0.78666985 0.025379017 156 77 47 0.381819189 
0.233860001 0.200914219 0.318085551 0.0253749378 198 160 108 0.452269524 
-2.14168215 -0.3812612 1.22418535 0.0253712423 167 98 59 0.31603992 
0.136059806 -0.0685257465 -2.04522848 0.0265710838 197 138 85 0.807587206 
-0.838374674 0.2250029 -0.144797415 0.0260171201 168 110 67 0.521862686 
-1.73884749 -0.100868419 -1.41624546 0.0255517531 159 95 56 0.713021398 
1.69304454 0.219378144 0.0849794447 0.02596182 152 74 41 0.48731634 
-1.59462214 -0.0891042575 -0.734556019 0.0249105692 170 82 48 0.610531211 
-0.125788003 0.217919424 0.660088718 0.0275293775 162 109 68 0.400850236 
3.01898432 0.304111004 0.822088957 0.0259552617 142 74 39 0.37649405 
-1.53651762 -0.239948079 0.667817354 0.0263412558 150 97 59 0.399688303 
-0.00201964541 -0.257713646 0.125751257 0.0267795157 150 112 74 0.48118645 
0.204275787 -0.106658868 0.249516428 0.0264862664 178 140 93 0.462578684 
-0.183439314 0.458110958 0.00472026318 0.0260487124 195 147 105 0.499383092 
-0.0184125807 0.377192974 2.56066656 0.0247191042 184 114 69 0.115103781 
-3.32061434 0.218227237 1.97850883 0.0254479591 184 126 94 0.202629551 
-0.54438138 -0.229700208 0.253303319 0.0251781382 190 129 79 0.462009311 
-0.24653317 0.334494621 2.61214232 0.0272451472 155 62 33 0.107364424 
1.35128272 0.106523991 -0.0624137074 0.0248774718 135 73 41 0.509476602 
0.106508344 0.425911903 0.400407016 0.0251988973 143 115 78 0.43989265 
-0.0239451509 0.147193894 -2.51353931 0.0274337586 175 120 82 0.877996445 
-1.19220304 0.0355969779 -0.519673586 0.0259992387 180 119 72 0.578224242 
0.0912984535 0.0890813023 -0.800067246 0.0253494959 184 130 79 0.6203807 
1.59172344 0.269423604 -0.0766830668 0.0262914989 176 87 50 0.511621892 
0.136191979 -0.228500977 -1.78263402 0.0269332919 180 110 63 0.768106878 
0.12362767 -0.253380537 -1.6367712 0.026642343 201 151 98 0.746176839 
0.113099419 0.427979589 0.270844668 0.0251966137 158 110 70 0.459372133 
-2.03684306 -0.357827216 1.07354224 0.0255666543 175 129 85 0.338688701 
-0.74011761 0.194173977 -0.176005661 0.0265978184 193 130 80 0.526554823 
2.05410194 0.246759221 0.191127002 0.0266242195 145 65 37 0.471357405 
1.23942804 0.311282665 0.0708966777 0.0249530207 167 100 56 0.489433706 
-2.08843064 0.0755535215 -1.59753454 0.0262386762 165 115 72 0.740277648 
-1.5917263 -0.0371794887 -0.976205707 0.0261121914 227 172 118 0.646862626 
-1.72257066 0.00503470795 -1.50608695 0.0255924538 167 88 54 0.726528823 
0.115742847 0.375339925 -0.0353164412 0.0255980082 143 115 78 0.505402505 
0.139454618 -0.158362836 -1.88596427 0.0262650996 159 87 46 0.783642292 
-0.258116245 0.0589293838 0.666841924 0.0272908807 186 123 74 0.39983508 
-1.25853419 -0.0306305755 -0.617394209 0.0263968315 211 174 119 0.59291631 
-1.95710242 -0.453148574 1.1378268 0.0267432425 184 120 73 0.329023719 
-1.6948899 -0.00542708253 -1.20519531 0.0252545513 207 135 74 0.681290567 
3.5840404 0.188331127 1.13168871 0.0252880659 176 126 81 0.329946607 
0.277282387 0.365313023 1.33745134 0.0275356583 150 94 56 0.299010605 
-1.92588341 -0.0665384457 -1.58567309 0.0262335073 174 105 60 0.738494337 
0.0365401469 0.236768484 2.40272927 0.0255067479 153 108 70 0.138849154 
-0.0362117961 0.10849043 -2.35266089 0.0257582162 154 114 75 0.85380882 
0.317292392 0.252321541 1.71847165 0.0260286145 166 73 41 0.24172537 
-1.42370892 -0.0416619331 -0.627173662 0.0270958655 171 127 84 0.594386578 
0.253888756 0.230280861 0.766318262 0.025520863 183 129 81 0.384878933 
-0.25634864 0.388065934 0.602944493 0.0260201022 156 93 54 0.409441829 
0.252167225 -0.238628358 -1.29198194 0.0257802811 193 145 95 0.694338679 
-0.997399986 0.00557240238 -0.400390893 0.0251830425 176 87 49 0.560290456 
-2.85171056 0.173681691 1.78535891 0.025764782 172 86 49 0.231669143 
-0.779771268 -0.08101248 0.306002319 0.0263035502 206 141 100 0.454086155 
-0.588053644 0.397068411 0.371531934 0.0255317837 180 104 65 0.444234103 
2.86162186 0.192927107 0.793440938 0.0253484361 188 138 89 0.38080129 
-0.259397388 -0.266817957 0.0328885131 0.0257495064 163 129 86 0.495148212 
-1.53650773 -0.14871496 -1.0152421 0.0253770202 154 51 23 0.652731657 
-0.586076736 -0.162749782 -0.0104804961 0.0268666353 189 141 91 0.501668572 
-1.37563396 -0.0396107696 -0.47694841 0.0276240483 194 142 112 0.571800649 
3.18738937 0.281763405 0.995836794 0.0256124139 180 115 67 0.350371599 
-0.647150874 -0.0854974017 0.404492557 0.0269500501 169 123 79 0.439278454 
2.97331452 0.198967248 0.727404892 0.0256156195 196 153 119 0.390729427 
-1.01917553 0.134289652 -0.226006195 0.0268520731 163 91 55 0.534072161 
-2.62162304 0.0396191105 1.43101597 0.0259660464 183 153 104 0.284943551 
0.187513322 0.364529371 0.0840156153 0.0262180008 188 135 86 0.487461329 
-0.0589458048 -0.196781769 -0.0447421744 0.0253977608 167 137 93 0.506819725 
-1.71918178 -0.4516491 0.925023437 0.0256618671 167 97 59 0.361017972 
-1.52574408 -0.146215335 -0.755272806 0.0255164709 179 108 61 0.613645911 
0.0579549298 0.450969219 0.246252567 0.0275699049 187 153 108 0.463069469 
0.194209576 0.337088913 1.95484543 0.0259784311 171 111 67 0.206187218 
-0.0961965322 0.45113501 0.0134905288 0.0276387539 181 147 100 0.498064578 
2.50320673 0.131363168 0.473945111 0.025665205 161 91 52 0.428836405 
-1.09706807 0.104810447 -0.221819058 0.0251022615 162 81 48 0.533442676 
-0.287958026 0.335801929 2.73093104 0.0258534737 209 167 137 0.0895049199 
-1.6166302 -0.140157878 -1.03109217 0.025982013 191 140 95 0.65511471 
0.153818458 -0.0853825733 -1.15877461 0.0264260676 109 87 59 0.67431128 
0.103640094 -0.11524716 -1.67928374 0.0257424694 204 158 94 0.752568424 
-0.576052547 0.21627903 -0.177653342 0.0262622312 176 135 90 0.52680248 
-0.105466291 0.376628548 -0.119958602 0.0256152358 180 139 94 0.518128276 
-0.0665711537 0.277387142 2.35254431 0.026644757 203 172 135 0.146394297 
0.106359541 0.210004419 2.18975019 0.0246949792 139 54 28 0.170869917 
-0.107791133 0.321565568 -2.79396105 0.027058553 143 46 20 0.920157075 
2.92037582 0.301117539 0.833210289 0.0255294368 191 141 92 0.374821931 
-2.0106566 -0.369427949 1.03859591 0.0279286094 184 117 75 0.343942821 
-1.43201637 -0.0637454242 -0.979747236 0.0279884841 174 87 52 0.647395074 
-1.78531289 -0.375198632 1.05357504 0.0253937654 144 107 71 0.34169063 
2.62664127 0.113048114 0.531446636 0.0256240442 173 76 41 0.420191228 
-1.4487859 -0.127142265 -0.939761996 0.0261943862 173 108 64 0.64138341 
0.0707218871 0.0968351737 -2.38332295 0.0263271872 194 142 97 0.858418763 
-0.569025218 0.240491062 -0.182440951 0.0253611747 191 162 112 0.527522326 
0.143091068 0.344184667 2.37209797 0.0247589145 141 109 73 0.143454492 
-0.199509308 0.360730499 2.91642022 0.0278121904 175 128 83 0.0616172142 
-1.63619733 -0.352434367 0.741280317 0.0263728481 163 77 47 0.388643324 
0.148336992 -0.201501071 -1.36029649 0.0255333614 166 113 71 0.704609573 
-0.732984841 0.398123711 0.191375196 0.0278685056 176 124 78 0.471320152 
3.4098773 0.213826239 1.04795134 0.0260966904 175 131 85 0.34253633 
-1.58495998 -0.161598727 -0.993568003 0.0255876258 173 62 29 0.649472952 
3.2090106 0.275726557 1.00741267 0.0266826097 181 109 61 0.348630995 
2.16384721 0.336353898 0.236883774 0.0261034444 168 82 50 0.464477926 
0.0863225982 -0.183492601 -1.46231139 0.0255272184 163 95 57 0.719947219 
-1.59541214 -0.276186317 0.716043532 0.0252667069 196 125 72 0.392437696 
1.99176419 0.31865117 0.0402633809 0.0263336767 159 63 32 0.494039416 
-1.47881901 -0.103337578 -0.53878206 0.0276296698 170 67 37 0.581097186 
-0.113331243 0.220689997 -3.17761064 0.0255159158 129 80 45 0.977837741 
1.91632831 0.242785662 -0.0147707416 0.025458049 188 135 86 0.502313495 
0.110716946 0.427553296 0.195775941 0.0254422538 148 101 65 0.470658541 
-1.11071324 -0.0933532715 0.671142101 0.0258068256 159 75 44 0.399188489 
-0.709419489 -0.048998531 0.00736236293 0.0256834477 160 117 75 0.498985916 
-0.950799108 0.0941049084 0.374052703 0.0264227949 171 136 92 0.443854958 
0.515531003 0.131038114 0.260715276 0.0254293606 185 130 81 0.460895002 
0.192127109 -0.153792188 -0.841722131 0.0257732384 191 133 83 0.62664336 
-1.48430693 -0.275649816 0.621532381 0.0257386956 181 111 65 0.406647056 
-0.123909935 -0.0615970902 -0.187190995 0.0274032466 187 149 100 0.528236449 
-1.15346241 -0.0327686779 0.348005474 0.0263951309 168 82 48 0.447771102 
0.185092494 0.378213227 1.4140414 0.026845146 155 105 66 0.287495524 
2.99107146 0.297846943 0.884571731 0.0261634998 186 123 74 0.367099851 
-0.00640066946 0.127546817 -2.28491831 0.0267059021 195 140 83 0.843623877 
0.293265939 0.222715273 0.966637254 0.0255091358 170 99 60 0.35476163 
0.122336224 0.348124743 2.38993621 0.0258368291 162 130 88 0.140772566 
0.177446902 0.325624645 1.80203688 0.0267286804 150 94 57 0.229161531 
-0.922402442 -0.0150987739 -0.271978736 0.0254908912 177 94 59 0.540984094 
-0.207026988 0.00239971769 -0.248350322 0.0268574562 188 144 94 0.537431538 
2.19219041 0.301799864 0.152735025 0.0262835808 168 112 68 0.477129549 
-0.0299756899 0.00283418549 0.628771901 0.0262524504 180 121 75 0.405558616 
-0.227604195 -0.160414338 -0.152026907 0.0272998009 164 111 70 0.522949576 
-1.66215086 -0.297843635 0.834934115 0.0253540818 189 128 80 0.374562681 
0.00491639227 0.267664373 0.744036555 0.0260772593 215 184 132 0.388229042 
0.261147559 0.134228468 0.442701101 0.0253782943 181 139 92 0.433533967 
0.215270221 -0.0914433524 -0.844406366 0.0261508841 198 143 90 0.627046883 
-0.31550622 0.330924928 0.655256808 0.0262874532 161 89 51 0.401576817 
-0.148739636 0.199110374 -3.10859466 0.0255054701 175 125 87 0.967461348 
2.76038337 0.299960613 0.641509891 0.0254810918 165 129 86 0.403643459 
1.34099376 0.209810778 0.100399464 0.0258228127 153 62 35 0.484997958 
0.224122286 0.334311575 2.13533115 0.0270887204 152 62 33 0.179051623 
-0.0970062092 0.0918428525 -0.650279105 0.0258145183 173 68 34 0.597860396 
-1.31842554 -0.153210327 -0.671359122 0.0254112389 154 59 30 0.601029754 
-0.833557367 -0.0297602098 0.100006536 0.0255332757 172 121 77 0.485057145 
-2.28296757 0.0819758847 -1.66821027 0.025745688 141 91 57 0.750903606 
-2.7121594 0.0771766156 1.50452185 0.02682098 168 124 80 0.273892045 
-0.538492024 0.321138561 0.54929471 0.0262503643 143 107 69 0.417507797 
-0.44510746 0.113097571 -0.329805076 0.0273296107 195 157 105 0.549678087 
0.12700069 0.181371048 1.06021047 0.0247605443 147 57 31 0.340693206 
-0.186422706 -0.217834815 0.507818758 0.0274887104 143 91 56 0.423743576 
3.52931547 0.192003652 1.10461235 0.0259303395 169 136 92 0.334017456 
0.185705155 0.367788464 0.332591265 0.0253158417 190 123 72 0.45008859 
-1.10508311 -0.123542465 -0.342977911 0.0263139531 194 136 86 0.551658571 
0.304225147 0.229238898 0.942572057 0.025864359 200 129 76 0.358379722 
-1.22285891 -0.169268832 0.749834478 0.0266355835 182 113 65 0.387357205 
0.312992185 0.282744974 1.47280419 0.0257165264 198 148 96 0.278660804 
0.0688775778 0.150619119 0.901228726 0.0253003184 158 86 48 0.364595562 
0.242751598 0.391485721 1.99683893 0.0268932581 178 118 79 0.199873552 
-0.694924831 0.22037968 -0.115800254 0.0263319779 156 100 59 0.517502964 
2.31129122 0.158458486 0.389019608 0.0283184722 197 106 61 0.441604882 
-0.180641264 0.46679002 0.0344654433 0.0264704451 193 139 101 0.494911045 
-1.06321728 0.162808567 -0.328887582 0.0261558685 171 87 54 0.549540102 
-1.34224629 -0.118094645 -0.853046715 0.0255444553 180 116 69 0.628346026 
-1.45036769 -0.103508808 -1.01370156 0.0272036027 176 106 75 0.652499974 
-0.0891780779 0.370451897 2.4666431 0.0255350675 151 93 55 0.129239887 
2.8414886 0.306560934 0.697594285 0.0255534612 185 131 83 0.395211488 
-1.17140472 0.0692287907 -0.322327822 0.0251995735 148 64 36 0.548553944 
-2.29042196 -0.256927192 1.19960093 0.025909828 195 127 64 0.319736212 
-0.372682244 0.284250915 -0.322642326 0.0254086871 181 121 74 0.548601151 
0.287094444 0.25823462 1.27213311 0.0246902648 178 87 48 0.308831185 
0.261088252 0.19457902 2.04934144 0.0254668202 157 116 76 0.191980004 
-1.20318711 -0.0230673309 -0.353354007 0.025608182 183 118 71 0.553218603 
-2.00555539 -0.00692943437 -1.53478444 0.0261480659 166 58 27 0.730843365 
-1.25968218 -0.0192319471 -0.36113441 0.025809532 188 118 67 0.554388344 
-1.5023216 -0.1123823 -0.577780247 0.0273232274 165 67 37 0.586960495 
2.96980071 0.271826625 0.875580847 0.0268548075 160 101 61 0.368451625 
0.0344813913 -0.0537917651 -2.07226825 0.0255282 163 85 49 0.811652601 
-1.39895189 -0.0700429454 -0.916531146 0.0266101845 156 67 37 0.637890756 
-1.59688556 0.00288343243 -1.07349956 0.0264141522 177 122 76 0.6614905 
-0.0155834518 0.330021292 2.58456612 0.0270853024 180 115 70 0.111510411 
-2.42512012 -0.23253563 1.32075977 0.0260055866 156 82 46 0.301520169 
0.294044137 0.214863136 1.01953471 0.0254129823 168 111 79 0.346808642 
-2.23011065 0.0527733527 -1.66417682 0.0265756845 175 86 51 0.750297129 
-1.44525087 -0.0244490094 -0.848447204 0.0270157382 136 49 25 0.627654493 
-1.66066468 -0.258802384 0.886390269 0.0267015509 194 149 111 0.366826534 
0.273210883 -0.216336682 -1.33441758 0.0254441705 207 155 101 0.70071876 
1.35771108 0.1392546 0.0413400345 0.0255846344 208 155 101 0.493877381 
-1.34713614 -0.129384905 -0.802783966 0.026373459 198 133 80 0.620789111 
2.72781014 0.117272258 0.586905301 0.0255396329 177 76 41 0.411853164 
0.325649977 0.339593828 2.07590818 0.0250955969 157 96 59 0.187985703 
-0.0402994901 0.252524644 2.40084124 0.0260613393 184 118 75 0.139133006 
-0.114620537 -0.0903445184 -0.169045508 0.0267557409 181 97 55 0.525508285 
0.214081198 -0.0810286626 0.234399602 0.0254376587 170 118 76 0.464851439 
1.24374318 0.114229038 0.0656652525 0.0273500625 205 172 131 0.490220279 
0.0618567765 0.212566659 -2.48982406 0.0261706114 188 124 76 0.874430954 
-1.63530719 -0.112691484 -0.987711966 0.0257406253 163 55 25 0.648592532 
-0.0199713744 -0.117066272 0.598568857 0.0267269649 207 166 112 0.410099715 
-2.88314152 0.346724123 -2.2079041 0.0251905248 181 132 95 0.832045019 
0.234646454 0.0929577202 0.206764683 0.0252078213 141 77 43 0.4690063 
-0.0186989829 -0.26408577 0.313593447 0.0273837969 179 114 69 0.452944934 
0.0970467255 0.403337836 0.00702761952 0.0254896134 180 140 93 0.499036193 
-1.01626039 0.016170783 0.341913432 0.0255082399 189 129 84 0.448687017 
-1.24650884 0.02944736 -0.389772981 0.0254003536 145 91 56 0.558694065 
0.141046509 -0.0816663876 -1.5946939 0.0268507041 115 77 46 0.73985064 
-2.92298341 0.392287284 -2.15789127 0.0259067249 164 56 26 0.824525774 
0.192641541 -0.162100583 -1.80988634 0.0256804917 170 115 72 0.77220422 
-0.22326082 0.409490973 -0.11419595 0.0271828249 157 99 60 0.517261863 
2.41518569 0.262947112 0.371685982 0.0252521783 160 98 57 0.444210798 
-1.18264413 0.0702762902 -0.375346243 0.0260968208 169 93 58 0.556525052 
0.138737381 0.293545157 1.81660187 0.0262781456 168 124 79 0.22697176 
-0.929702699 0.218622074 -0.276776195 0.0262258183 156 87 54 0.54170531 
0.057998471 0.364112407 2.46885777 0.0247092098 164 100 66 0.128906876 
-1.70050204 -0.0708511919 -1.40483594 0.0264838189 195 123 70 0.711305976 
0.232626051 0.0460922308 0.307258606 0.0256709419 192 127 76 0.453897327 
1.79160976 0.226801127 -0.0301591121 0.0260199718 142 49 23 0.504627168 
-0.0892643183 0.438905329 0.503790557 0.0250386614 156 99 60 0.424349338 
