ply
format ascii 1.0
comment created by gply, a Houdini tool.
comment converted from .[b]geo
comment for more information about Houdini, try:
comment www.sidefx.com
element vertex 639
property float x
property float y
property float z
property float depth
property uchar red
property uchar green
property uchar blue
property float length
element face 0
property list uchar int vertex_indices
end_header
1.67644382 0.203993648 0.0132325375 0.000757640402 105 23 7 0.501896679 
1.75570107 0.280446023 -0.0637606308 0.00029356897 116 59 24 0.490320981 
1.66261351 0.271338701 -0.0729494691 0.00057421776 100 24 8 0.488939464 
0.293181717 0.255035251 0.823307097 0.000789648329 104 41 13 0.623689115 
1.57794738 0.207303628 -0.0638350919 0.000166732469 60 6 1 0.490309745 
-0.827042937 0.236595556 -0.201880381 0.000727188599 144 77 34 0.46955502 
0.518872976 0.217793554 0.0797262713 0.000232264516 105 39 17 0.511893809 
0.525310814 0.218020648 0.0551979691 0.000638342462 83 21 5 0.508206069 
0.25408411 0.249183521 1.45932412 0.000846913434 111 48 17 0.719312489 
0.772778034 0.257981718 0.141935959 0.000789574464 83 10 2 0.52124691 
1.76280034 0.261099815 -0.0566912666 0.000738644856 89 35 13 0.491383851 
0.940398872 0.0254446603 0.0419618636 0.000914310222 85 13 3 0.506216049 
0.659798443 0.239622489 0.195505708 0.000562175177 101 22 6 0.529300928 
1.55709291 0.171834454 -0.0607846528 0.00103630184 89 17 5 0.490768403 
2.01871419 0.252977848 0.163087711 0.00049265055 105 33 10 0.524426937 
0.0719754621 0.141995952 -2.30982232 0.000888823823 164 83 27 0.152631834 
-2.51638269 -0.0636431649 1.45705235 0.000699167314 65 8 2 0.718970954 
1.38923669 0.259646297 0.0585001111 0.00101106125 116 53 18 0.508702517 
-0.663861036 0.251993388 0.416039944 0.000612835749 83 32 11 0.562457621 
1.65066516 0.336405873 0.0323772654 0.000755099754 95 38 13 0.504775047 
0.853100181 0.226452574 0.0082039237 0.000271583413 93 21 7 0.501140654 
0.380556673 0.277489722 0.235851526 0.00023337407 86 26 7 0.535366833 
-2.51517987 0.216315195 -1.81164122 0.000707191008 154 69 24 0.227531984 
-0.0587645769 0.149159655 0.711194575 0.000671301619 118 60 23 0.606833339 
1.75065136 0.159215644 -0.0393430293 0.000563028851 98 68 30 0.49399206 
-0.145057574 0.266919166 -3.00845408 0.000585353118 44 22 8 0.0475944951 
-2.77728152 0.226976693 1.73184788 0.000825666066 104 43 17 0.760285676 
0.356658757 0.233567238 0.154995024 0.000615105848 94 58 24 0.523210287 
0.085044004 0.34008351 0.831376016 0.000754997716 92 20 7 0.624902248 
-1.76733565 -0.338198632 0.925541043 0.000798666559 101 18 5 0.639059722 
-0.535456181 0.215077832 0.638583183 0.000931957038 116 53 20 0.59591639 
-0.658181608 0.31591934 -0.0294087976 0.000827276497 136 76 37 0.495485693 
-0.125299945 0.362449706 -0.142082974 0.000886941387 81 36 13 0.478545427 
-2.00055599 0.0880422071 -1.58465195 0.000864566478 115 61 26 0.261659175 
-0.76386553 0.363668054 0.256399095 0.000854598067 115 61 24 0.538456082 
-0.0721502826 0.340493888 -2.76703238 0.000750658801 96 19 6 0.083891578 
-2.39743233 0.19017607 -1.81826425 0.00102928339 170 80 28 0.226536229 
-0.100788325 0.217715949 -2.93960476 0.000333622767 169 86 35 0.0579457991 
2.71200275 0.162634254 0.659240186 0.000315134559 95 14 4 0.59902215 
-2.5233047 0.237542108 -1.77393723 0.000347577909 73 22 7 0.233200669 
0.0223965794 0.309916705 0.773429513 0.000876622216 97 40 15 0.616190135 
-0.145921722 0.249603853 -2.95149636 0.000838417443 87 17 5 0.056157928 
1.67754626 0.166475043 -0.0417547971 0.000958884251 86 17 5 0.493629485 
1.75854671 0.222562075 0.0499189384 0.000680713682 79 15 5 0.507412374 
3.12386751 0.228630602 0.927234173 0.000456725538 161 98 43 0.639314294 
0.196273223 0.000663434388 -1.08754992 0.000692414586 94 26 6 0.336397082 
-0.718167067 0.144234627 -0.240322083 0.000931305578 80 34 12 0.463775426 
-0.120206602 0.321779966 -0.176107615 0.000639152713 105 44 16 0.473429888 
-2.23508072 0.142138436 -1.77105272 0.000674639363 98 17 5 0.233634353 
-0.0782018825 0.260603309 -2.5496726 0.000791183789 188 96 29 0.116571009 
-2.42733645 0.15433003 -1.75006449 0.000775502995 143 56 18 0.236789867 
0.299434066 0.231908828 0.150093287 0.000574650359 105 44 16 0.522473335 
1.70192051 0.206028968 0.00309526804 0.000961899292 92 20 6 0.500372529 
-0.176251292 0.410183668 -0.0989282951 0.000860342814 100 47 18 0.485033602 
-0.241727948 0.424204051 -0.0877868682 0.000781601295 126 69 34 0.486708671 
-0.136276826 0.226837352 -3.13983893 0.000450932159 50 15 5 0.027841147 
0.566498756 0.225993738 0.0472082011 0.000810806639 105 44 16 0.507004857 
0.826527119 0.249499306 0.106865168 0.000926370209 92 12 3 0.515974104 
0.0321281813 0.12756747 -2.47603011 0.000811943493 133 64 31 0.127642959 
-0.0588527732 0.230794072 -2.91175914 0.000587124552 87 12 3 0.0621323101 
1.85855877 0.248812094 0.0692854002 0.00102271792 102 30 11 0.510324061 
-0.0622818358 0.336473912 -2.73663259 0.000270091376 100 10 2 0.0884620994 
0.184276953 0.320331305 0.899466932 0.00101182517 95 18 6 0.635139585 
0.0537923314 0.161623955 -2.29998016 0.00089053018 125 46 13 0.154111579 
-0.927888811 0.249877408 -0.254981726 0.000882207474 68 16 5 0.461571395 
-2.95201945 0.331764698 -2.23245096 0.000664655294 124 56 21 0.164264411 
-0.0579724386 0.237169415 -2.88476253 0.000681834703 104 16 4 0.0661911741 
-0.210562393 0.367911845 0.609117687 0.000508533616 117 42 13 0.591486335 
-0.154170603 0.220523179 -3.08927441 0.000338477199 88 34 10 0.0354433842 
0.101788551 0.114863634 -2.29948997 0.000782234711 111 44 14 0.15418528 
0.424723119 0.245163754 0.0234027412 0.000747760234 97 34 11 0.503425717 
0.390634179 0.303194821 0.243218854 0.000637604971 81 9 2 0.536474466 
-0.0695468187 0.10865014 -0.634592056 0.000896146463 93 11 2 0.404498041 
-0.0457392 0.200504929 -2.621315 0.000719076139 91 17 5 0.105799779 
1.69298756 0.214622602 0.0290008988 0.00101572939 82 36 13 0.504267395 
1.66172206 0.224005133 -0.0603111163 0.00103094825 98 21 6 0.490839601 
-2.24672556 0.132209435 -1.65395558 0.000694273156 114 75 33 0.251239568 
0.477694094 0.287965447 0.225331992 0.000397763361 128 55 19 0.533785224 
0.238299817 0.264048904 1.48092973 0.000372132257 136 55 18 0.722560883 
1.85165942 0.212772474 -0.0295581017 0.000958394783 121 41 15 0.495463192 
-0.800712824 0.0603019372 0.544486165 0.000804159557 99 40 14 0.581769168 
-2.02484107 0.105570033 -1.62469554 0.000574663281 101 50 20 0.255638748 
0.300951689 0.390759856 1.52708149 0.00101787259 96 14 4 0.729499638 
-2.76086998 0.193772942 1.64677513 0.000801321177 86 22 5 0.747495294 
0.54450196 0.227590799 0.0458407775 0.00103605911 93 34 11 0.506799221 
0.285442114 0.265183002 1.60829055 0.000938473037 102 31 10 0.741709232 
1.89497638 0.28341648 0.0731854588 0.000735667069 92 13 3 0.510910451 
0.536668122 0.244009599 0.216313779 0.000831716869 98 19 6 0.532429397 
0.306729913 0.278567523 0.844147325 0.000827205658 84 16 4 0.626822352 
-2.6744678 0.403445542 -1.98694062 0.000661353231 106 40 16 0.201176196 
-1.00708127 0.143960536 0.501350105 0.000666301872 130 54 18 0.575283825 
0.459739029 0.09733814 0.257499993 0.000777020294 95 17 6 0.538621604 
0.965133548 0.281005293 0.111098632 0.000800069422 171 93 35 0.516610563 
0.142934084 0.235819206 1.28608978 0.000697165728 105 24 7 0.693267226 
1.05843782 0.281015694 0.0818971097 0.000797983492 83 25 8 0.512220204 
0.0472283848 0.200842246 -0.6297068 0.000907187001 94 10 2 0.405232519 
-0.340187192 0.491968691 0.288086653 0.00103049527 98 39 13 0.543220222 
0.737854123 0.238679543 0.112505175 0.000965911953 106 14 3 0.51682204 
1.54585111 0.292322814 -0.0452169925 0.000622244319 141 71 27 0.493108928 
1.83439612 0.252642751 0.0762957186 0.00085390103 94 32 13 0.51137805 
-0.057038188 0.20661667 -2.57569981 0.00033554883 120 60 24 0.112657897 
-0.123489216 0.169886038 -3.13802242 0.000711738248 123 72 39 0.0281142537 
-0.0999736637 0.293423384 -0.375724435 0.000898088212 31 14 5 0.443418086 
-2.91454458 0.208695412 1.84326518 0.000476607413 86 9 2 0.777036965 
-2.42429614 0.264349341 -1.74667549 0.000350231625 96 55 22 0.237299398 
-3.00785875 0.270069212 1.83012056 0.000566801755 110 27 8 0.775060713 
-0.85988611 0.0882391483 0.539294064 0.000523757597 55 17 4 0.580988526 
0.300750226 0.264895141 1.70477939 0.000887431263 81 12 3 0.756216049 
-0.375012666 0.391029447 0.600802779 0.000765627134 110 56 22 0.590236247 
-0.00985130016 0.225808799 -2.39988112 0.000846024719 159 82 23 0.139091745 
0.0960813686 0.268351823 0.972362518 0.000912027957 73 17 5 0.64609921 
-2.91446018 0.261687517 1.87086976 0.000813067018 92 19 6 0.781187236 
1.33691251 0.244015455 -0.0679629669 0.000465283112 89 13 4 0.489689171 
-2.71732998 0.160972759 1.59704959 0.000546304509 90 48 19 0.740019202 
1.8777746 0.323782474 0.0223562252 0.000581366243 96 23 8 0.503268421 
-0.93604207 0.21925506 -0.238477916 0.000926674111 41 21 8 0.464052707 
0.279354542 0.27664119 1.70365882 0.000774699613 95 17 5 0.756047606 
-1.14751303 0.000687597028 -0.310957134 0.000898981234 82 16 5 0.453155637 
-2.84670424 0.22016561 1.82331657 0.00065068173 101 29 10 0.774037778 
-0.133372828 0.283462405 -2.98617482 0.000846065232 43 25 10 0.0509441197 
-2.88953066 0.21435757 1.83781993 0.000874552585 111 15 4 0.776218355 
-0.0553530678 0.209009245 -2.60166192 0.00044800766 103 56 23 0.10875456 
-0.725733817 0.227586284 0.372927338 0.000706047984 119 57 20 0.555975795 
-0.0300402809 0.251293421 -2.95723367 0.000919570215 79 15 5 0.0552953407 
1.61396134 0.197416857 0.0329146236 0.000749381725 93 15 4 0.504855812 
1.2358849 0.231389999 -0.0675325766 0.000849315431 89 42 16 0.489753872 
1.82916987 0.291900069 -0.0402843021 0.000823290204 104 65 27 0.493850559 
1.70116782 0.272233814 0.0344741791 0.000903039356 132 57 20 0.505090296 
-2.72780871 0.377205342 -1.9147929 0.000735759444 145 81 39 0.212023407 
0.507053196 0.234989449 0.149195164 0.000596746278 70 26 9 0.522338271 
0.455495149 0.177920088 0.242471293 0.000681320205 109 42 17 0.536362052 
-2.14476037 0.110515244 -1.71843922 0.00068316306 109 57 23 0.241544634 
0.153667584 0.269810706 1.67309964 0.000871524389 97 18 5 0.751453042 
-0.121375099 0.301108092 -2.96570301 0.000400111487 45 23 9 0.0540219992 
0.422378391 0.109162107 0.283698052 0.000382996514 89 15 4 0.542560399 
-0.637558997 0.109046221 -0.221275583 0.000826309435 118 53 25 0.466639042 
-0.02246725 0.308652014 -2.64995575 0.000680689292 111 30 6 0.101493724 
2.03230476 0.269750208 0.0203120261 0.000816319953 121 20 5 0.50296104 
1.70782959 0.269007802 -0.0542913377 0.000798666151 118 38 14 0.491744667 
1.1936959 0.111537062 0.138013646 0.000846752897 81 17 6 0.520657182 
-0.700234115 0.242764577 -0.0939211398 0.000776050612 130 62 23 0.485786408 
0.846083522 0.22504279 0.159921795 0.000875403639 115 22 6 0.523950994 
-0.0556430221 0.214459077 -2.64238381 0.000863774214 91 17 5 0.102632143 
-2.44874716 0.251582146 -1.74302304 0.000710812048 133 69 26 0.237848535 
1.59517598 0.297718614 -0.0385539047 0.000934853742 123 67 32 0.494110703 
2.79922557 0.28107509 0.605621636 0.000798944035 69 32 12 0.590960741 
0.849180996 0.246599585 0.0984141603 0.000583060726 94 14 4 0.514703512 
0.0730488747 0.290341496 0.848138034 0.000750093779 90 23 7 0.627422392 
0.297770143 0.368652225 1.35194552 0.00103288318 96 38 12 0.703168452 
1.6964401 0.241429269 -0.0559847429 0.00097281934 89 20 7 0.491490036 
0.113122679 0.224417388 1.23007476 0.000162930184 125 25 7 0.684845507 
-0.0794129372 0.277807832 0.645524263 0.000856710481 114 69 29 0.596959949 
-0.0694105402 0.205678329 -3.00941968 0.000945462729 96 27 9 0.0474493206 
-0.109392725 0.143679827 -3.23773599 0.000809344754 66 30 11 0.0131225968 
-2.82443666 0.209414274 1.80455053 0.000695636205 101 29 10 0.771216393 
1.86988032 0.232001111 0.0553048067 0.000943987805 186 99 45 0.508222103 
1.35994124 0.262022346 0.0670234486 0.00101975037 122 20 6 0.509984016 
-0.195643574 0.498218387 0.207067013 0.00109085627 152 89 46 0.531039119 
-0.115546294 0.28081435 -0.355570287 0.000976456387 52 24 9 0.446448177 
0.55249095 0.229677469 0.134925663 0.000946843298 88 28 7 0.520192862 
0.204199225 0.249037445 1.37777805 0.000652621209 134 76 31 0.70705229 
0.0897136107 0.310191005 0.897093296 0.000569314288 148 74 29 0.634782672 
1.06512392 0.218478933 -0.0631965473 0.00082159997 107 25 9 0.490405768 
-0.127688438 0.258454174 -2.87285185 0.000674542738 75 12 4 0.0679819137 
-0.0799135268 0.193312183 -3.03294921 0.000590666605 78 16 2 0.0439117178 
-0.187633365 0.424980432 -0.0756554231 0.000759817194 52 20 7 0.488532603 
1.17595458 0.281696498 0.102260411 0.00105811958 71 33 12 0.515281737 
-2.25482678 0.126868039 -1.77270222 0.000777396548 86 31 10 0.233386353 
0.466436893 0.117973432 0.279943287 0.000539693516 103 19 5 0.541995883 
1.72513139 0.246611074 0.0599623136 0.000699767144 95 32 10 0.508922338 
-0.0726093575 0.242555246 -2.78467345 0.000726641738 74 31 11 0.0812392905 
-0.695210814 0.270521998 -0.0178948659 0.000217740308 133 77 32 0.497216731 
-2.89261055 0.260091633 1.8541131 0.000643877836 58 3 1 0.778667927 
-0.0937053189 0.183643594 -3.05891275 0.00106125313 123 66 26 0.0400081724 
0.285895854 0.345347106 1.23557031 0.000465465593 71 44 19 0.685671747 
-2.35286379 0.163876384 -1.79715836 0.00055377034 100 33 10 0.229709432 
-0.0996943116 0.330717593 -2.88618541 0.000846330251 53 16 5 0.0659772456 
0.333293468 0.263725549 1.58483374 0.00103647064 101 31 9 0.738182545 
0.43333286 0.110148817 0.243145064 0.000228494173 95 17 6 0.53646338 
-2.41692877 0.22929953 -1.82424939 0.000754251261 103 38 13 0.225636378 
-2.71793938 0.46069023 -1.94910526 0.000816598127 92 22 8 0.20686464 
-0.0606629848 0.199925497 -2.54627109 0.000763451972 176 118 62 0.117082424 
-0.00614353782 0.297042072 -2.6936357 0.000475434179 103 12 2 0.0949265584 
0.123738632 0.292454779 1.45676672 0.000547757489 100 17 5 0.718927979 
-0.0910425186 0.329628021 -2.86028838 0.000651101116 66 6 1 0.0698707923 
-0.722874641 0.0813043043 0.513096213 0.000594708137 98 19 7 0.577049792 
-0.422793359 0.400516093 0.562205315 0.000478252507 115 60 23 0.584433198 
0.167396873 0.275000781 1.64193606 0.000641928578 122 22 6 0.746767759 
1.13592267 0.299569666 0.0788006857 0.000737134484 84 36 14 0.511754632 
0.0522365905 -0.177818269 -1.71649349 0.000532567792 112 40 12 0.241837174 
0.150546581 0.274478108 1.60919607 0.000908793183 118 34 11 0.741845369 
0.368305892 0.113393798 0.266459018 0.000949679234 91 17 5 0.53996855 
-0.137116984 0.295005143 -2.91382027 0.000798583613 45 17 6 0.0618224256 
1.6928612 0.291289628 -0.0578836687 0.000854110171 81 17 5 0.49120453 
1.89843416 0.221282378 0.126500249 0.000789072423 144 90 35 0.518926144 
0.924016297 0.234995872 0.147042945 0.000570357719 135 39 9 0.522014678 
-0.134598836 0.295584083 -2.88557196 0.000723287871 62 17 5 0.0660694763 
0.268947691 -0.169568345 -1.07232559 0.000733973808 96 19 6 0.338686019 
-0.126308054 0.208070531 -3.01611352 0.000870176242 140 64 26 0.0464429185 
1.82036865 0.323383659 0.0235560704 0.000387260545 92 23 8 0.503448784 
2.53247786 0.248985842 0.531705976 0.000879704079 96 32 12 0.579847693 
-0.0703233182 0.197632104 -2.52143979 0.000543682021 114 49 18 0.120815739 
2.63456535 0.281102687 0.573556602 0.000827301992 86 11 3 0.586139858 
1.75835907 0.198179871 -0.00477601867 0.000591393153 111 30 10 0.499189138 
-0.699998677 0.0939102322 0.557051003 0.000688961125 99 23 7 0.583658278 
0.0308350865 0.285326809 0.781842411 0.000782155083 117 54 21 0.617455006 
-0.0400465615 0.281433284 -2.52839422 0.000649826834 143 58 18 0.119770162 
-2.44062138 0.149294347 -1.77187538 0.000824620714 112 43 14 0.233510658 
0.648720503 0.201102808 0.20320791 0.000960166508 158 71 34 0.530458927 
1.58523595 0.197113752 0.0308695287 0.000926854205 102 32 14 0.504548311 
1.74521399 0.251039773 0.0559119768 0.000935717253 140 59 22 0.508313417 
0.156958148 0.381539464 1.31005263 0.000826684292 136 55 18 0.696870029 
1.07792592 0.249482349 -0.0478875749 0.0010089929 136 81 39 0.492707431 
0.138353243 -0.118327275 -1.47473359 0.000690543151 29 6 1 0.278185099 
-0.0472046137 0.332861811 0.635436118 0.000601988984 150 73 27 0.595443249 
-0.0972266719 0.149980232 -3.26460838 0.000696437142 153 93 39 0.00908240676 
-1.5251652 -0.0829002783 -0.665622115 0.000891355914 113 46 21 0.399832755 
1.25628722 0.25540331 -0.0758260712 0.000721011602 106 21 6 0.488506943 
1.75943291 0.269840091 0.0452654921 0.000999126234 86 32 11 0.506712735 
0.153936878 0.288732588 0.656790555 0.000704312813 115 55 30 0.598653793 
-0.0773101822 0.302060723 -2.63755751 0.000773464039 184 100 29 0.103357762 
-2.4736073 0.256335109 -1.75553954 0.0006189993 79 37 14 0.235966712 
-0.0828596875 0.229161739 -2.57668114 0.000799847592 108 47 17 0.112510353 
-0.136508569 0.160729662 -3.19286776 0.000313937082 104 44 16 0.0198684111 
0.456781268 0.226743594 0.0861136019 0.000429086038 160 77 28 0.512854159 
-0.0531347431 0.30678609 -2.92524552 0.000864864094 53 29 12 0.0601046681 
0.0144213652 0.270664901 -2.55557227 0.00078382052 146 76 27 0.115684018 
1.26469564 0.229252279 -0.0790586993 0.000461741118 113 51 19 0.488020957 
-0.0262885746 0.273791522 -2.86113071 0.000581966247 97 10 2 0.0697441548 
1.30599153 0.252807349 -0.0701427832 0.000785056909 123 63 27 0.489361435 
-0.134185806 0.230926678 -2.97140598 0.000234084626 80 15 4 0.0531645715 
0.887088954 0.273941696 0.11948768 0.000798911089 97 34 11 0.517871857 
0.0994398668 0.317148954 0.957012475 0.000619443425 74 26 9 0.643791378 
0.010905602 0.230469048 -0.52657491 0.000558337546 102 15 3 0.420738131 
1.63205338 0.165945604 -0.0401421152 0.000629456597 111 24 8 0.493871957 
-3.02989459 0.273684829 1.84289575 0.000832394464 170 93 47 0.776981413 
1.33326912 0.314928651 0.0302946027 0.000708329724 102 14 3 0.504461884 
-2.52397156 0.316027999 -1.79428661 0.000899416395 76 8 2 0.230141193 
-0.0670152754 0.302279025 -0.160104901 0.000809203892 126 63 24 0.47583586 
-0.0776155293 0.297192812 -2.99328446 0.000450423249 112 44 19 0.0498752035 
-0.0827683657 0.291294277 -0.284058481 0.000861966342 21 7 2 0.457199782 
-0.148189753 0.255173296 -2.9824512 0.00103470439 73 12 3 0.0515039563 
0.422099829 0.194106489 0.0896518081 0.000773714914 80 33 12 0.513386071 
0.949327171 0.257212639 0.080677703 0.000493288157 92 36 12 0.51203686 
0.266117036 0.280034781 1.68014622 0.000902319967 109 20 6 0.752512515 
1.87548614 0.296452433 0.0612779856 0.000559753389 96 17 5 0.509120166 
-0.124893039 0.182332084 -3.24372077 0.000574732141 101 21 7 0.0122228013 
0.109381013 0.278993547 1.22430742 0.000627221016 93 49 19 0.683978438 
-0.120058641 0.199233919 -3.21225667 0.000919901067 98 20 6 0.0169533417 
-2.21169686 0.162016362 -1.70433807 0.000807967794 119 70 28 0.243664712 
0.29400748 0.268129289 1.67813814 0.000692016329 88 14 4 0.752210617 
-2.39027143 0.214330077 -1.82191801 0.000633966585 154 69 24 0.225986898 
1.65622771 0.318331718 -0.00802652072 0.000835250539 183 128 62 0.49870041 
-0.0759419501 0.286830664 -3.02153826 0.000898939732 96 32 11 0.0456273258 
-0.139887616 0.257052004 -3.05480742 0.000848970143 70 27 8 0.0406253971 
-2.43849421 0.176416397 -1.73615396 0.000637849094 94 35 12 0.238881275 
-0.0980150551 0.291865915 -2.65810966 0.000849740754 172 82 21 0.100267805 
-0.0429887176 0.251751423 -2.78248477 0.000900892657 70 29 10 0.0815683529 
2.01353383 0.23228845 0.0197694022 0.000565360766 110 45 15 0.5028795 
-0.143839568 0.1448998 -3.26686454 0.000941392849 41 20 8 0.00874320045 
-0.147046521 0.266224146 -0.250974506 0.000511857856 116 54 20 0.462173879 
0.440648586 0.119831376 0.305383593 0.000838728913 115 50 20 0.545820773 
0.292369664 0.263900101 1.65043199 0.000411703484 97 16 5 0.748045087 
-0.735713005 0.250960052 0.0116861826 0.000785148761 129 74 30 0.501664162 
-0.0415935367 0.323323101 -2.66254282 0.000199288304 99 17 3 0.0996012911 
-0.108631037 0.179269284 -3.08852887 0.00108017796 128 82 35 0.0355554707 
-0.0643437728 0.221734688 -2.62178588 0.000848396681 86 44 18 0.105728984 
-0.12605533 0.230354577 -2.94194055 0.00088463194 74 11 3 0.0575946197 
-0.164782658 0.346352279 -0.175050676 0.00078640983 161 113 60 0.473588794 
-0.0937733203 0.312754631 -0.168867245 0.000746559177 105 44 16 0.474518448 
1.41103375 0.263976783 -0.0666218549 0.000677698699 71 27 9 0.489890784 
0.31204015 0.184195444 0.255118012 0.000499471964 84 39 15 0.53826344 
0.19029063 0.332364827 1.62944138 0.000789034413 128 64 25 0.74488914 
-0.066462636 0.33686918 -2.82054305 0.000381426566 84 8 1 0.0758463964 
0.176493481 0.248620585 0.65282768 0.000411581539 153 92 47 0.598058045 
0.273338914 0.267220289 0.838178992 0.000401504425 167 84 40 0.625925064 
0.218605429 0.320002973 2.22450233 0.0010913068 123 31 14 0.834354997 
-0.0381141119 0.283682317 -2.94822264 0.000797307759 34 14 5 0.0566501245 
0.381214797 0.246919662 0.233297899 0.00068571337 97 33 11 0.53498286 
-2.27158666 0.12729755 -1.6501627 0.000512498373 108 64 27 0.251809835 
0.733071446 0.245353818 0.188774168 0.000616218313 69 7 2 0.528288841 
-2.88964462 0.184335977 1.76832008 0.000862381887 113 19 5 0.765769184 
0.986389458 0.244946584 0.135391071 0.00106922409 114 48 24 0.520262837 
-0.0413443707 0.151871532 -2.46620607 0.000506741344 99 52 20 0.129119977 
-0.13891609 0.190545902 -3.20168519 0.000672383816 32 13 4 0.0185427349 
-2.55513406 0.223746538 -1.85238922 0.00100053742 87 20 6 0.221405625 
0.216727689 0.398258567 2.00890446 0.000375298318 144 73 34 0.801940382 
-2.59863591 0.305374384 -1.82057667 0.000730136118 171 88 39 0.226188555 
-2.88394809 0.26986441 1.76986659 0.000834331848 110 13 3 0.766001701 
0.0151584996 0.270582795 -2.59766436 0.00034666108 97 38 10 0.109355584 
0.342424273 0.346668214 1.53769863 0.000922022562 103 28 8 0.73109591 
0.196997106 -0.0504517183 -1.17164326 0.000956483127 96 15 4 0.323753893 
-2.86012149 0.178175703 1.72231615 0.000329465722 139 74 29 0.758852661 
0.977217317 0.237365559 -0.0363905542 0.000429307809 92 42 16 0.494435966 
-0.156191915 0.364522785 -0.152830824 0.00075129274 128 71 29 0.476929516 
0.305262625 0.300803006 1.16212547 0.000627287664 79 10 2 0.674629569 
0.836520493 0.251654357 0.160557836 0.000537548505 94 15 3 0.5240466 
1.62833345 0.193548888 0.00945115928 0.000296311133 82 13 3 0.50132817 
1.64185452 0.147221193 -0.0482786819 0.000596009137 106 50 18 0.492648661 
-0.0189957563 0.122251548 -2.44338799 0.000853572739 120 59 22 0.132550612 
-0.794430912 0.144403115 0.380748838 0.000755769433 119 57 20 0.557151735 
0.96544528 0.255023688 0.134809911 0.00089364819 158 83 46 0.520175517 
-0.0206770767 0.275018185 -2.83214188 0.00083940872 98 26 9 0.0741025433 
1.23590207 0.256561399 -0.0536493249 0.000834128179 77 11 3 0.491841167 
0.344358265 0.235173509 0.0471950732 0.000587773684 91 49 19 0.507002831 
0.129383802 0.243293554 1.35769832 0.00103128841 170 106 44 0.704033375 
0.318188816 0.253852129 1.68748474 0.000824145332 106 23 7 0.753615856 
0.4025895 0.219222084 0.0519194379 0.000814474595 91 30 10 0.507713139 
-0.0859911069 0.266067833 -2.57097316 0.00055811007 117 40 11 0.113368534 
-2.61054659 0.313730896 -1.8788774 0.000511326012 100 29 9 0.217423201 
-0.106408544 0.303324521 -2.71279001 0.000768783095 92 9 2 0.0920467675 
-2.98555899 0.268480271 1.81692481 0.000456675451 91 14 4 0.773076832 
0.311125785 0.253001064 1.65770268 0.000549433229 106 23 7 0.749138176 
-0.0907966122 0.254319072 -2.71735716 0.000911852112 119 43 14 0.0913601071 
-0.0419461504 0.25949055 -3.00884295 0.00042595237 44 19 7 0.0475360304 
-0.0501725599 0.296765924 -2.56709313 0.000617587822 103 32 8 0.113951884 
1.57067049 0.29880026 -0.049002476 0.000649397261 119 63 25 0.492539823 
-0.146484047 0.273567557 -2.93100119 0.00102543528 92 15 4 0.0592393205 
1.58641732 0.193744719 0.0910217911 0.000431807886 86 17 5 0.513592064 
0.896501124 0.260662884 0.0995815024 0.000882396998 101 25 7 0.514878988 
0.178494394 0.273813576 1.60702538 0.000967604108 107 31 12 0.741518974 
-0.603328407 0.3800295 -0.0226929206 0.000796071836 79 26 8 0.496495366 
-0.0158819966 0.332356989 0.640136242 0.000311034266 138 70 27 0.596149921 
-0.350389451 0.358017594 -0.25119099 0.000735901645 126 62 24 0.462141335 
1.03734064 0.279622793 0.089786835 0.000623400847 103 53 20 0.513406396 
-0.0370793529 0.247235447 -2.90713382 0.000756523514 96 22 8 0.0628277138 
-0.39535442 0.327094316 0.673386812 0.00064344547 120 73 30 0.601149023 
-0.674612463 0.134105697 -0.23090516 0.000313239667 137 58 19 0.465191275 
0.327999413 0.195321396 0.0987629071 0.000501092698 112 51 19 0.514755964 
1.53682244 0.342932314 0.0528617054 0.000680180732 86 19 5 0.507854819 
-2.49625683 0.277050197 -1.85951328 0.000567054492 115 43 15 0.220334545 
-2.48903942 0.322707087 -1.81918776 0.000860753004 28 12 5 0.22639738 
-0.0499736741 0.227941111 -3.06415653 0.000830364181 69 31 10 0.0392197855 
0.874579191 0.223344535 0.153595105 0.000664406922 112 35 9 0.522999823 
1.89929736 0.323617011 0.034790121 0.000451018743 92 17 5 0.505137801 
2.01599407 0.328432113 0.126119107 0.000864927599 83 39 15 0.518868864 
0.204795003 0.317817718 0.259917378 0.000556997838 124 77 32 0.538985014 
1.01751924 0.286428094 0.0966312215 0.000635790522 99 48 19 0.51443547 
-0.130544379 0.290658832 0.631342292 0.000307711889 139 78 34 0.594827771 
1.17692578 0.292029113 0.0510208905 0.000786299875 90 25 9 0.507578015 
1.95380259 0.332552254 0.0635460988 0.000648061163 100 14 3 0.509461164 
-2.53417397 0.309492588 -1.86732984 0.000705599086 118 26 9 0.21915935 
-0.701197684 0.0885091275 -0.211392507 0.000621941639 117 51 18 0.468124926 
-0.0865250304 0.235020146 -2.84021211 0.000643529405 133 59 26 0.0728892088 
-2.37400627 0.19484216 -1.82409835 0.000598807004 155 71 25 0.225659087 
-2.73578596 0.45832774 -1.96145928 0.00088714459 100 38 15 0.205007255 
-0.755110443 0.139817104 0.481817067 0.000745356549 101 42 15 0.572347045 
-2.69307685 0.354862541 -1.89436662 0.000667837157 137 57 20 0.215094447 
-2.31197548 0.208983421 -1.700634 0.000310260686 192 130 79 0.244221598 
-0.11665339 0.232926354 -3.15327501 0.000508235185 112 34 10 0.0258210693 
-0.0658046231 0.29372564 -2.59267235 0.000787284283 150 67 22 0.110106118 
0.146873713 0.256140083 1.39709187 0.00101944502 122 65 26 0.70995605 
1.11256337 0.309169143 0.0895809233 0.000900670013 89 53 22 0.513375461 
0.271291584 0.269250929 1.59121931 0.000922375068 97 56 23 0.739142597 
0.0385515913 0.314959854 0.781704307 0.000888242561 144 97 42 0.617434263 
1.61292875 0.309215218 0.00383763574 0.000878495863 59 22 7 0.500484169 
1.35352337 0.291416913 0.0622543432 0.000934581039 108 26 11 0.509266973 
1.65858877 0.238106221 0.0496933833 0.000931673974 104 19 5 0.507378459 
0.327581286 0.230326146 0.237901002 0.000444337988 106 23 7 0.53567493 
-0.106208071 0.297056109 -0.270158172 0.000627426547 110 45 21 0.45928964 
-0.737836659 0.244956329 -0.12731497 0.000700743345 89 30 8 0.48076573 
0.254623562 0.209812596 1.34980536 0.000757424918 83 27 9 0.702846646 
-0.0873853266 0.17680493 -3.13399768 0.000840454653 129 54 22 0.0287193637 
-0.093346864 0.225350112 -3.16108537 0.000827440817 169 92 36 0.0246468037 
-2.74781513 0.13305068 1.58256841 0.000757620321 157 73 26 0.737841904 
1.13490534 0.28580609 0.0521254763 0.000547441479 85 32 12 0.507744133 
-0.120788872 0.311868906 -2.8201406 0.000714466674 102 11 2 0.0759069026 
-0.657989144 0.156900227 -0.170844153 0.000717183924 87 33 11 0.474221259 
2.76796556 0.280292004 0.599340498 0.00101964246 88 47 19 0.590016365 
-0.091734536 0.25074333 -2.6372726 0.000640910235 90 40 15 0.103400595 
1.46234822 0.303150624 -0.011203777 0.000688050699 103 26 7 0.498222739 
2.00032425 0.310802072 0.0197782945 0.000645921158 100 15 4 0.502880812 
0.228732049 0.248988003 1.94222438 0.000611487834 131 68 33 0.791915238 
-0.0690818503 0.19491981 -3.13101435 0.000903106411 117 62 37 0.029167898 
0.136457682 0.30063206 1.38580716 0.000758837035 99 34 13 0.708259404 
-0.342729241 0.109009348 -0.32783249 0.000233724946 89 38 13 0.450618505 
2.21070862 0.314068228 0.219619885 0.000750381616 157 90 52 0.53292644 
1.69081295 0.304134279 -0.0281349346 0.000748341088 135 81 39 0.495677203 
-0.14595601 0.330285877 -0.18154183 0.000840109889 161 113 60 0.472612888 
0.164679512 0.318305999 1.57332695 0.000774494431 74 12 3 0.73645252 
-0.0469105653 0.166171983 -2.4886055 0.00085316028 90 44 17 0.125752285 
0.0378148109 0.207833841 -2.55388927 0.000834793667 126 65 37 0.115937047 
-0.0237006769 0.156789124 -2.53665733 0.000758315378 118 22 5 0.118527822 
-0.116299257 0.148241416 -3.21042204 0.00101039349 81 39 14 0.0172291733 
-0.0754266754 0.21694079 -2.56060481 0.000892377691 121 61 27 0.114927389 
0.137403354 0.0679646805 -0.885345995 0.000926246459 131 48 13 0.366797894 
-0.0372662544 0.140424997 -2.44276643 0.000569943222 93 40 15 0.132644057 
0.211056516 0.307726026 0.226624161 0.000407610321 81 50 21 0.533979535 
1.88918185 0.293975919 -0.0243902989 0.000680235098 102 13 3 0.496240199 
1.47399914 0.291782379 -0.0558546446 0.00102696812 115 41 14 0.491509616 
1.98629165 0.267974228 0.0067731021 0.00037989355 121 24 7 0.500925481 
-0.643923521 0.342455298 -0.0246205553 0.000798324705 124 61 26 0.496205568 
-0.0596903972 0.163061127 -2.46029568 0.000489260594 88 41 15 0.130008578 
1.80021381 0.255715013 -0.040760722 0.00102283189 107 39 18 0.493778944 
0.0229302607 0.258514792 -2.53363037 0.000855274149 152 81 28 0.118982919 
0.0835465044 0.301842988 0.687545717 0.000631129136 99 42 15 0.603277802 
0.00808032509 0.337276459 0.759504616 0.000900210231 164 115 48 0.614096642 
-2.56321359 0.296673387 -1.86328089 0.000297315069 179 98 50 0.219768092 
-0.0416303948 0.326160491 -2.7179625 0.000767343678 107 20 6 0.0912690908 
-0.0466433987 0.332372904 -2.76340914 0.000436766713 106 21 6 0.0844363198 
1.07490075 0.261676311 0.117848255 0.0010577417 104 57 23 0.517625332 
0.456142366 0.254112482 0.196733475 0.000877766404 118 34 8 0.529485524 
-2.25954795 0.14993678 -1.66559088 0.000331769057 76 34 13 0.249490246 
0.211084262 -0.139257073 -1.74550807 0.000821434602 130 52 14 0.237474918 
1.65268981 0.295503616 0.0316047594 0.000998600968 173 108 67 0.504658878 
0.268269926 0.272016615 0.781952918 0.00102714414 75 30 10 0.617471635 
0.31413123 0.234325722 0.120900348 0.00109433592 105 56 23 0.518084228 
-0.857077062 0.23071143 -0.166051209 0.00082173344 100 48 18 0.47494188 
-0.120640852 0.187831134 -3.06363463 0.000927495828 93 40 15 0.0392982513 
-0.415517509 0.304017007 0.689972878 0.000898272439 131 62 33 0.603642702 
1.52600241 0.337851614 0.0232029576 0.000887966598 105 44 16 0.503395677 
-0.0473216921 0.224780962 -3.00949812 0.000892996497 89 24 8 0.0474375263 
0.125440702 0.24662663 1.38079643 0.000626668276 116 63 25 0.70750612 
-0.0583625585 0.267585695 -3.0298872 0.00088484853 64 31 10 0.0443720855 
0.0643836483 0.137715623 -2.25595069 0.000755987654 120 48 14 0.160731286 
-0.0578081869 0.227279007 -3.09976435 0.000749423227 69 34 14 0.033866249 
-1.23343027 -0.111900873 0.714071035 0.000690781162 94 9 2 0.60726583 
-0.107144952 0.300430149 -2.9863565 0.000949266541 85 24 7 0.0509168059 
-0.102614492 0.250549287 -3.11422133 0.000581893255 43 15 5 0.03169268 
-0.131646216 0.287225872 -0.26661551 0.000717253366 101 44 14 0.459822327 
-0.883606851 0.286664844 0.194623396 0.000934559735 116 62 27 0.529168308 
-0.0325384289 0.320110828 0.631184042 0.000619873754 128 65 25 0.594803989 
-0.0788818523 0.186055422 -3.08136916 0.000955827942 107 32 8 0.0366319157 
0.27956295 0.253559142 1.53274274 0.000755302026 130 56 20 0.730350792 
1.28983295 0.345715582 0.0987037271 0.000537732441 86 19 6 0.514747024 
2.3553822 0.258772641 0.394629717 0.000906981411 137 58 21 0.559238672 
-2.65403652 0.334767252 -1.88733447 0.000487036683 123 47 15 0.216151714 
2.75493979 0.266807765 0.545002699 0.000832952501 136 68 30 0.581846833 
-0.103086434 0.132111996 -3.31421638 0.000432883739 83 54 29 0.00162398361 
-0.108234093 0.269241512 -2.70275307 0.00078906276 141 63 25 0.0935557932 
-0.376232356 0.429056138 0.529645681 0.000300081796 113 54 20 0.579537928 
0.00151968317 0.262106389 -2.66089272 0.000822233502 147 70 27 0.0998493806 
1.71699417 0.307872742 -0.0160597842 0.000479349605 118 59 25 0.497492641 
-0.14971225 0.248913929 -3.02826905 0.000269565615 80 38 13 0.0446153693 
0.284801543 0.25324136 1.55681133 0.000851503341 111 53 19 0.73396945 
0.148947075 0.306851804 1.67951703 0.000826996518 151 91 42 0.752417862 
0.232033297 0.40445444 1.4828366 0.000472175074 70 9 2 0.722847581 
0.292809308 0.16833128 0.11346475 0.00102586707 108 42 14 0.516966343 
0.0638883561 0.177906573 -2.39531827 0.000401405414 183 79 24 0.139777765 
-0.141357228 0.270444632 -2.89830399 0.000791325816 103 17 4 0.0641552508 
0.156206325 0.316018343 1.66097224 0.000870588934 134 68 27 0.749629736 
-0.128921449 0.206977889 -3.1889801 0.000688337896 45 20 7 0.0204529092 
-0.804904699 0.246175051 -0.182782769 0.000375936972 76 15 3 0.472426325 
-0.0402154885 0.270066887 -2.97704506 0.000819886336 52 34 15 0.0523167513 
-2.76386094 0.379514843 -1.96203649 0.000885425718 73 15 5 0.204920471 
0.259635091 0.229348719 1.41078866 0.000592522963 59 33 13 0.712015331 
-0.0360584259 0.255984008 -2.88185382 0.000857004779 109 30 11 0.0666284934 
-0.0463134535 0.241821423 -3.03472209 0.000412004068 102 33 10 0.0436451733 
-0.130962715 0.272939503 -3.03540969 0.000743288139 58 26 9 0.0435417928 
-0.63394177 0.326318264 -0.0438211039 0.000628947222 125 56 19 0.493318826 
-0.127312511 0.246836945 -2.89800644 0.000684992643 98 19 6 0.0641999915 
0.306021333 0.165564075 0.266246736 0.000611887081 101 52 21 0.539936662 
0.367848396 0.215059593 0.237687156 0.000404689752 132 65 25 0.535642803 
-0.560649574 0.327121109 -0.122110978 0.000686865649 102 36 12 0.481548131 
1.52184796 0.28067866 -0.0451166816 0.000861240842 103 51 15 0.493124038 
0.00426592445 0.28260082 -2.61801791 0.000736375048 122 58 16 0.106295489 
0.0288937949 0.235213503 -2.46590519 0.000413443922 138 60 19 0.129165217 
1.7667706 0.300868988 0.0371188968 0.000390627974 143 67 24 0.505487919 
-0.301490068 0.435658544 -0.069135502 0.000432384608 76 36 13 0.489512891 
1.2263273 0.302979201 0.0491718277 0.000867889263 89 14 4 0.507300079 
-0.0334704928 0.268561572 -2.48833561 0.00070740201 108 38 12 0.125792861 
-2.3712194 0.211214229 -1.71085775 0.000878103077 124 56 26 0.242684498 
-2.22406888 0.14974989 -1.75045967 0.00045314111 87 36 13 0.236730456 
-2.33644795 0.216716036 -1.77290714 0.000774570566 108 51 19 0.233355537 
-0.136610225 0.248616934 -2.92247844 0.000397951691 110 22 6 0.0605206937 
0.394924134 0.156932279 0.0998278856 0.000978274969 84 15 4 0.514916003 
0.288871169 0.348896742 1.13271332 0.00104828179 113 35 9 0.6702075 
-0.0844558403 0.309786707 -2.96825695 0.000576245424 103 41 20 0.0536380224 
-0.107664257 0.238136739 -2.88361073 0.000739058596 158 78 33 0.0663643479 
0.0365073122 0.25047341 -2.55601716 0.000825037889 162 87 30 0.115617126 
-0.156954929 0.307612777 0.626704097 0.000577924016 128 66 31 0.594130456 
0.350316226 0.398923814 1.74092853 0.000965649728 110 57 23 0.76165098 
1.37863338 0.285222858 0.0525829047 0.000622678432 124 52 18 0.507812917 
-0.0068853111 0.293458253 -2.59742975 0.000772379688 118 56 23 0.109390855 
0.637833178 0.166444778 0.018440105 0.000781144015 121 34 11 0.502679586 
-0.0158501882 0.302729756 -2.62360978 0.000909138063 106 36 9 0.105454765 
0.325784713 0.318004787 0.930399895 0.00103365863 99 27 10 0.639790237 
-0.0894816667 0.359541535 0.602949381 0.00061028183 97 20 6 0.590558946 
-0.0165630244 0.280062884 -2.80507588 0.000957960205 76 14 4 0.0781718418 
-2.57134414 0.268841088 -1.83883011 0.000840415305 130 60 22 0.223444209 
-0.0290732794 0.301386058 -2.85610628 0.000533026643 95 10 2 0.0704995617 
-0.144622132 0.278900176 -2.96177316 0.000808786659 41 22 9 0.0546128415 
0.328048378 0.119955264 0.230704933 0.00105866138 98 24 7 0.534593046 
-0.0755515099 0.300056577 -0.341219455 0.000790348917 177 85 23 0.448605806 
0.642294228 0.263544083 0.174288169 0.000768547703 105 44 16 0.526110947 
1.82173133 0.339957654 0.047526028 0.000494576641 88 26 10 0.5070526 
-2.84856796 0.195983291 1.8039614 0.000253783539 111 23 6 0.77112776 
-0.158025324 0.364736736 0.603781164 0.000917948608 104 23 7 0.590683997 
0.137842849 0.37173757 1.01746845 0.00061465957 107 46 17 0.652880728 
-0.0368283466 0.256295651 -2.83395219 0.000892430253 94 24 9 0.0738303661 
-0.167613253 0.301437527 -0.212751299 0.000760262017 70 32 12 0.467920631 
0.00342138857 0.225966051 -2.61561704 0.000797569461 88 41 16 0.106656447 
-0.0483234562 0.129582748 -2.39099979 0.000276864506 95 53 21 0.140427023 
-0.212847337 0.29327628 -0.23961623 0.000648395799 113 30 10 0.463881582 
-2.60784912 0.402918547 -1.84987223 0.000634123804 96 20 6 0.221784055 
-0.618488014 0.150042459 -0.171487749 0.000599794555 111 47 17 0.474124491 
-2.79445767 0.427975386 -1.95868099 0.000792887236 99 11 3 0.205424964 
0.0430222824 0.198239163 -2.39175653 0.000846783863 129 48 12 0.140313253 
-2.61452746 0.311010391 -1.84170997 0.000716346549 125 50 19 0.223011225 
-0.0078331409 0.286996096 -2.72097158 0.00106963189 111 13 3 0.0908166841 
0.172227532 0.268735141 1.66524732 0.000523845258 103 17 5 0.750272512 
0.0895742178 0.321053922 0.847952366 0.00101193564 100 21 7 0.627394497 
-2.75411081 0.429660767 -1.92505991 0.000743210025 73 17 6 0.210479796 
-0.858106256 0.212857947 0.460485041 0.000320568914 182 134 64 0.569139838 
0.20385915 0.382531732 1.50417769 0.000983816339 99 32 10 0.726056099 
0.138463795 0.119477823 -0.789629698 0.000630419701 169 101 38 0.381188571 
-0.871353149 0.173558071 0.442690372 0.000653314986 94 46 18 0.566464484 
0.392230958 0.227595806 0.239600465 0.00033706805 92 30 9 0.535930455 
-0.078184031 0.317878753 -2.93787265 0.00105875137 33 14 5 0.0582062155 
0.308949292 0.287317902 0.239040956 0.00107218267 127 56 23 0.535846353 
0.169393048 0.269499272 1.73887086 0.00108627416 91 18 6 0.761341572 
0.314611644 0.20776698 0.244443744 0.00061871059 86 41 15 0.536658645 
0.190141082 0.28596732 0.736418903 0.000414534181 132 60 24 0.610625684 
2.08386278 0.336331576 0.128349379 0.000626996043 77 11 3 0.51920414 
0.0815973878 0.201346099 1.15330923 0.000938615063 71 9 2 0.673304021 
0.997887313 0.292278916 0.103592359 0.000567167008 126 70 28 0.515482008 
0.33706817 0.237392113 0.0724599436 0.000430928485 141 100 43 0.510801375 
0.341923386 0.304016203 1.0692203 0.000929734786 108 17 4 0.660661519 
-0.253401518 0.153116807 -0.329458714 0.000639692415 106 11 2 0.450374007 
-0.638941884 0.140975997 -0.188245043 0.000853946724 137 70 32 0.471605062 
0.157359838 0.316626042 1.51815689 0.000626612222 78 9 2 0.728157878 
0.0483055525 0.298802674 0.795168161 0.00060116488 99 42 16 0.619458497 
0.0418377891 0.201864794 -0.59816432 0.000482588803 62 4 1 0.409974843 
-2.60642958 0.329506963 -1.82308137 0.000703709666 87 18 5 0.225811988 
0.11557813 0.280651242 1.25063944 0.000829192286 91 43 17 0.687937379 
-0.113607645 0.157311469 -3.17473555 0.00105074409 132 70 28 0.0225945376 
1.72511005 0.267706513 0.0438097157 0.000610321702 124 56 20 0.506493866 
-0.119572625 0.268649012 -2.79087973 0.000658805249 144 70 28 0.0803061947 
-0.67820251 0.0903742537 -0.188897088 0.000700270757 123 50 17 0.471507043 
-2.30171561 0.202772751 -1.74733496 0.00063661841 78 33 12 0.237200245 
0.174809441 0.35950163 1.04452717 0.000911446637 116 57 21 0.656948924 
0.302408308 0.343535364 1.18791723 0.000406377512 116 32 10 0.678507268 
-0.450889409 0.397637874 0.542713106 0.000749690167 91 50 20 0.581502616 
0.00121432438 0.241952434 -2.63778806 0.000788369507 69 23 7 0.103323102 
0.0656373948 0.12509048 -2.2308085 0.000621105195 132 65 21 0.164511338 
-0.0375308022 0.269921571 -2.50955129 0.000555803417 146 68 22 0.122603141 
0.248509482 0.149744168 0.37160635 0.000145397382 103 56 22 0.555777192 
0.629609704 0.237360492 0.208554626 0.000701911282 91 31 10 0.531262815 
-2.81431103 0.38654688 -2.01930547 0.000807282282 91 8 1 0.196310237 
-0.124600761 0.29086718 -0.296687752 0.000784959062 28 10 3 0.455301017 
0.13295649 0.300369292 1.52586567 0.00090102508 104 17 4 0.729316831 
0.114788912 0.336377829 0.596849442 0.000661074475 100 34 11 0.589641869 
-2.32883096 0.171615392 -1.68488181 0.000435067515 66 9 3 0.246589899 
0.0092895031 0.211092725 -2.58984995 0.000709240092 123 61 25 0.110530458 
-0.120377161 0.182104051 0.719959319 0.00069651485 69 26 8 0.608151078 
-2.64954448 0.359480411 -1.93464482 0.00080377725 97 29 8 0.209038734 
-0.103893735 0.293026268 -0.231111139 0.000475227047 105 44 16 0.46516028 
0.242592707 0.374875039 1.33883405 0.000955934927 156 74 26 0.701197147 
1.39914012 0.22252351 0.0825766027 0.000759423419 93 43 15 0.512322366 
-0.184147209 0.353178948 0.612211108 0.000801794231 95 31 9 0.59195143 
-2.8080399 0.152728125 1.74510539 0.000843423884 152 79 36 0.762278914 
-3.07392025 0.27377826 1.86412907 0.000867277675 124 59 24 0.780173838 
-0.79661566 0.228630111 0.439989805 0.000377533026 151 109 48 0.566058457 
-2.36031222 0.232748449 -1.77893233 0.000692414178 51 18 6 0.232449666 
-2.86372304 0.439674497 -2.05560279 0.000796636741 113 21 6 0.190853029 
1.63019454 0.291136354 0.0316983014 0.00105875498 112 48 24 0.504672945 
0.098181501 0.380688906 0.996150494 0.000796614331 141 73 29 0.649675667 
1.89779317 0.308631063 -0.00821570773 0.000736102695 95 29 10 0.498671979 
0.469920069 0.231451005 0.229173064 0.000633030082 111 45 15 0.534362733 
0.165094405 0.39574036 1.3562324 0.000408618187 129 50 17 0.703813016 
0.631374538 0.238220289 0.142299533 0.000854889746 92 20 5 0.521301568 
0.419406563 0.2618047 0.213995814 0.000855446211 64 23 8 0.532080889 
0.00425977213 0.282203764 -2.57651591 0.000620194536 132 69 32 0.112535194 
-0.130769566 0.352329403 0.609521866 0.000401180441 114 46 15 0.591547132 
-2.39085841 0.237201393 -1.73167086 0.0006785898 137 65 23 0.239555299 
0.0315909944 0.222998664 -2.57462239 0.000856209313 141 79 37 0.11281988 
-2.58454466 0.337104023 -1.80899048 0.000684053695 80 14 4 0.227930516 
-0.0484911203 0.313400149 -2.89607477 0.000792840787 63 23 8 0.0644904077 
1.96379399 0.323681623 0.0419340245 0.000458525203 91 12 3 0.506211877 
1.78275013 0.222343177 0.0857247859 0.000933457573 107 39 16 0.512795687 
0.171749651 0.317794323 1.63798249 0.00079372176 112 49 18 0.746173263 
-2.43136263 0.214347661 -1.72586 0.00106211251 106 41 18 0.240428939 
1.85926664 0.3309609 0.026412325 0.00094855763 106 34 15 0.503878176 
0.104364835 0.273204565 1.27487695 0.00078533293 121 61 24 0.691581428 
-2.83970928 0.387007505 -2.0614593 0.000320658495 103 10 2 0.18997252 
0.0980409011 0.351972103 0.891830325 0.000760242867 81 16 7 0.63399142 
-0.0255724043 0.304311693 -2.83011961 0.000919841579 76 7 1 0.0744065866 
0.164535612 0.256440938 1.43855989 0.00105754181 136 62 22 0.716190696 
0.377468169 0.36432606 1.6708765 0.000945538923 96 28 11 0.751118839 
-0.0324038565 0.260053962 -2.80731702 0.000644432206 65 15 5 0.0778348893 
2.67688918 0.282072365 0.642676294 0.000717435731 119 36 13 0.596531808 
0.271543652 0.423702538 1.69534934 0.000893015007 87 42 16 0.754798234 
-0.0711508915 0.324753642 -2.90899587 0.000882599619 110 49 26 0.0625477582 
-0.014644986 0.298356861 -2.78035688 0.00105254422 73 6 1 0.0818882734 
-2.76036286 0.386398494 -1.94223785 0.000787064084 104 23 8 0.207897142 
-2.90924096 0.122147709 -2.24924731 0.000905898225 136 54 18 0.161739126 
-0.0235106349 0.250045896 -2.44738221 0.00087758759 128 56 17 0.131950095 
1.99456453 0.289425403 0.00806138944 0.000970891153 110 21 6 0.501119196 
-0.107028008 0.338400126 -0.156337738 0.000556634855 84 38 14 0.476402253 
1.97763038 0.326407731 0.0607127771 0.000960375997 101 14 3 0.50903517 
0.16452527 0.268914789 0.633426666 0.000594345795 71 44 19 0.595141113 
0.325921237 0.303083152 1.13404477 0.000748125894 119 20 5 0.670407653 
-0.15772143 0.337476373 0.616227686 0.000543722999 99 21 7 0.592555285 
0.633191526 0.281020641 0.201693475 0.000810473575 139 58 20 0.530231237 
-0.0589128248 0.242000565 -2.83284211 0.000493418658 113 31 12 0.0739972666 
0.380951077 0.213408768 0.0786998495 0.00051257445 121 47 19 0.511739492 
-0.28078419 0.491067797 0.133306608 0.000724374608 72 40 16 0.519949436 
1.5573231 0.287179232 -0.0683426037 0.000745784026 103 49 18 0.48963207 
0.166044757 0.204666704 0.664780378 0.000669557601 120 53 18 0.599855065 
1.77530146 0.307359338 -0.0478922389 0.000844632508 103 49 19 0.492706716 
2.00310206 0.327328205 0.0602784306 0.000731015461 87 10 2 0.508969903 
-0.157144129 0.389600366 0.588283181 0.000847110117 76 25 8 0.588353932 
-2.7889204 0.38091749 -2.04834795 0.000499122194 58 17 5 0.19194378 
0.0940535814 0.248280138 1.37960196 0.000633422926 112 28 10 0.707326531 
0.305050671 0.386961162 1.50011516 0.000413279049 91 12 3 0.72544539 
1.37696373 0.148162901 0.112713844 0.00100597215 54 18 6 0.516853392 
-0.074197866 0.338342816 0.654386938 0.00076601922 114 48 17 0.59829247 
1.72689915 0.320691615 0.000735338312 0.000801708899 124 62 24 0.500017762 
0.165689573 0.358675182 1.02089012 0.000428030995 90 31 10 0.653395176 
0.401416361 0.287121147 0.221269101 0.000824763905 99 12 3 0.533174396 
-0.103693269 0.315851957 -2.73915672 0.000837608939 91 8 1 0.0880826041 
-0.195744514 0.324858785 -0.209136173 0.000610396732 87 43 17 0.468464136 
-2.69695854 0.417954206 -2.00527716 0.000378068245 151 102 44 0.198419347 
0.20404385 0.420298815 1.50090408 0.00069070363 122 25 8 0.725563943 
1.74461603 0.360777438 0.054438971 0.000408585212 79 34 12 0.508091986 
1.83826125 0.318055421 -0.0026481424 0.000993593596 76 29 10 0.499509066 
-2.78762913 0.40564096 -2.08681273 0.000781428069 76 6 1 0.186160713 
-2.316818 0.207229346 -1.76320934 0.000651952694 101 46 17 0.234813571 
-2.60064387 0.34710595 -1.89868164 0.000496794353 122 45 14 0.214445695 
-2.85949588 0.38695547 -2.08018231 0.000617544807 80 6 1 0.187157571 
0.298186451 0.351595491 1.21467102 0.000669843343 115 43 14 0.682529628 
-0.0331998318 0.320572734 -2.7837429 0.000793539861 80 7 1 0.0813791975 
-0.0906425565 0.340089768 -2.83619952 0.000922711915 84 14 4 0.0734924898 
-0.112737082 0.299536556 -0.191468135 0.000418670475 117 58 22 0.471120477 
-2.64809871 0.345969737 -1.83837807 0.000845293398 126 51 17 0.223512173 
-0.0401343033 0.297320932 -2.54246664 0.000729059509 113 34 9 0.117654413 
-2.51424623 0.269238234 -1.8568846 0.000549526885 101 41 13 0.220729768 
-2.83516192 0.392667472 -2.14250112 0.000872230623 75 6 1 0.177788109 
-0.0236697029 0.307616532 -2.8052175 0.000599098625 68 5 1 0.078150548 
-2.28499103 0.235284045 -1.7021209 0.000513622595 79 33 12 0.243998051 
0.218986198 0.188284189 2.24247861 0.000936348108 111 24 8 0.83705759 
-0.403900534 0.382350862 0.605173349 0.000571038399 127 65 25 0.590893328 
-2.35499883 0.18009375 -1.81238425 0.000576755323 118 43 14 0.22742027 
-2.57652783 0.35550043 -1.8992039 0.000915072742 84 12 3 0.214367166 
0.0124891633 0.333877236 0.611657083 0.000493615982 150 64 21 0.591868162 
0.375229806 0.370701134 1.63788283 0.000853430363 129 60 22 0.746158302 
-0.877775133 0.290216386 0.220729649 0.000321546511 137 89 38 0.533093274 
-2.51562643 0.29236722 -1.86897767 0.00100300007 143 78 37 0.218911603 
-0.731471062 0.198539913 0.437453598 0.000586104929 114 71 30 0.565677106 
