ply
format ascii 1.0
comment created by gply, a Houdini tool.
comment converted from .[b]geo
comment for more information about Houdini, try:
comment www.sidefx.com
element vertex 622
property float x
property float y
property float z
property float depth
property uchar red
property uchar green
property uchar blue
property float length
element face 0
property list uchar int vertex_indices
end_header
-0.195304289 0.906177878 0.043812044 0.000590828829 162 93 52 0.0417864732 
0.259717762 -0.000239732675 -0.238406315 0.000842645124 147 65 38 0.520147026 
-0.621650755 -0.419182867 0.223033771 0.000582010776 193 151 99 0.673137486 
-0.151576489 0.872900605 0.0368782207 0.000812843209 111 81 53 0.0610343963 
-0.588461518 0.368246615 0.268466771 0.000916076126 182 119 72 0.284304172 
0.0523914248 -0.256182671 0.00112431869 0.000806920987 164 78 46 0.634270489 
-0.120863654 0.262242973 -0.0540135354 0.00101375848 194 119 66 0.366099417 
0.474515021 0.047792837 -0.356499732 0.000776716508 160 99 59 0.509702682 
0.31581533 0.0263139196 -0.212931678 0.000943202002 171 108 65 0.510464728 
0.0245944858 -0.780037403 0.049330283 0.000914177217 181 112 66 0.892593801 
-0.696596265 0.435222298 0.420986652 0.000521133654 167 105 62 0.244309217 
-0.379143834 -0.157363027 0.17673336 0.000544359908 180 146 99 0.558291376 
-0.513590574 -0.275688916 0.171159685 0.000777816225 174 85 52 0.608644247 
-0.441485465 -0.262845814 0.195993334 0.000920648396 187 123 76 0.606766939 
0.594993472 -0.0862963051 -0.484467089 0.000893068267 154 60 31 0.583784878 
-0.562375188 -0.390688032 0.2260883 0.000720083306 148 88 52 0.662689865 
0.12910144 0.0149932839 -0.115283668 0.000988141284 136 47 24 0.504436195 
0.632445693 -0.0836901367 -0.455094635 0.000733147957 179 108 71 0.584827602 
-0.654866457 -0.479629457 0.41068387 0.000892481301 143 48 23 0.701072812 
0.66009903 -0.121105529 -0.519834757 0.00099811086 157 79 45 0.605126917 
-0.42154032 -0.288081795 0.138925135 0.000881011132 164 108 67 0.620539188 
-0.296387941 0.00217592716 0.166337803 0.000177729758 191 131 82 0.484254271 
-0.552296937 0.357474774 0.284705311 0.000518869085 175 100 58 0.291907817 
0.287823796 0.0631685928 -0.256091833 0.000643476262 133 83 50 0.490422666 
-0.264913082 -0.0226559006 0.135332882 0.00086637534 191 139 90 0.49854514 
-0.622897685 -0.450502008 0.270099252 0.000738419127 183 128 82 0.688607514 
0.00890020281 -0.76809305 0.0665801391 0.000148488602 145 82 46 0.885685086 
-0.805265188 0.580499947 0.579041064 0.000645271793 190 123 73 0.165409505 
-0.537603557 0.268511593 0.252641678 0.000948197558 207 170 116 0.336988509 
-0.343178689 -0.178733557 0.0985105857 0.000530980236 146 61 34 0.571144104 
0.194222674 -0.0215679519 -0.18729347 0.000705848448 178 136 91 0.526648998 
0.681858838 -0.121312074 -0.474672019 0.00091231527 192 137 87 0.606586993 
0.510106862 0.0208160318 -0.369219601 0.000291212142 161 110 69 0.525315225 
-0.629213989 0.429152548 0.311684132 0.000818019093 154 50 23 0.251526207 
0.650440156 -0.127886727 -0.499723852 0.000939537131 158 63 32 0.607890725 
-0.540006638 0.358605981 0.276760459 0.000730921049 211 147 91 0.292113006 
-0.295669079 -0.183238938 0.113250226 0.000575864222 154 72 41 0.576344669 
-0.160395816 0.518788993 -0.121820778 0.000886288355 184 111 63 0.236275911 
-0.247017562 -0.138541311 0.0530129597 0.00091341685 177 123 76 0.557190657 
0.63029927 -0.0982827768 -0.508357942 0.000936364813 141 51 27 0.5919379 
-0.228807926 0.00794672128 -0.00411552563 0.000647681183 189 140 90 0.485605568 
0.661368787 -0.0971511006 -0.470767856 0.000242844675 157 119 79 0.593314469 
0.101031616 -0.00358685572 -0.171590164 0.000426876213 167 105 64 0.51190877 
0.534790814 -0.0500546284 -0.408448756 0.000768192054 149 102 64 0.562037528 
0.453547478 -0.00541006122 -0.353143752 0.000683817547 175 88 52 0.534806132 
0.43996495 0.0365504064 -0.344726443 0.000834573642 161 93 54 0.51312834 
-0.628741026 0.401554227 0.337204516 0.000414703216 183 106 63 0.265256315 
-0.591180146 -0.353992134 0.211284593 0.000921803701 170 115 72 0.642675757 
-0.127674371 0.335502028 -0.0885228515 0.000802844821 172 104 62 0.329306513 
-0.393746316 -0.276483417 0.137061238 0.00062139472 193 121 69 0.616515398 
-0.221797824 -0.171391726 0.110945776 0.000661881466 151 82 46 0.575071931 
0.542691767 -0.0174689591 -0.399758518 0.000943796593 134 82 49 0.546353936 
-0.226916164 -0.154590234 0.0222164094 0.000715889677 172 116 73 0.566411853 
0.481336355 0.00776160182 -0.351226747 0.00088632718 144 61 35 0.530000985 
0.510490894 -0.040574979 -0.411534131 0.000699477736 160 75 42 0.555815578 
-0.586673737 0.356238782 0.278583527 0.000320964173 185 125 85 0.290376782 
0.0805267096 -0.362342 0.00760370307 0.000756871596 166 118 75 0.688726544 
-0.157993272 0.554839194 -0.104685441 0.00104602519 177 120 76 0.218529403 
0.0558782816 -0.388657451 -0.0165643767 0.000528005417 153 112 73 0.700252533 
0.672985256 -0.0923428982 -0.49418205 0.00067834364 144 58 31 0.591652215 
-0.158832818 0.859642565 0.0295601673 0.00178056257 174 93 57 0.0671633184 
-0.140134037 0.399781704 -0.10213764 0.000891729258 94 49 28 0.296618849 
-0.563484073 -0.356524348 0.207349822 0.000795270549 167 59 28 0.645660758 
0.0611345619 -0.451017231 -0.00254005194 0.000941849779 196 127 74 0.731537759 
-0.560919106 0.318157136 0.245368421 0.000750602747 171 101 59 0.31088841 
0.161346748 0.00308699347 -0.130964279 0.000959201541 148 57 30 0.512358487 
-0.259161115 -0.134144232 0.142724425 0.00087970437 136 86 52 0.554250181 
0.273417532 0.0470012426 -0.203934565 0.0010112226 160 71 44 0.497549862 
-0.577237129 -0.413338125 0.222485006 0.000871424854 181 112 80 0.673006892 
-0.693817198 0.446328223 0.392869234 0.000685519772 185 155 107 0.238969266 
-0.576298773 -0.379596174 0.174360156 0.000806934666 170 127 83 0.65631485 
-0.563410819 -0.349418789 0.205860749 0.000702921767 153 51 24 0.642137885 
-0.053795889 0.0307108164 -0.0813520625 0.000927368237 126 75 45 0.485223174 
-0.669846475 -0.493078232 0.42048645 0.000597703445 175 122 77 0.706814647 
-0.821144938 0.580208421 0.528280556 0.000498638721 158 103 64 0.164563552 
0.130779848 -0.0206058584 -0.102259561 0.000690184184 164 72 39 0.522213399 
-0.43192482 0.155926511 0.207498103 0.000754120992 130 71 39 0.399472088 
-0.00809819251 0.0379643403 0.0201409925 0.000780183764 172 104 63 0.484473258 
0.102203906 -0.0462226756 -0.116156965 0.000562975067 152 114 75 0.533147573 
0.62548244 -0.108547203 -0.45625329 0.000853437872 148 93 59 0.596732974 
-0.579275727 -0.391300023 0.237764627 0.000571147539 148 81 48 0.661939263 
-0.288312972 -0.140451863 0.128060997 0.000818911882 138 96 61 0.555562794 
0.287235558 0.0492351316 -0.209501982 0.000649235386 158 65 36 0.497302949 
0.564945817 -0.0290304646 -0.420206904 0.000910747563 160 108 66 0.553481758 
-0.286254764 0.0755214468 0.139310598 0.000836117018 173 110 69 0.44847551 
-0.142111808 0.409012198 -0.105910748 0.000592336175 169 113 70 0.291913122 
0.207341924 0.00925308466 -0.151423275 0.00087940559 155 103 65 0.512166977 
0.255640149 0.0572752804 -0.226905927 0.000236999593 194 152 112 0.491340429 
-0.62419802 -0.459480733 0.316292584 0.000904029352 169 115 72 0.692983747 
-0.175459504 -0.0149249146 0.16665636 0.00073417864 154 91 54 0.50028795 
-0.619562149 -0.449301094 0.263892353 0.000477496535 211 169 134 0.688219428 
-0.535788178 0.373853385 0.242269844 0.000302494533 160 56 27 0.284806907 
0.727988124 -0.18565768 -0.522007108 0.000329517759 185 134 92 0.641407967 
-0.590119421 -0.412274688 0.202340439 0.000655007665 170 115 72 0.671675265 
0.501881003 0.012068904 -0.349808812 0.000822828966 189 135 86 0.529144406 
-0.0858476609 0.396504581 -0.098111257 0.000970233115 166 78 44 0.301632464 
-0.376672447 -0.184999719 0.109446555 0.000815555861 170 87 54 0.572165251 
0.385188162 0.0415437147 -0.297244728 0.000416756258 165 128 86 0.50723213 
0.0683144927 -0.333595455 0.0151408017 0.000746624311 184 131 100 0.673693955 
0.0392011702 -0.323440403 -0.0435540974 0.000602894637 156 99 61 0.666836381 
-0.256262422 -0.191038281 0.119865067 0.000986143714 132 71 39 0.58267498 
-0.193692088 0.0595794171 0.103272088 0.000932817056 158 129 87 0.462164253 
-0.0681876242 0.169330433 -0.049081713 0.000764744065 179 96 58 0.415510327 
-0.659447968 -0.472580552 0.334053218 0.000869419251 190 124 69 0.697287679 
-0.0746667832 0.373197675 -0.140196323 0.000788165489 202 139 86 0.313900232 
0.567330539 -0.038171988 -0.443741441 0.000812572602 175 105 60 0.558168709 
0.113060907 -0.445977807 -0.018161308 0.000647289446 176 106 61 0.732275605 
-0.307664216 -0.137516141 0.138306201 0.000882199151 167 117 76 0.552898169 
0.553514957 -0.0579773858 -0.462244332 0.000700456323 169 114 71 0.567138791 
-0.614572167 0.399788737 0.285187304 0.00104308152 196 128 80 0.267016739 
-0.608324945 -0.419069439 0.21212776 0.000444040546 155 70 40 0.673912585 
0.0921968073 -0.474547803 -0.0309745148 0.000527852215 148 62 34 0.745156944 
-0.269893438 0.06898579 0.120655648 0.000972674869 161 97 56 0.452740699 
-0.122202724 0.123990811 0.0112312008 0.000349259411 173 101 60 0.434648484 
-0.533947468 0.337987691 0.275515139 0.000705709273 210 150 105 0.302726537 
-0.656006873 -0.445408255 0.326233447 0.000684050203 153 66 36 0.684013247 
-0.468084276 0.243204087 0.188449666 0.000611734577 179 133 86 0.353888988 
0.216719165 -0.0165734515 -0.217927918 0.000384935498 158 78 47 0.525573075 
0.514197707 0.00745253172 -0.370731473 0.000877609127 150 98 59 0.532204509 
-0.0320475474 -0.2052802 0.0304621346 0.00076427852 177 137 91 0.603733122 
0.0490945131 -0.377073258 -0.015264716 0.000589690462 155 89 53 0.694078624 
-0.25302434 -0.131063715 0.138340369 0.000678340148 170 132 89 0.553103745 
-0.456401348 -0.289652467 0.193757996 0.00045852692 164 98 57 0.619144082 
0.594450772 -0.0839308426 -0.435597122 0.000757584639 147 53 28 0.582576692 
-0.665537775 -0.485296279 0.354647756 0.000749267871 170 115 72 0.703220248 
-0.182331696 -0.00106719695 0.153123647 0.0007150491 181 129 86 0.492979854 
0.209844992 0.0473616049 -0.205476299 0.000752558582 178 130 95 0.493404865 
0.16525875 0.0231060497 -0.214120224 0.000976366864 158 68 37 0.502664506 
0.347186625 0.0395643078 -0.265828669 0.000834925973 156 67 34 0.505843997 
0.522336543 -0.0636558533 -0.423139155 0.00030823113 179 110 65 0.568012655 
-0.133518144 0.435286701 -0.0924192965 0.00037827983 170 115 72 0.279405832 
0.106343329 0.0157586709 -0.164735764 0.000423595367 175 111 66 0.502636433 
-0.412000954 -0.226401702 0.118522331 0.000600125699 184 121 73 0.590514421 
-0.818606317 0.587736011 0.530342638 0.00105654262 181 129 84 0.160984978 
-0.13789165 0.514393628 -0.0793592855 0.000620731793 198 151 93 0.239861876 
0.442086041 0.0424516797 -0.349418283 0.000581389875 190 133 82 0.510331094 
-0.369575024 -0.257779181 0.150638551 0.000410227862 162 121 80 0.608737946 
-0.678339243 -0.624580264 0.519673228 0.000552148791 170 115 72 0.771566451 
-0.523971975 0.331073642 0.263182312 0.000535295054 141 114 78 0.306781232 
0.30752486 0.0303037614 -0.225910798 0.000264759088 164 98 56 0.507966816 
-0.653768361 -0.541462243 0.471545875 0.000878921826 186 152 116 0.731837034 
0.0340822786 -0.366196781 -0.00697793439 0.000503708958 148 62 34 0.687742591 
-0.515171051 -0.292720497 0.182938129 0.000375453063 170 138 94 0.617000639 
0.217734769 0.000476888381 -0.166678458 0.000476350542 197 153 101 0.517172098 
0.164890572 -0.0164775662 -0.188539132 0.000817801338 177 90 52 0.522292018 
-0.256583035 -0.156133667 0.157352149 0.000697683543 162 57 28 0.565327287 
-0.634689569 -0.4264099 0.290391147 0.00087150489 147 85 48 0.675911784 
0.469360828 -0.00134240463 -0.372941732 0.000415007729 187 98 58 0.533773363 
-0.654830396 0.448065132 0.360085666 0.000892756565 167 120 78 0.240539297 
-0.477325559 -0.245097965 0.178994387 0.000748847553 167 121 79 0.59572047 
-0.615200281 0.397440642 0.292589366 0.000800857495 178 132 87 0.268143207 
-0.527762175 0.245563194 0.196805596 0.000569904805 161 104 65 0.348994762 
-0.635058105 0.435447812 0.323917747 0.000694177346 160 53 24 0.248036444 
-0.0976467133 -0.203660265 0.0302835926 0.000697319163 152 89 51 0.598836422 
0.200457975 0.0459091738 -0.217466936 0.00104516873 163 76 42 0.493540287 
-0.123498157 0.498366207 -0.0893914253 0.000980379176 168 107 59 0.248716325 
0.0594051629 -0.0135745248 -0.128608838 0.000143722049 171 66 33 0.514270008 
-0.599609673 0.376976848 0.2855784 0.000835824176 170 115 72 0.279274702 
0.0612449199 -0.678894639 0.0289682131 0.000695430383 162 105 65 0.844669938 
-0.139573812 0.392842621 -0.101976082 0.000733956986 162 117 76 0.300098538 
-0.618498564 0.403406113 0.275710821 0.000848042604 148 84 46 0.264975995 
-0.439698577 -0.211416885 0.176484302 0.000804199954 197 135 83 0.581347585 
-0.062167149 0.1652821 0.00532543659 0.000781965326 151 54 23 0.417895615 
0.189700082 0.0407815166 -0.207751825 0.000847325311 166 82 48 0.495414674 
0.76445514 -0.183343679 -0.552816629 0.00122515671 112 74 46 0.642534256 
-0.137231261 0.724972486 0.0211228654 0.000726605183 161 69 35 0.135365292 
-0.155612394 0.707858205 -0.0325697809 0.000704739941 177 83 45 0.142714605 
0.484531522 -0.0282213874 -0.387866557 0.000801755465 170 115 72 0.548063338 
-0.113389954 0.147178888 -0.0552914739 0.000708114705 169 134 90 0.423686981 
-0.242110729 0.0445382223 0.106311582 0.000755362562 142 107 70 0.466610521 
-0.434634387 0.0988515094 0.195356026 0.000822768488 192 141 90 0.427636832 
-0.631014347 -0.447364688 0.336233854 0.000260259083 172 117 73 0.686543703 
-0.523318946 0.312821448 0.262878507 0.000897892111 154 65 36 0.315882921 
-0.503523707 0.288107514 0.245655581 0.000347769354 154 107 68 0.329386622 
-0.620447814 0.43802923 0.317443132 0.000589517702 170 114 63 0.247666433 
-0.251066744 -0.0274812393 0.0108590014 0.00080143509 198 152 100 0.501804411 
-0.261471152 -0.147395238 0.0742090493 0.000592043216 188 132 84 0.560684264 
0.155952305 -0.0266749859 -0.156119168 0.000458380469 160 107 68 0.526796758 
-0.128384441 0.515292406 -0.0842073783 0.000851181045 99 68 43 0.240008816 
-0.674361169 -0.477571398 0.393078744 0.000803984702 155 71 41 0.698834956 
0.165786922 0.0338058732 -0.182409614 0.00077144336 173 88 55 0.49738574 
-0.44049269 -0.209564045 0.160099819 0.000506633427 191 138 89 0.580378234 
-0.232867748 -0.152761519 0.0444812812 0.000783603289 180 142 93 0.565132737 
-0.163866758 0.654378355 -0.0269822851 0.000707917148 143 58 29 0.168748721 
-0.154580235 0.479178607 -0.132494241 0.000873703917 139 82 49 0.256302565 
-0.311801106 0.073843576 0.18179512 0.000853975012 168 84 52 0.447714686 
-0.359492779 0.0503941663 0.133649975 0.00082433864 154 74 45 0.456380367 
-0.14990066 0.564544857 -0.100553364 0.000518212793 170 115 72 0.214216083 
-0.135906816 0.789783597 0.0419986248 0.000906361092 173 82 47 0.103273675 
0.437018931 0.0439839549 -0.345067739 0.000225583251 163 107 67 0.509254277 
0.501334786 -0.0102843503 -0.370321572 0.000644101994 169 122 80 0.540207148 
-0.678476632 -0.604050159 0.511803806 0.000873394369 173 109 67 0.761366129 
-0.494196892 0.259498417 0.237574518 0.00125508918 191 144 97 0.344170928 
-0.0680585131 0.255556703 -0.0966511965 0.000635477249 159 93 54 0.372713059 
-0.00869072974 0.0399015434 0.0122597888 0.000886669673 172 104 63 0.483474582 
-0.101241931 0.160925299 0.0142303389 0.000773540814 157 67 35 0.417620748 
-0.071539633 0.0769585669 -0.0205789357 0.000407992222 210 142 85 0.461157441 
-0.642433107 -0.460224092 0.301724017 0.000687875028 204 142 88 0.692215145 
0.514585733 -0.0260567889 -0.422631681 0.000608895207 184 105 71 0.548863769 
0.0647213161 -0.406324863 -0.0200788714 0.000983924023 188 124 73 0.709574819 
0.294094622 0.0172070879 -0.189108416 0.000791223429 179 116 69 0.513630569 
-0.114407055 0.444771349 -0.0867262036 0.000584266847 109 53 25 0.275889635 
0.213154688 0.0181919187 -0.160871416 0.000459875213 143 105 69 0.508092105 
0.248931631 0.0447113775 -0.190374479 0.000338155078 179 91 54 0.497159004 
-0.277883172 -0.0704947636 0.0436422862 0.000998735894 172 127 83 0.521484673 
-0.660057604 -0.451252431 0.34295696 0.000584926689 149 49 22 0.68666172 
-0.407770276 0.132770523 0.19171986 0.00080681016 141 97 61 0.412474364 
0.485631406 -0.0045815492 -0.386281788 0.00064794888 187 109 70 0.536396444 
-0.301479131 -0.195449248 0.123139642 0.000509084726 184 90 52 0.582043767 
0.576193213 -0.0601750538 -0.473970652 0.000664026535 187 111 65 0.56964457 
0.216418251 -0.00231090561 -0.182898745 0.00086009776 170 115 72 0.518473923 
-0.117855608 0.161604583 0.0183763653 0.000786651624 165 101 59 0.41624707 
-0.575346172 -0.402198642 0.239280209 0.000449451472 161 103 69 0.66759485 
-0.657001376 -0.548522234 0.477517426 0.000670303882 176 135 93 0.735140085 
0.596847892 -0.0532323122 -0.442413688 0.000220376503 155 66 38 0.567486584 
0.385275364 0.0598990172 -0.31104809 0.000477305264 188 151 104 0.498125434 
0.462707341 0.0239911322 -0.364931166 0.000992889283 172 80 45 0.520781934 
-0.00560938567 -0.103397898 -0.0724988207 0.00106361823 162 90 49 0.554804981 
0.525811613 -0.0307373554 -0.38575381 0.000829877914 176 125 79 0.551887691 
-0.663158238 -0.451962024 0.349057674 0.000970132824 168 76 42 0.686820567 
-0.668385804 -0.527862191 0.457918108 0.000741075259 156 105 69 0.724173665 
0.131737322 -0.0322825238 -0.125216067 0.000926410605 162 69 38 0.528069794 
-0.130296677 0.696524262 -0.0101023912 0.000894053257 202 138 78 0.149920508 
-0.327259481 0.0310692638 0.119135849 0.00088144996 170 80 44 0.467984796 
-0.620180488 -0.454760253 0.363163948 0.000604482659 179 116 71 0.690890968 
0.160858199 -0.0278449431 -0.111901015 0.00107909495 151 105 66 0.527683616 
0.348530948 0.0507885814 -0.245859995 0.00184670987 133 84 51 0.50035578 
-0.131969646 0.579144299 -0.0840780064 0.000432339904 174 103 60 0.208087116 
-0.424471259 0.0851226896 0.195038572 0.00108619849 212 163 120 0.43508628 
0.0867994428 -0.0216400474 -0.1474372 0.000877016864 175 89 53 0.519982994 
-0.622286439 -0.460919946 0.309840918 0.000873834477 147 88 53 0.693817437 
-0.697097898 0.46169281 0.483329058 0.000936933211 158 53 24 0.231137171 
-0.844833434 0.580428064 0.473500848 0.000731141889 167 125 81 0.162976667 
-0.254642397 -0.149456754 0.0944729298 0.000880050648 143 83 49 0.562133729 
-0.12898314 0.542918921 -0.101876646 0.000776410569 180 125 74 0.226256832 
0.477373302 0.0398488231 -0.368147254 0.000719798263 147 60 31 0.513824642 
-0.427876413 -0.302405 0.138932794 0.000520494999 171 96 59 0.627254367 
0.0912564695 0.00552693661 -0.0842627436 0.000964872539 170 115 72 0.506774545 
-0.115492657 0.0783977956 0.0553798452 0.000872925564 206 151 109 0.457700878 
-0.330970794 0.034306474 0.126630604 0.000753427914 182 89 49 0.466146171 
-0.621224225 -0.457645267 0.30414325 0.000742908218 168 119 76 0.692258 
0.013690643 -0.0351083465 0.0574124604 0.000639480655 162 113 73 0.522108078 
-0.619958758 0.400052816 0.299059331 0.000589808158 168 58 26 0.266549587 
0.103325903 -0.565504074 -0.0444310606 0.000879364263 171 85 49 0.791004658 
0.234840587 0.0553514659 -0.23732473 7.76408633e-05 137 99 65 0.490997881 
-0.178417921 0.880806029 0.0565683842 0.000865308801 131 98 65 0.0554353185 
-0.317499042 0.0886544362 0.135838836 0.000344106287 189 132 84 0.440006673 
-0.530676901 -0.326218307 0.189593196 0.000872532895 184 91 50 0.632662714 
0.56954062 -0.0555874929 -0.469466746 0.000699362135 184 114 67 0.566952109 
-0.0586112067 0.137437642 0.00583716482 0.00081844494 173 120 69 0.431940317 
0.158683077 -0.0223867372 -0.184050247 0.000410683599 186 125 77 0.524838269 
-0.241578832 -0.180981204 0.115542822 0.00136797642 183 128 82 0.57859838 
0.102406681 0.0158056617 -0.173677698 0.000737654744 177 113 67 0.502367496 
-0.640074074 -0.482973456 0.342471004 0.000916896039 151 72 37 0.703655839 
0.216480479 0.0409843288 -0.246814445 0.00064991822 176 111 66 0.49698475 
-0.615793884 -0.441028476 0.296028495 0.000943173247 133 94 60 0.684347749 
0.184873775 0.00229025725 -0.138595968 0.000496008957 189 127 78 0.514221787 
-0.849951565 0.586314797 0.467268944 0.000715495087 183 145 97 0.159735009 
0.151029781 0.0193033405 -0.130146101 0.000933422067 152 65 37 0.503664553 
0.0242235437 -0.856671691 0.0967530012 0.000491058512 173 130 86 0.930614233 
0.74982655 -0.183990493 -0.547448218 0.000726653321 205 164 122 0.641942739 
0.0676894337 -0.631473005 -0.0144576691 0.000287822942 183 114 66 0.821530461 
0.290070653 0.0564356372 -0.213686123 0.000992153888 142 52 27 0.493905246 
0.247596845 0.00205498375 -0.209813103 0.000801714777 169 78 44 0.518251717 
-0.284225225 -0.16860944 0.176154852 0.000877292827 171 82 47 0.569796145 
0.415316522 0.0486668684 -0.329897821 0.000809975318 181 124 76 0.505575597 
-0.523245156 0.354710072 0.236005142 0.00137903576 123 55 26 0.295092732 
-0.632511675 -0.454051107 0.283506393 0.000823275128 143 75 40 0.689769566 
0.3344419 0.0375981741 -0.253441989 0.00101316278 180 121 73 0.506024957 
-0.37746197 -0.263063878 0.138446003 0.000798505382 165 95 53 0.610869467 
-0.129094884 0.529639959 -0.0993422568 0.000718397205 144 73 34 0.232841909 
0.535794079 -0.0570623502 -0.434710741 0.000893121352 193 124 73 0.565578997 
-0.206368238 0.97836405 0.0180424117 0.00076146092 95 59 37 0.00526076742 
0.0981479585 -0.455533952 -0.0360267982 0.00103383244 166 96 54 0.73608911 
-0.265188783 -0.188723624 0.141450793 0.000447003637 149 88 46 0.580969036 
-0.658835351 0.425584793 0.387891412 0.000946722284 180 121 80 0.251449376 
0.0564976484 -0.0247805826 -0.124192849 0.000802095397 178 89 50 0.519651651 
-0.697000027 0.456280679 0.469319463 0.000937205157 170 62 31 0.233830035 
0.18153815 0.0463539399 -0.159836471 0.000988940359 153 74 44 0.492139161 
-0.323071301 -0.170052141 0.111329526 0.000834323699 194 160 109 0.56808883 
-0.65531373 -0.470803678 0.399102628 0.000786598306 134 41 19 0.696663558 
-0.330593765 0.0188515354 0.166901603 0.000576594262 174 93 56 0.473841995 
-0.063507691 -0.093522571 0.137279868 0.000934895652 154 97 57 0.546290517 
-0.267055154 -0.0275719687 0.0627348572 0.000698350719 189 141 91 0.500851989 
0.269326329 0.0161940064 -0.245632753 0.000626941386 162 115 74 0.512588263 
-0.121855386 0.164324746 0.00156857073 0.000251333171 139 56 30 0.414647162 
-0.604765177 -0.399098128 0.245880693 0.000693865004 197 162 110 0.664220333 
-0.645383358 -0.48402229 0.34804225 0.00069564255 151 72 37 0.703845203 
0.247302517 0.00870248675 -0.196381539 0.000383825478 161 94 54 0.514933288 
0.441525877 0.0572545007 -0.341604412 0.00094965176 187 124 75 0.502947509 
-0.389913082 -0.162799105 0.166147515 0.000722854515 134 51 27 0.560318172 
-0.164035127 0.47533989 -0.0959090143 0.000718975789 148 68 40 0.257618338 
-0.255347729 0.0399799086 0.111192577 0.000796325912 182 133 87 0.468047559 
0.548028767 -0.0710000321 -0.426442504 0.000473238499 167 112 79 0.573261321 
-0.441779435 0.167550221 0.212131128 0.00018559146 166 87 55 0.39308694 
-0.661921024 -0.458151698 0.382435858 0.000911457348 153 56 29 0.689970493 
0.168829814 0.03544911 -0.175188377 0.000972360838 183 97 61 0.496759802 
0.0339526832 -0.020135697 -0.0928096175 0.00053273479 164 86 51 0.515939236 
-0.675623596 -0.58699429 0.496201694 0.000948735629 164 105 63 0.753077149 
-0.381325364 0.0636860803 0.159598932 0.000804044772 187 131 83 0.448419809 
-0.286207497 -0.0712120831 0.0571301021 0.000947269029 187 140 98 0.521321416 
-0.138277873 -0.0641576424 0.174280971 0.00105636776 161 107 66 0.52704823 
-0.628735781 -0.437827706 0.248375639 0.000807431003 167 107 65 0.681951404 
-0.645314157 -0.433187723 0.295211971 0.000451768981 208 145 92 0.678613722 
0.4229756 0.038081836 -0.309727132 0.000700433913 143 52 25 0.511308134 
-0.62119323 -0.45385024 0.357022166 0.000681333477 174 87 50 0.690376043 
-0.214299053 0.0278216414 0.103380583 0.000637498044 166 102 59 0.476644188 
0.111636147 0.0143200289 -0.102809861 0.000515196822 142 58 32 0.503680825 
-0.259648979 -0.149680406 0.0834057331 0.000716199866 196 122 66 0.561932385 
-0.673993587 -0.478754699 0.379179358 0.000852357829 166 79 43 0.699445367 
0.524195373 -0.00924080517 -0.375539005 0.000928371621 203 163 112 0.541115284 
-0.211847603 -0.171453699 0.00901323184 0.000605548557 173 131 86 0.575723469 
0.0272053406 -0.0693397522 -0.0637298971 0.0009023702 168 94 59 0.539944708 
-0.350253105 -0.208218992 0.176703423 0.000711689645 175 69 35 0.585340261 
-0.130169719 0.632901371 -0.0501520336 0.00048927858 218 159 94 0.181512773 
0.480329394 0.0447772183 -0.340895116 0.000938480487 157 61 31 0.511562467 
-0.129752994 0.614569724 -0.0697652772 0.000963868515 170 115 72 0.190639153 
0.410201728 0.0721596032 -0.304902196 0.000754048524 154 78 45 0.493594021 
0.473956227 0.0158207212 -0.340229928 0.000268163945 181 130 92 0.525539756 
-0.705007851 0.461853951 0.485506594 0.000862023968 195 162 110 0.230563715 
0.533262968 -0.0196555518 -0.381704032 0.000501748291 168 114 72 0.546851218 
0.0783378333 -0.291358203 -0.0296749026 0.000549691962 151 64 36 0.653351426 
-0.0568776801 -0.00311519206 0.113434926 0.000853813253 201 143 91 0.501823187 
-0.667966485 0.438021243 0.354481101 0.000920254039 160 108 69 0.244705856 
0.23017557 0.00960660819 -0.157955334 0.000905785942 162 107 66 0.513415933 
0.481091678 0.00832615141 -0.384328365 0.000948316185 136 53 28 0.529705465 
-0.62391448 -0.462440908 0.382287145 0.000894016353 162 112 71 0.694470882 
0.702223778 -0.14372468 -0.483112276 0.00038255527 175 125 81 0.618983805 
-0.438041687 -0.257573813 0.191855446 0.000916837365 190 130 89 0.604364693 
-0.12472713 0.28187263 -0.0567437932 0.000615241821 192 118 67 0.356113642 
-0.548626125 0.286155075 0.238811687 0.000872089702 205 155 103 0.327542067 
0.255762935 0.0651924461 -0.206798092 0.000761179428 162 73 42 0.487417758 
0.718282402 -0.145085424 -0.526379228 0.000809314719 167 108 64 0.62066108 
-0.608542085 -0.408671707 0.255987763 0.000764760305 177 127 82 0.668737292 
0.507240355 0.00048597157 -0.411479175 0.000814090366 146 64 35 0.535228908 
-0.134231895 0.0675933063 0.00982671604 0.000906536356 184 125 77 0.461895466 
-0.519822419 0.208471566 0.231973976 0.000970905938 167 74 41 0.367903501 
-0.258611679 -0.143908978 0.101776369 0.00180530385 155 92 50 0.55913198 
0.023635067 -0.358319491 -0.00386807323 0.000910947623 178 133 86 0.683180332 
-0.647280276 -0.440854847 0.325578392 0.00118909974 165 115 74 0.68229723 
0.512731433 -0.0269263685 -0.414864361 0.000802691327 179 96 60 0.549179792 
0.502354026 -0.0158066861 -0.404171407 0.000828927616 188 110 69 0.543012202 
-0.631583929 -0.474882841 0.358031631 0.000453113753 143 57 33 0.700169027 
0.475262463 -0.0168675594 -0.368351519 0.00050343445 184 135 87 0.54184866 
-0.452501655 -0.270332575 0.188449234 0.000359486643 167 105 65 0.609796345 
-0.625195801 0.418222904 0.295440495 0.000500247348 167 106 62 0.257202685 
-0.247464731 -0.187608108 0.11874219 0.000901850464 169 60 28 0.581520975 
-0.676286757 -0.533382654 0.449917376 0.000687056105 168 106 63 0.726421237 
0.00197418034 -0.301143736 -0.00541674346 0.00105494366 205 163 114 0.653445184 
0.0906556696 -0.028153047 -0.144713581 0.000670729787 153 66 37 0.523456812 
-0.632760346 0.4255898 0.307416558 0.00104026229 203 152 98 0.253073603 
0.46151793 0.0159539748 -0.363136232 0.000693524955 172 81 45 0.524697602 
-0.173806041 0.907341599 0.0235015005 0.000396240212 151 90 53 0.0425499231 
-0.706982553 0.450883269 0.429152369 0.000913773372 193 126 74 0.235886693 
0.476765931 0.0514242463 -0.349175215 0.000919625687 166 66 34 0.508040369 
0.45466435 0.0491035432 -0.357388318 0.000850236916 145 47 22 0.507813632 
-0.429962397 -0.26828599 0.181893125 0.00062342803 180 125 88 0.610186517 
0.254580379 0.0592522547 -0.25978297 0.000400647055 165 81 48 0.490292907 
0.0744303167 -0.00365833193 -0.0752527639 0.000812867074 170 111 72 0.510284662 
-0.187294096 0.894140601 0.0519542471 0.000887980801 120 90 58 0.0482618809 
0.13455005 0.0224528126 -0.159245387 0.000933388132 143 87 54 0.501073003 
-0.552772999 0.300555408 0.231868252 0.000761095667 170 92 56 0.32013464 
-0.502198219 0.280582666 0.244413897 0.00124793116 170 117 74 0.333204895 
-0.599605799 0.421711802 0.291811466 0.000991168665 168 78 51 0.257067174 
-0.401031315 0.12774165 0.192120433 0.000735644309 186 143 103 0.415391296 
0.175123259 0.0386298969 -0.172829196 0.000743651181 151 70 43 0.495573401 
-0.628494501 0.422349632 0.30251497 0.000558467815 149 49 22 0.254948288 
-0.334280849 -0.155265823 0.172119945 0.000559913169 176 137 92 0.560049117 
0.00672347844 -0.0252923258 -0.0729505047 0.000866005663 150 49 23 0.516800463 
-0.649006128 0.42335096 0.321515739 0.000911439594 150 48 21 0.253171504 
-0.566782892 0.391859859 0.306016862 0.00137619767 143 56 29 0.273934275 
0.0652698874 -0.0501641817 -0.114495933 0.00107912591 175 104 58 0.532800138 
-0.14578554 0.551655233 -0.106578007 0.0008868656 145 74 43 0.220871598 
-0.572433889 0.315295786 0.28030622 0.000701373676 192 135 85 0.311590433 
-0.618312716 -0.446706891 0.339638829 0.000898459344 153 103 62 0.687009573 
-0.166258723 0.56614399 -0.0755454451 0.000357782992 165 94 53 0.212401733 
-0.607428908 0.370296508 0.303371549 0.000581809785 148 54 27 0.282103211 
-0.304744273 0.0684915632 0.181825757 0.000699672499 158 121 80 0.450811863 
-0.272286713 -0.135490373 0.147784099 0.000930779031 185 97 61 0.554099619 
0.0368562192 -0.115890495 -0.0166836753 0.000742415024 190 152 104 0.563656032 
-0.360432744 0.102345154 0.191285238 0.000709629268 151 68 32 0.430531681 
-0.569763243 0.377211511 0.253461212 0.00078325707 166 63 33 0.281020224 
-0.287096471 0.0591880642 0.177646488 0.000808390731 184 137 90 0.456531376 
-0.160026968 0.751083791 0.00790708698 0.000597006292 161 103 63 0.120980702 
-0.173539311 0.849022925 0.0346198864 0.000852495898 165 79 44 0.0715177879 
-0.6320104 -0.485871494 0.365142584 0.000776080531 178 71 37 0.70559752 
0.209249035 0.0257603023 -0.163178459 0.00100168691 126 82 50 0.504091263 
-0.709881961 0.478381157 0.467951179 0.000133029273 213 160 93 0.222055033 
-0.052935265 0.154147461 -0.0149254054 0.000308798917 187 115 65 0.42399919 
0.534144938 -0.0263099335 -0.44037205 0.000888769981 196 125 73 0.550209641 
-0.136139393 0.650596559 -0.0614795312 0.000735404028 187 112 64 0.17235589 
-0.486238956 0.223867357 0.23526901 0.000886849361 160 111 71 0.362355739 
-0.694067419 0.438980103 0.439593434 0.000604280853 197 144 93 0.242601514 
0.11279422 0.00778324064 -0.183002606 0.000768700673 182 113 66 0.506998122 
-0.431518734 0.138578504 0.210263193 0.000889170507 157 120 80 0.408109546 
-0.355340421 -0.250457883 0.141444176 0.000594793819 183 136 89 0.605991542 
-0.163403034 0.654507756 -0.0356381759 0.000763708784 166 81 46 0.168713391 
-0.646336734 -0.531975031 0.439735949 0.000916948251 176 131 85 0.727590978 
-0.0982646868 -0.100423411 -0.106572211 0.000890167605 170 115 72 0.547547936 
-0.339455009 0.0970515087 0.161237583 0.000780462578 176 89 51 0.434468329 
-0.344440699 -0.190046012 0.108324528 0.00055897719 150 106 68 0.576681256 
-0.111979946 0.328348875 -0.136809513 0.000743297394 191 134 92 0.333836675 
0.195098683 -0.0232029296 -0.204502359 0.000946594053 179 97 62 0.527515292 
-0.565152168 0.323456407 0.260030597 0.000896015321 184 141 94 0.307993561 
-0.536356628 0.287201226 0.213694438 0.00079541211 187 131 85 0.327788174 
0.0657648444 -0.0521666855 -0.0570474267 0.000762005337 180 128 81 0.533825099 
-0.115927704 0.175153539 -0.00969890878 0.000560057873 152 63 32 0.409641236 
-0.159073323 0.511914015 -0.124192193 0.000715048751 175 108 63 0.239771336 
-0.161599115 0.682575107 -0.00601071492 0.000590545882 211 166 105 0.15489243 
-0.61423111 0.436774373 0.312621653 0.000680581899 142 64 39 0.248677209 
0.498346925 -0.0220357291 -0.39856714 0.000753662316 172 95 63 0.545854509 
-0.492910385 -0.312996656 0.195898399 0.000626547728 158 98 58 0.628455162 
0.418959916 0.0667136535 -0.313781798 0.00101420505 152 79 47 0.496843904 
0.0378139764 -0.712382913 0.0296749193 0.000333117001 177 109 70 0.859832704 
0.0968421698 -0.0433722436 -0.143346936 0.000461708056 173 83 47 0.531398058 
-0.160719588 0.66336453 -0.0505883694 0.000772831962 147 60 33 0.164484024 
-0.642307222 -0.476576388 0.403904498 0.000959916331 173 134 90 0.700340807 
-0.635934174 -0.4896819 0.398943126 0.000338245649 157 53 24 0.707244337 
-0.0811803117 0.0344875455 -0.0707308576 0.000649232185 182 136 98 0.481639892 
0.632716298 -0.0709813014 -0.461586714 0.00110869983 167 92 55 0.578535438 
0.156795397 -0.0235955864 -0.13098456 0.00095375214 169 119 74 0.52532059 
-0.515111506 0.315696627 0.220442131 0.000984117622 157 57 29 0.314967632 
-0.625079036 0.37835297 0.322334111 0.000778293586 166 122 80 0.277002633 
0.157940969 0.0224124193 -0.13498807 0.000650458271 160 81 49 0.50255233 
-0.342504025 -0.143710122 0.163756967 0.00108705705 177 86 50 0.55379951 
-0.525858998 0.233913884 0.238180429 0.000931027753 186 100 59 0.354896545 
-0.561522841 0.414243609 0.267635405 0.000754066801 142 43 19 0.263150483 
-0.582878232 -0.387801945 0.232214883 0.000623825239 153 82 49 0.659978032 
0.438357353 0.0319803841 -0.321974039 0.000532776467 154 58 29 0.515296698 
0.442879081 0.028319627 -0.346035898 0.00100297993 201 135 82 0.517396092 
-0.22689949 -0.147228763 0.0876268223 0.000673034752 193 158 107 0.562758446 
-0.645255089 -0.526426494 0.433283508 0.000863946974 170 128 84 0.724904001 
0.0780512542 0.00133861136 -0.131790847 0.00130812568 166 106 65 0.508029938 
-0.542081296 -0.312000841 0.179042146 0.000940473692 170 115 72 0.624893188 
0.262694776 0.00719613302 -0.218002453 0.000933511183 164 73 42 0.516641378 
-0.648996592 -0.502311826 0.432397902 0.000872997683 162 111 71 0.712699234 
-0.645300269 0.438254863 0.384030938 0.00075893139 198 158 105 0.246003971 
0.694306493 -0.128786236 -0.523447275 0.000855115009 215 181 144 0.611073971 
-0.283532202 -0.113652609 0.108908676 0.000738979666 197 149 97 0.542557061 
-0.673722625 -0.505080879 0.436116636 0.000508868485 176 140 94 0.712531328 
-0.157917827 0.576943755 -0.0595572218 0.00058559631 99 53 28 0.207560748 
-0.158963323 0.760589778 0.00713997521 0.000854959304 154 115 76 0.116328046 
-0.219905898 0.97882539 0.0170052256 0.000673571834 199 164 113 0.00418721838 
-0.315350652 0.0302724615 0.0979508609 0.000750546984 170 115 72 0.469123274 
0.216494516 0.0495813601 -0.212234482 0.000574309379 167 101 70 0.492717773 
-0.657695651 0.451409936 0.364768267 0.000595548423 143 46 21 0.238700107 
-0.512873471 0.280528307 0.253090084 0.000862493122 162 99 59 0.332565844 
0.0479224324 -0.0473530218 -0.0985176563 0.000873667828 143 58 38 0.530322313 
-0.142255619 0.581780553 -0.0564148799 0.00101042085 162 79 47 0.206136689 
-0.0467980094 0.196030155 -0.0668286234 0.000814735657 171 109 65 0.403590202 
-0.496534646 -0.283245057 0.180050343 0.000789763173 166 57 26 0.613459408 
-0.149336949 0.75899905 -0.00131642446 0.000805550721 159 60 32 0.117718242 
0.141783938 0.0257678926 -0.183979809 0.000632036594 159 84 45 0.499878556 
-0.53888613 0.357292533 0.269052953 0.000203888165 211 147 91 0.292834967 
0.0679054707 -0.612678587 -0.0129504502 0.000606631394 189 129 89 0.812213838 
-0.132640421 0.743745208 -0.00892525539 0.000781532901 181 113 68 0.126332358 
-0.634909153 -0.456653327 0.290345907 0.000460944488 170 115 72 0.690911829 
-0.144590855 0.646294117 -0.0627262667 0.000665172411 165 81 49 0.173964515 
-0.554500639 0.386640131 0.273141056 0.000849971315 161 79 47 0.277291775 
0.0452932715 -0.744017243 0.0765358582 0.00084745296 149 69 40 0.876003563 
-0.146496713 0.632288456 -0.0703460053 0.000710376771 159 71 41 0.180798441 
0.454866052 0.0327858366 -0.30902499 0.000585982343 157 61 32 0.515926778 
-0.0119233727 -0.268496394 -0.00374986231 0.000747880084 186 129 81 0.636371017 
-0.639609873 -0.425084233 0.274063349 0.000811646518 195 129 76 0.674946725 
0.14621754 0.0265868753 -0.127386704 0.000559503562 170 79 46 0.499748588 
-0.620580614 -0.439652771 0.248478264 0.000919528655 156 87 52 0.683366239 
0.496446848 0.00517478352 -0.337235808 0.000648181129 185 139 100 0.532227814 
0.71905458 -0.176712483 -0.527725697 0.000520506524 203 149 95 0.636409938 
-0.583952367 -0.408542782 0.198230505 0.00072239642 180 110 68 0.670207381 
-0.673014164 0.420196921 0.390534937 0.000464916986 152 71 41 0.253239512 
-0.633403718 0.444359392 0.337023735 0.000780952221 165 101 59 0.243715703 
-0.132681638 0.133283406 0.0241639577 0.000950862304 212 164 120 0.429381609 
0.452899814 0.0600194819 -0.332922459 0.000392849208 181 81 44 0.502284527 
0.275400817 0.0294364616 -0.249860957 0.000979990698 194 134 82 0.506393313 
0.221029893 0.0534989163 -0.191682264 0.000702681136 168 92 66 0.491055906 
0.47404778 0.0239694975 -0.319402635 0.000670443813 181 116 70 0.52150017 
0.155114487 0.0368725061 -0.146103784 0.000961911166 198 146 107 0.495197535 
-0.497612298 0.295112789 0.217111334 0.000916073564 200 172 134 0.326277763 
-0.118879795 0.400422007 -0.094389677 0.000891292118 165 76 42 0.297626942 
-0.675597012 -0.48988235 0.416589916 0.000962841325 167 81 47 0.70486939 
-0.677843571 0.459545553 0.441419542 0.000519601279 158 75 44 0.233404338 
0.442472517 0.0494012684 -0.351929843 0.00245865947 192 150 101 0.506905198 
-0.243012622 -0.1647899 0.105346411 0.000789100479 189 141 101 0.570471108 
-0.643782616 0.441851795 0.341935039 0.000409388216 193 155 104 0.244313017 
0.0490232706 -0.0360005684 -0.106911346 0.000806965807 156 107 67 0.524755299 
-0.628896654 -0.474849612 0.341908991 0.000905981113 179 113 66 0.700320125 
0.084156096 -0.0282948948 -0.140051842 0.000978359603 142 57 31 0.523121774 
0.507900655 -0.0223009959 -0.409549892 0.000903002743 162 84 53 0.546582222 
-0.15374501 -0.206220597 0.106364317 0.000837862375 182 127 80 0.596607625 
0.48567456 0.00306498678 -0.388705432 0.000851318007 136 53 28 0.532603145 
0.269100904 0.0243248157 -0.246649131 0.000879695639 176 123 84 0.508537829 
-0.423501074 -0.268258601 0.167880282 0.00036225756 190 139 90 0.610576034 
-0.640689373 -0.501812994 0.375577152 0.000824825314 170 115 72 0.712969899 
-0.156066224 0.569985092 -0.0966066271 0.00162920635 174 102 74 0.211130723 
0.215368345 0.00990815088 -0.156792045 0.00133015122 123 79 48 0.512342513 
-0.140829101 0.507197559 -0.0832037479 0.000903142267 208 164 98 0.243250951 
0.0580732077 -0.267129451 -0.0405417755 0.000679306686 166 101 60 0.640059233 
-0.499623537 -0.303482592 0.184188142 0.000729665742 164 103 62 0.623313248 
0.523368359 -0.0342259295 -0.436070442 0.000761193223 191 118 68 0.553467095 
0.288537085 0.0112260235 -0.238009289 0.000911111478 143 61 34 0.516253054 
-0.129488856 0.585668266 -0.0820926577 0.000539354165 201 130 75 0.205003187 
0.54153055 -0.0574074164 -0.44027549 0.000211514314 173 124 79 0.566108167 
-0.1341829 0.571469665 -0.0677071363 0.000705446466 138 88 53 0.211758956 
-0.609586835 0.407493889 0.279122591 0.000845625938 171 62 29 0.263502687 
0.154119447 0.0336257778 -0.153619885 0.00086653023 196 134 83 0.496747255 
0.0167259201 -0.0319490172 -0.0896788985 0.000880069274 158 87 48 0.520729065 
0.305198133 0.03555502 -0.262482345 0.000889769522 136 50 25 0.50521481 
0.305651307 0.0508499593 -0.221421525 0.000681475154 132 44 21 0.497650206 
0.0971009433 -0.0431352369 -0.095646441 0.000829308352 165 62 31 0.531296551 
-0.540974081 0.303542167 0.219893381 0.000823973212 155 58 31 0.319387972 
0.11197257 -0.419956535 -0.0091269128 0.000952108356 172 113 78 0.719289958 
0.412220359 0.0346150249 -0.324687243 0.000882126624 196 134 82 0.512358189 
-0.564471543 0.377783477 0.297047913 0.000797662884 158 68 37 0.281066447 
0.43445152 0.0381572321 -0.306201875 0.000695749011 142 57 30 0.511986673 
0.432634711 0.0615752488 -0.305882335 0.000922858948 165 84 51 0.500247896 
-0.15597114 0.437880754 -0.096810922 0.000252838188 181 134 98 0.276717275 
0.459630609 0.00966923684 -0.345365763 0.000657931145 152 71 41 0.527699769 
-0.427322507 0.15017195 0.204206929 0.000620011357 170 64 31 0.402615964 
-0.64788419 -0.4921875 0.362579823 0.000553765567 186 106 64 0.707742572 
-0.581022322 0.41886729 0.281640589 0.000623863249 186 102 58 0.259638578 
-0.129823059 0.657914877 -0.046298556 0.000625718501 198 154 95 0.169116929 
0.435385466 0.0135838464 -0.340293884 0.000335768797 168 99 67 0.524243891 
-0.264587939 0.0623745471 0.117449425 0.000961235317 170 123 80 0.456353754 
0.083432287 0.00796077028 -0.166118547 0.000946273911 174 121 76 0.505078197 
0.141004995 -0.030849386 -0.110431671 0.000675080228 137 47 23 0.527936459 
-0.628243268 0.437677532 0.321782112 0.000822348869 172 129 84 0.247354671 
-0.0919782519 -0.00461488962 0.137722462 0.000567305891 172 113 70 0.500377834 
-0.153392673 0.72743398 -0.0229508206 0.000522001996 186 137 89 0.13313511 
-0.428142786 0.0847476572 0.178983867 0.000881185348 180 106 57 0.435043395 
-0.157426894 0.622373402 -0.0390804559 0.000864428759 203 166 128 0.185038671 
-0.826359987 0.586700439 0.557139218 0.000609431183 168 108 66 0.161015317 
0.243239209 0.0572642274 -0.206232741 0.00080587843 150 103 66 0.490572274 
-0.0903946161 0.0903831795 -0.0312092677 0.000655273849 146 104 65 0.453316718 
-0.594200552 0.375436425 0.271861315 0.000871577533 205 144 90 0.280376881 
-0.237460241 -0.12603645 0.135904014 0.000811740058 145 98 62 0.551579118 
-0.639992297 -0.493103743 0.425789595 0.000906589092 156 100 61 0.708689809 
-0.232049391 -0.170270026 0.131159678 0.000844496535 165 68 34 0.573875546 
0.0746626407 -0.0345116369 -0.128467068 0.000910621195 171 81 46 0.525615692 
-0.0494538397 0.0940284505 -0.0316700637 0.000470651605 190 133 82 0.45406127 
0.19911842 0.046981696 -0.184155807 0.000715345668 161 83 51 0.492924303 
-0.364299536 -0.212674916 0.192371741 0.000655906624 121 67 38 0.586676002 
0.13790822 0.0252103675 -0.177243292 0.000648731249 153 87 48 0.499913543 
-0.148057386 0.624238014 -0.0737963989 0.000832268735 172 89 52 0.184697554 
0.199855998 0.00772961928 -0.148729324 0.000832514837 182 134 86 0.512456238 
-0.636211872 -0.490036249 0.390524864 0.000732661807 135 39 17 0.707402945 
-0.677636623 -0.506377757 0.420390546 0.000365039858 170 83 47 0.712930977 
0.386932611 0.0442334153 -0.305659235 0.0010067228 167 63 30 0.506005704 
-0.104933515 0.186198458 -0.0446501747 0.000815881533 172 102 61 0.404844105 
-0.407815754 -0.182906389 0.176985249 0.000754301902 169 68 34 0.569183171 
-0.497101307 0.23424679 0.235700861 0.000704049831 164 75 42 0.356525391 
-0.625043809 0.405764669 0.297602654 0.000775795779 175 80 45 0.2633968 
-0.0816240758 0.219302014 -0.0205991156 0.000834447274 183 122 70 0.389864683 
-0.0951017812 -0.176485077 -0.0730523616 0.000909614551 195 162 125 0.585504591 
-0.826927781 0.576331913 0.55260241 0.000950955204 180 132 86 0.16612719 
0.854554296 -0.222275436 -0.627215803 0.000931662624 173 129 84 0.667482138 
-0.267427921 0.0376146771 0.178665265 0.000668582274 135 103 67 0.4684681 
0.447086453 0.00946924929 -0.34016192 0.000698576448 185 119 71 0.527016461 
0.0857618451 -0.311066777 -0.0245814845 0.000629479764 138 49 24 0.663598537 
-0.0961248875 0.0702355579 0.0730338022 0.000929568196 176 96 59 0.462961137 
-0.300705969 0.0274696164 0.0963895917 0.000313519384 155 89 63 0.471428305 
0.262456596 0.0575304143 -0.260123014 0.000438195886 176 119 72 0.491639048 
-0.644982159 -0.515691698 0.395334959 0.000860042928 193 153 103 0.719591916 
-0.633039415 -0.429218531 0.246239707 0.000586919254 169 120 77 0.677409053 
-0.124054566 0.270964801 -0.047956109 0.000674442737 165 108 69 0.361570597 
-0.63727057 -0.43463695 0.306321859 0.000804196054 195 127 64 0.679835021 
0.270790339 0.060909342 -0.206765473 0.000717667339 147 58 32 0.490481555 
-0.29941088 -0.155032665 0.0889804959 0.000581853499 167 114 71 0.562108815 
0.304704189 0.0452586412 -0.265415847 0.000920125924 170 115 72 0.500366807 
-0.301805913 -0.151553676 0.10957472 0.000937569479 137 39 17 0.560232282 
0.0474866033 -0.429599255 0.00356767699 0.000426675921 165 98 56 0.720053792 
0.183909491 0.0145867653 -0.146544054 0.000338414189 133 68 36 0.508057296 
0.728371561 -0.179052517 -0.51363349 0.000856024912 184 121 74 0.638152897 
-0.641627669 0.446306646 0.363552094 0.000917915604 169 130 86 0.242235929 
-0.801262021 0.586074114 0.572339296 0.00066784682 206 167 112 0.162892073 
-0.134180441 0.650537908 -0.0225662403 0.000312487799 188 148 100 0.172507241 
-0.13434352 0.72004962 -0.0229060501 0.001576368 205 153 113 0.137989298 
0.0797519237 -0.0553764552 -0.0977914035 0.000886874041 141 109 72 0.536291122 
0.526636302 -0.0397534557 -0.431722999 0.000391437032 176 103 58 0.556414962 
0.344234705 0.055259373 -0.291534245 0.000748553313 166 82 47 0.497868299 
-0.236322343 -0.180822968 0.122446433 0.000890427793 186 140 94 0.578847766 
-0.671019912 0.425635159 0.367825866 0.000597949023 130 34 14 0.250664204 
-0.130209178 0.745962441 0.0188045483 0.000877420127 188 130 79 0.125383317 
0.154537275 0.030980777 -0.205978677 0.0010337499 175 83 48 0.498086363 
-0.0865936503 0.351731151 -0.0837986693 0.000628302805 160 64 34 0.323812783 
-0.582853615 0.369824797 0.249919847 0.00069010834 152 84 47 0.283870548 
-0.164990261 0.576386213 -0.0854242519 0.000574645412 156 92 53 0.207396269 
-0.401647329 -0.264404565 0.15922153 0.000825520721 160 58 28 0.610026181 
-0.64037925 -0.514182866 0.407071054 0.00103293289 151 59 31 0.719130039 
0.438759625 0.0246860571 -0.343011022 0.000235966261 169 99 57 0.518942952 
-0.240326211 -0.176759213 0.132666856 0.000651820505 178 106 59 0.576580644 
-0.473787785 0.237556189 0.197843507 0.000369523827 171 83 48 0.356336951 
-0.617460787 0.417266488 0.34841013 0.00101479795 154 109 71 0.258160055 
-0.220817044 0.066907689 0.0230887383 0.000716471637 202 151 97 0.456834048 
-0.237791702 -0.154977158 0.154107049 0.000982698519 170 92 57 0.565925419 
0.369737625 0.0367448367 -0.297986567 0.000871098309 172 111 69 0.508650541 
-0.661470175 -0.492986739 0.426024199 0.000793997606 157 96 58 0.707291782 
0.248862758 0.0552097037 -0.232527867 0.000551312114 196 154 104 0.491943032 
-0.726213396 0.493312925 0.51170361 0.000705232029 161 91 50 0.213623568 
-0.485658944 0.244572818 0.232013941 0.000403656624 163 90 65 0.352113098 
0.00607436895 -0.247206479 0.0110621825 0.000671020418 178 114 69 0.626924872 
-0.646929622 -0.552336097 0.455414176 0.000847265124 159 105 65 0.737661779 
0.182276025 0.0411463529 -0.174085781 0.000988864573 154 73 46 0.494770408 
-0.560904562 0.314749718 0.252799213 0.000698137563 197 135 93 0.312580824 
0.448015034 0.0268174931 -0.350529194 0.000862263492 170 93 54 0.518462241 
-0.659228981 -0.474309266 0.404734373 0.000429411099 209 165 110 0.698159575 
0.132251024 0.0248353146 -0.185071349 0.000981691759 156 92 52 0.499746799 
-0.162267074 0.683208704 -0.0224293731 0.000362645369 175 128 85 0.154536203 
0.0719124079 -0.380543828 -0.0349783152 0.00105121336 192 128 78 0.697224975 
0.286377966 0.0352717414 -0.256724775 0.000954856456 181 112 65 0.504181266 
-0.50879854 -0.306545973 0.184502572 0.000770499522 193 135 85 0.624261618 
0.0978573114 0.0101882676 -0.14984411 0.000651482027 179 115 70 0.504872322 
-0.62651068 -0.44333005 0.32111299 0.000768305967 174 87 50 0.684821725 
-0.610940397 0.389495522 0.318245649 0.000931409188 130 45 23 0.272353202 
0.0516389757 -0.0437953286 -0.10449414 0.00066958979 140 53 30 0.52878803 
0.107842714 -0.531116962 0.020069411 0.0010463642 178 110 62 0.774215639 
-0.657315075 0.455155224 0.368767202 0.00091573986 171 87 45 0.236864567 
-0.674201787 -0.472815782 0.399196088 0.000645096879 172 63 31 0.696484089 
-0.575275481 0.370877326 0.249389425 0.000782469986 172 82 48 0.283820808 
-0.159428671 0.563752711 -0.0666233897 0.000816503947 179 70 34 0.214014888 
-0.56353581 -0.342112958 0.204353586 0.000999393757 170 61 29 0.638503253 
0.0324273705 -0.0397871733 -0.0888465494 0.00097023556 191 152 102 0.525599718 
0.180180743 -0.0282704905 -0.180050418 0.00077945774 187 117 68 0.529100299 
