ply
format ascii 1.0
comment created by gply, a Houdini tool.
comment converted from .[b]geo
comment for more information about Houdini, try:
comment www.sidefx.com
element vertex 583
property float x
property float y
property float z
property float depth
property uchar red
property uchar green
property uchar blue
property float length
element face 0
property list uchar int vertex_indices
end_header
-0.00744276168 0.0144998822 -0.00474768924 3.59566184e-06 221 67 6 0.30339849 
-0.00665309839 0.0201802943 -0.0079626767 1.97518384e-05 235 60 6 0.177513838 
0.00370512041 -0.00603538519 0.00610356219 9.07905269e-06 254 254 254 0.728285372 
-0.00408210326 0.00737802405 -0.00756832771 3.37144593e-06 239 66 7 0.192954794 
-0.00379866152 0.0203393623 -0.0105417008 6.78672222e-07 224 64 6 0.0765306875 
0.00042224655 0.0238183029 0.000346983259 6.90243905e-06 242 92 11 0.502883255 
-0.00297424477 0.0187875628 -0.010555163 1.23484642e-05 229 96 12 0.0760035738 
-0.00597815681 -0.00329749146 -0.00205900776 1.26963714e-05 217 217 217 0.408675313 
-0.00497194147 0.0116306506 -0.00809754431 6.96210191e-06 237 69 7 0.172233015 
-0.000209006452 -0.0348498635 0.00487152906 4.47194179e-06 129 129 129 0.680044413 
-0.00519240228 0.00702558598 0.0036190385 5.80854248e-06 244 106 14 0.631002426 
-0.000115782736 -0.00412273267 0.00710862642 8.116549e-07 252 252 252 0.767639279 
0.00189361197 0.00109008932 -0.00510188937 2.0881067e-05 254 254 254 0.289529592 
0.000894735218 0.0131986747 -0.00906544272 1.04273204e-06 200 72 13 0.134334415 
-0.00715237018 0.0228408463 -0.00734638749 1.6472768e-06 246 70 8 0.201644987 
-0.00684426539 -9.56116855e-05 0.00159703149 1.36698363e-05 246 246 246 0.551829636 
0.00785834622 -0.0186302885 0.00503077777 9.98959877e-07 254 254 254 0.686279893 
-0.00655627111 -0.00255560642 -0.000929289788 9.30565875e-07 220 220 220 0.452910095 
-0.00471916609 -0.0111427661 0.0051340987 1.38301402e-07 254 254 254 0.690325499 
-4.24456266e-05 0.0335666724 -0.00274942117 1.70186104e-06 254 176 80 0.381641805 
0.000877840561 0.0013462893 0.00543833617 6.9095986e-06 251 251 251 0.702238142 
-0.000129429929 0.00378422695 -0.00665774709 -0.000581489468 242 79 10 0.2286091 
-0.0040667695 0.0239446275 -0.0109982677 3.11835902e-06 231 89 10 0.0586535409 
-0.00442197826 0.00217105448 0.00473241508 9.04023182e-07 251 251 251 0.674597323 
0.00436505442 0.0263992809 -0.00444392208 5.37838787e-06 250 95 12 0.315292656 
-0.00227051997 -0.0324320719 0.0070571946 6.22519292e-06 247 247 247 0.765625417 
0.00175326446 0.0248306971 -0.010675123 2.94530764e-08 251 157 28 0.0713064447 
-0.00414884696 0.0209886935 0.000415733928 1.53655128e-05 237 126 18 0.50557524 
-0.00736813061 0.00219694315 -0.000830651144 1.40734483e-06 245 245 245 0.456772327 
-0.0075562587 0.0275236741 -0.00682597328 5.27827069e-07 225 94 11 0.222022086 
0.00261707371 0.0227041189 -0.00974445697 6.78549986e-06 243 82 9 0.107747212 
-0.00721616624 0.0223986227 -0.00360272732 6.82903919e-06 244 76 10 0.348230124 
0.0004944065 -0.00513006281 0.00730230007 2.46406562e-05 227 227 227 0.775222659 
-0.00103555783 0.019938333 -0.0109282332 1.34650327e-06 242 74 8 0.061395783 
0.00168103608 0.00393743766 -0.00578028429 -0.000427347375 247 85 10 0.262966633 
-0.0065442035 0.00502925785 0.0023899714 1.8541934e-05 250 250 250 0.582877636 
-0.0052637551 0.0190674588 -0.00941441488 3.28291208e-06 253 113 20 0.120670214 
0.00742681138 -0.0340167731 0.00545427576 1.09719986e-06 118 118 118 0.702862203 
0.00241137506 -0.0349410996 0.00332169491 7.7628647e-07 162 162 162 0.619359851 
0.00240165973 0.0270489156 -0.0103983125 2.26899283e-06 248 82 10 0.0821451321 
-0.00518528745 -0.00430366118 0.00470680138 2.58657383e-06 253 253 253 0.673594415 
0.00910873152 -0.02855964 0.00741936034 3.99537385e-07 254 254 254 0.779806256 
-0.00612149341 -0.00289070047 -0.00197570655 3.91388312e-07 218 218 218 0.411937058 
0.00666699698 -0.0343872234 0.003999901 1.52600114e-06 87 87 87 0.645915329 
0.00514974399 -0.027507294 0.000469142979 1.15522707e-05 255 255 255 0.507666469 
0.00261459243 0.0278971102 -0.0102671459 1.1531054e-05 229 86 10 0.0872810259 
-0.00753053837 0.0270871725 -0.00684973923 1.36657618e-05 253 132 21 0.221091539 
-0.000358444231 0.0103774583 -0.00873914175 1.30736444e-05 239 106 16 0.147110894 
0.00588107482 -0.0329160541 0.00167206337 3.43742431e-06 254 254 254 0.554767549 
0.00360794272 -0.00867499504 -0.00266227196 2.11846782e-05 254 254 254 0.385054171 
0.00404503429 0.0287753642 -0.00808809046 1.84641685e-05 250 83 10 0.17260319 
0.00508604478 -0.00781232538 -0.000967445492 2.24006362e-06 254 254 254 0.451416075 
-0.00568454573 0.013910559 0.00104600971 9.87551175e-07 242 76 8 0.530254066 
0.00525382208 -0.0072876825 0.00459335325 7.9034362e-07 253 253 253 0.669152319 
0.00311856787 -0.00608383026 0.00657713413 8.66083428e-06 249 249 249 0.746828318 
0.00342004071 0.0151404468 -0.000149142972 1.10890833e-05 249 86 11 0.483457178 
-0.00214887178 -0.00118565268 -0.00560871791 2.50753947e-05 254 254 254 0.269684434 
0.00235138484 0.0242617782 -0.000765236502 1.08704553e-05 254 166 30 0.459333688 
0.00527578639 -0.00685907155 -0.000467826991 1.54097725e-05 252 252 252 0.470978916 
-0.000758839247 0.0280183163 -0.0119827902 3.03798879e-05 235 90 11 0.0201039966 
-0.00577776507 0.0260112081 -0.00154624193 8.97049904e-06 240 85 10 0.428752989 
-0.00607916852 0.0290101599 -0.0102721509 3.71830538e-07 238 65 7 0.0870850682 
0.00489857141 -0.00506586302 0.00404525828 1.30431727e-06 254 254 254 0.647691309 
-0.00126532197 0.00438939966 -0.00718739815 2.31026206e-07 240 69 8 0.207870305 
0.000198311274 -0.0241077691 -0.000132632747 5.68688847e-07 254 254 254 0.48410362 
-0.00556361489 -0.00380269904 -0.00253022602 1.70720159e-06 232 232 232 0.390224516 
0.0022020943 -0.00331139704 0.00623017969 1.34222792e-05 241 241 241 0.733243167 
-0.0019839108 -0.028118832 0.00898903981 1.18785538e-05 238 238 238 0.841267884 
-0.00235610851 -0.00219945284 -0.00529671041 2.17776687e-06 254 254 254 0.28190124 
-0.00181145489 -0.0232975576 0.00907626376 8.27945769e-07 254 254 254 0.84468323 
0.00228286232 0.0199288484 6.6693472e-05 1.56899914e-05 243 87 10 0.491908371 
-0.00282082264 -0.0253835469 0.00710286992 3.00037209e-06 251 251 251 0.767413855 
-0.00248294137 -0.0298962593 0.00719719473 -5.40167093e-08 225 225 225 0.771107197 
0.00145663554 -0.00830796082 -0.00379325706 1.19027973e-05 254 254 254 0.340769827 
0.00216742628 -0.0262364913 0.0117631117 1.74509114e-05 248 248 248 0.949888289 
0.00594706694 -0.0168949105 -0.000127584994 7.89074693e-06 255 255 255 0.484301299 
0.00443418277 0.0268773362 -0.00657556672 1.14872819e-06 252 101 15 0.231826916 
-0.00317259505 -0.0229371507 0.00349327317 -5.1013194e-07 249 249 249 0.62607801 
0.00497597177 -0.00629748218 0.00458747474 8.93720426e-06 254 254 254 0.668922126 
0.00290240045 0.0337856896 -0.00421565259 1.3642456e-05 254 173 76 0.324230671 
-0.00164314231 0.0259155966 -0.0118072275 8.60788532e-07 242 81 9 0.0269782692 
-0.00321176881 -0.00303985341 0.0062261452 1.51710119e-05 249 249 249 0.733085215 
0.00398616865 0.00436738832 -0.00180612993 -1.28487591e-06 250 250 250 0.418576926 
0.00763092283 -0.0337142013 0.00681372499 2.20404036e-06 119 119 119 0.75609225 
0.00386840943 -0.00573421689 0.00583427399 8.30227509e-06 254 254 254 0.717741251 
0.00406036945 -0.00309223915 -0.00247891434 9.72101407e-06 254 254 254 0.39223367 
0.00408122409 0.0157228746 -0.0064574522 6.82336395e-06 249 89 11 0.236451745 
-0.00481813215 -0.00991841871 0.00510015013 3.44763976e-07 254 254 254 0.688996255 
-0.00171210279 -0.0336139277 0.00500782859 1.47272949e-05 253 253 253 0.685381293 
-0.00670519145 -0.00237884745 -0.000293580117 1.91677827e-05 221 221 221 0.477801651 
0.00662747631 -0.0135104191 0.00135178841 8.6594373e-06 251 251 251 0.54222697 
0.00335682603 -0.031141283 0.0128679583 2.11931092e-06 250 250 250 0.993149161 
0.000338820129 -0.0293781608 0.00122995267 8.55419785e-06 254 254 254 0.537456453 
0.00847887341 -0.029848326 0.00978903007 1.51104177e-05 254 254 254 0.872592032 
0.000149412008 -0.0278031491 0.000906194153 1.20750046e-05 254 254 254 0.524779499 
-0.00352649088 -0.0163442418 0.000388048589 2.43184622e-05 254 254 254 0.50449121 
0.00141679088 -0.0333524719 0.0113028483 2.41822272e-06 43 43 43 0.931866407 
0.00363752502 -0.00333891925 -0.00302822213 1.9952422e-06 254 254 254 0.370725185 
0.00442540366 0.0278966073 -0.00640391558 1.69180566e-07 236 103 13 0.238548011 
0.00725036161 -0.0188488793 0.00723657245 6.7219371e-06 254 254 254 0.772649109 
0.00576606626 -0.0285578854 0.0118194064 7.02834222e-06 250 250 250 0.952092469 
-0.000215881999 0.0211004242 -0.0109945396 1.22233178e-06 227 121 16 0.0587995127 
0.00253738859 -0.0268615689 0.0119380103 1.7364393e-05 231 231 231 0.956736505 
0.00380036212 0.020564571 -0.00177451805 3.94287053e-06 238 92 11 0.419814706 
0.00475666439 -0.00120625563 -0.000526598946 2.57881766e-07 233 233 233 0.4686777 
0.000999997486 -0.0284096003 0.000655089098 1.43448124e-05 254 254 254 0.514947355 
0.00133142923 0.0184051841 0.000979310367 1.36037124e-06 247 85 10 0.527642429 
0.00553715602 -0.0339346714 0.00673707854 -1.05988875e-07 59 59 59 0.753091097 
-0.00354204071 0.0215352383 -0.0108438749 5.84346708e-07 240 73 8 0.064698875 
-0.00769127905 0.00641420763 -0.00313476217 7.58771785e-06 227 64 7 0.366553545 
-0.00333661749 0.00337046199 0.00503355823 1.36772287e-05 251 251 251 0.686388791 
0.00411512936 0.0332313851 -0.00712996442 1.00450707e-05 241 93 11 0.210119158 
-0.00468087941 0.0171917286 -0.00948583428 3.25571455e-06 230 70 7 0.117873728 
-0.00447856495 -0.0090447003 0.0056888382 3.79688572e-07 254 254 254 0.712046564 
-0.00706971437 -8.35935934e-05 6.66743144e-05 9.50973481e-06 241 241 241 0.491907656 
-0.00699795084 0.0250856131 -0.00821453799 1.7832499e-06 246 77 9 0.167652041 
0.00373286684 -0.000612264499 -0.00300327595 9.88889951e-07 240 240 240 0.371701986 
-0.00654436927 -0.00345405028 -9.05047273e-05 1.02518825e-05 235 235 235 0.485753179 
0.00124925422 0.0273656342 -0.0112428507 1.19991601e-05 253 82 10 0.0490767658 
-0.00440795859 0.000928983674 -0.00538607268 1.06811058e-07 254 254 254 0.278402209 
-0.00320092472 0.0307818074 -0.0121783111 7.3852425e-06 245 69 7 0.0124482857 
0.000108011285 0.0208291225 -0.0108741941 1.39403564e-05 224 82 9 0.0635117069 
0.00297788996 0.00730358949 -0.00568817928 1.83295924e-05 226 84 9 0.266573071 
0.00515546417 -0.00449166307 0.00293544563 1.20152254e-06 254 254 254 0.604236007 
-0.00747739337 0.0284356978 -0.00756415026 2.10788567e-05 243 86 11 0.193118364 
-9.2075381e-05 -0.00623835484 0.0075947945 1.68923498e-06 245 245 245 0.786675453 
0.00343394629 0.0203233864 -0.00117662689 3.31719639e-06 241 101 13 0.443225443 
0.00481104059 -0.0344076194 0.00482305139 -1.05574145e-07 85 85 85 0.678146243 
0.00528220832 -0.00409022672 0.000812314625 1.64931334e-05 254 254 254 0.521103561 
-0.00762395561 0.0282151829 -0.00648540212 2.49186996e-07 254 79 10 0.235357359 
-0.00269769714 0.0207171701 -0.0109538054 4.00574936e-06 246 79 9 0.060394492 
0.00352337747 0.0232772473 -0.00874998886 -4.72646207e-08 236 80 9 0.146686196 
-0.00442687795 0.0219754484 -0.0105033899 1.82681251e-05 212 67 6 0.0780307874 
-0.00196811766 -0.0337181091 0.00590409199 6.64393883e-06 244 244 244 0.720475018 
-0.00643510604 -0.0045010373 0.000647148292 1.41326746e-06 247 247 247 0.514636397 
0.00382897607 -0.00123014546 0.00398892257 1.19662145e-05 240 240 240 0.645485461 
0.00251164217 -0.0339672528 0.00796689745 -9.85965016e-08 100 100 100 0.801245332 
0.00397821423 -0.0337225683 0.00845788978 -1.19427568e-07 119 119 119 0.820470452 
-0.00200140919 -0.0336033069 0.00842417404 3.83419683e-05 214 214 214 0.819150269 
-0.00614128867 0.00356769701 0.00302535878 1.4079269e-06 248 248 248 0.607756555 
0.00554044312 -0.0328423604 0.0117877498 7.43474811e-06 21 21 21 0.95085299 
0.00354534597 0.0310789719 -0.00335502112 6.79428922e-07 254 103 15 0.3579292 
0.00315018697 -0.0334966145 0.00991001632 -1.05734216e-07 116 116 116 0.87732923 
0.000243695977 -0.0304214954 0.011696795 2.03694799e-06 253 253 253 0.947291613 
0.0028240059 -0.035011217 0.00267506135 6.06299727e-06 131 131 131 0.594040513 
-0.00664330041 0.0251191892 -0.00889712106 1.26259401e-05 238 75 8 0.140925124 
-0.000723526231 -0.0275834911 0.00145730225 7.06175342e-07 254 254 254 0.546358466 
0.0057711089 -0.0335318111 0.00854344293 -1.15760486e-07 66 66 66 0.823820233 
0.00377681386 0.0226872005 -0.0082845008 2.07812991e-05 254 85 11 0.164912626 
0.00547592295 -0.027412435 0.000592223136 -1.70257408e-09 255 255 255 0.512485802 
-0.00109732547 -0.024667101 0.00992806721 8.13067891e-06 254 254 254 0.878036082 
0.00595477782 -0.0346897505 0.00246795127 9.62847844e-06 139 139 139 0.585931003 
0.00446681073 0.0203921124 -0.00628940761 6.52705785e-06 233 93 11 0.243031621 
0.000834181963 0.0284073818 -0.000488768623 3.81964492e-06 247 100 14 0.470158964 
0.00702125765 -0.026643537 0.00152279693 1.64702069e-05 255 255 255 0.548922956 
-0.00271805399 0.00376938097 0.0051212986 1.23053906e-06 214 214 214 0.689824283 
0.00568820164 -0.02296835 8.5120133e-05 1.31400884e-06 255 255 255 0.492629886 
3.65341693e-05 0.02455125 0.000338690443 5.86209353e-07 242 91 11 0.502558589 
0.00436122436 0.0134764099 -0.00495981192 2.20406801e-05 235 85 14 0.295092702 
-0.00558107439 -0.00272395113 -0.00298281666 5.59724867e-07 247 247 247 0.372503042 
-0.00594787393 0.0304973815 -0.0106139928 3.11678741e-06 213 69 6 0.0737000555 
0.00222508563 -0.00395703968 0.00642190548 1.638924e-05 254 254 254 0.740750313 
-0.000374820869 -0.0330654979 0.00281688198 1.40722841e-06 254 254 254 0.59959358 
0.00742055383 -0.0197374523 0.00191257312 3.86184547e-06 254 254 254 0.564184844 
0.00760424323 -0.0247611851 0.00921029598 1.72553118e-05 254 254 254 0.8499313 
0.00320258294 0.0287747681 -0.00964393094 7.31641194e-06 253 94 13 0.111683361 
0.000923784333 0.0098750405 0.00318653532 -6.31553121e-09 242 93 12 0.614067554 
0.00330766011 0.0303502865 -0.00282479799 4.35055699e-06 247 95 12 0.378690392 
0.00445803767 0.0214325134 -0.00644804025 9.84122744e-06 245 166 28 0.236820281 
0.0015470722 0.0053508319 0.00381178339 3.50794289e-06 254 254 254 0.638549507 
-0.00748496084 0.0160909202 -0.00437803613 -6.84711267e-07 246 62 6 0.317872465 
0.00777457887 -0.0263462309 0.00955869816 1.34812435e-05 254 254 254 0.863573194 
-0.000355466269 -0.0349663571 0.00405439781 2.82693218e-05 89 89 89 0.648049176 
-0.00576052861 0.0220560152 -0.00948884618 1.66438986e-06 223 86 9 0.117755815 
-0.00574709848 0.0136983506 -0.00789892767 4.97420842e-07 219 77 8 0.180009946 
-0.000692722911 0.00571021996 0.00468624197 6.22557127e-06 254 254 254 0.672789395 
-0.00440814532 -0.00947444234 -0.00159622263 2.96556391e-06 252 252 252 0.426795959 
0.000505143951 0.00696571544 0.00413026335 2.45834235e-06 241 107 14 0.651019752 
0.00460240478 0.0200846512 -0.00417112932 2.74702325e-06 254 80 11 0.325974017 
0.00401232066 0.0249461252 -0.00302655064 1.14762224e-06 245 101 13 0.37079066 
0.00628238497 -0.00993722118 0.00207345304 8.80507287e-06 253 253 253 0.570484161 
0.00640833797 -0.0317845084 0.0123132383 1.51871354e-05 226 226 226 0.971428752 
-0.0073098396 0.0171643663 -0.00283783814 1.88141712e-06 227 66 7 0.378179789 
-0.00711757923 0.0290861949 -0.00875028595 -3.09664756e-08 242 69 8 0.146674559 
-0.00587578584 0.0264764782 -0.00169550965 3.99292912e-06 232 83 9 0.422908306 
0.00260831136 0.0199062042 -0.000200558366 1.39290933e-06 254 97 14 0.481443971 
-0.00333010498 -0.0229488555 0.00554449763 2.11875886e-08 253 253 253 0.706394911 
0.00367514184 0.0217133202 -0.00178315374 1.05591025e-05 252 87 11 0.419476569 
0.0008774132 0.020083867 0.000849644712 2.46358104e-06 250 98 13 0.522565305 
-0.000927003392 0.0110559342 -0.00901024695 1.74594752e-05 251 78 10 0.136495635 
-0.00482757669 0.0324679837 -0.00135758833 1.44696387e-05 240 96 13 0.436139822 
0.00807077251 -0.0239375811 0.00287541398 1.76150352e-05 254 254 254 0.601885438 
0.00313316542 -0.0284649152 0.000263619586 -1.82822077e-08 254 254 254 0.499619156 
0.00424104091 0.0185945071 -0.0067224321 2.49518198e-05 236 90 11 0.22607632 
0.00327527081 -0.00861181505 -0.00290669734 3.19053652e-06 254 254 254 0.375483572 
0.00156505441 0.0216927081 -0.0103937378 8.41624569e-06 236 78 8 0.0823242664 
0.00563552976 -0.00627784431 0.00127987145 3.7427526e-07 254 254 254 0.539411008 
-0.0064870026 0.019880563 -0.00818308257 1.3998826e-05 244 96 12 0.168883726 
0.00469333958 -0.00417846395 -0.00141022983 6.17722981e-06 253 253 253 0.434078574 
-0.000398646574 0.0230101552 0.00067529513 1.15189905e-05 252 96 13 0.515738487 
-0.00285773329 -0.00440893508 -0.00451537361 3.13229975e-06 254 254 254 0.312494934 
-0.00620856322 0.000114863236 0.00309230131 2.4328474e-06 254 254 254 0.610377729 
0.00420554075 0.0277065393 -0.00761011615 9.24570486e-06 252 71 8 0.191318542 
0.000443432888 0.0224641915 0.000568269927 1.2309989e-05 246 95 12 0.511547863 
-0.00743128546 0.0197593421 -0.00447624503 1.3213139e-05 242 79 9 0.314027041 
-0.0075453748 0.0287786499 -0.00498931576 1.89045677e-05 253 75 9 0.293937445 
0.00285200705 -0.00204510917 -0.00394116808 8.40882421e-06 240 240 240 0.334978282 
-0.000663382292 0.0205945913 -0.0109958323 2.33318315e-06 222 81 8 0.0587489083 
-0.0069188443 0.0193216652 -0.00726698805 2.85376445e-05 231 63 7 0.204753906 
0.00171427324 -0.00557552511 0.00713030668 2.01660441e-05 249 249 249 0.768488169 
-0.00173325406 8.63605892e-05 0.0060830093 1.37888128e-06 245 245 245 0.72748065 
-0.00523245707 0.0328400582 -0.0112459334 0.000105258776 254 179 86 0.0489560738 
0.00392223196 0.0209037047 -0.00205865083 9.81788617e-07 254 97 13 0.40868929 
0.00793136097 -0.0335443206 0.00746610016 1.32175774e-06 64 64 64 0.781636298 
-0.00214028568 0.0176387131 -0.0104968883 1.9176121e-05 236 80 9 0.0782853588 
-0.00198033592 -0.0340175703 0.00628938386 1.24528306e-05 254 254 254 0.735561371 
-0.000460222422 0.0237657353 -0.0114241512 8.76971171e-08 254 94 13 0.0419778191 
0.00867705978 -0.0248424802 0.00672903284 5.50423283e-06 254 254 254 0.752776086 
0.000561297522 -0.00753736449 -0.00413122773 -4.11788278e-07 254 254 254 0.327536374 
0.00914547406 -0.0325483233 0.00934150722 2.92611367e-05 254 254 254 0.855068982 
-0.00349780871 0.00609283429 -0.00745153427 1.12981652e-05 240 69 8 0.1975279 
0.000492508116 0.0332265757 -0.0119979642 0.00012874353 254 179 87 0.0195098612 
0.00165669352 0.0271400288 -0.000734962348 7.31903128e-07 254 100 14 0.460519075 
0.00252108392 0.0214547571 -0.00966538023 9.29171802e-06 241 77 9 0.110843517 
-0.00555824675 0.0307814311 -0.00171506149 -3.54630174e-08 247 83 11 0.422142744 
0.00948376767 -0.0323563218 0.00621555978 3.35853838e-06 254 254 254 0.732670724 
0.000746332575 0.00736164069 -0.00751236686 -1.15181319e-06 252 86 11 0.195145965 
0.00400873413 0.0303642489 -0.00423229951 1.58209587e-05 253 105 16 0.323578864 
0.0037849471 -0.0312787257 0.000866534887 1.74045053e-05 254 254 254 0.523226619 
-0.00327706849 0.0226146355 -0.0111039681 1.51716085e-06 242 79 9 0.0545147732 
0.0018451279 -0.0333920792 0.00158543489 7.81146809e-07 254 254 254 0.551375568 
0.00782623049 -0.0275600068 0.00250130403 1.79861672e-06 255 255 255 0.587236941 
0.0092977332 -0.0324480981 0.00892160926 2.11105216e-05 254 254 254 0.838627577 
-0.00598962931 0.0225233715 -0.00134512025 1.39196636e-05 253 126 21 0.436628014 
-0.000521818816 0.0214471146 -0.0111068282 3.7769787e-06 250 143 23 0.0544027835 
0.00217532413 -0.0350690559 0.00221431395 0.000115556504 113 113 113 0.575999677 
-0.00311644468 -0.00514072413 -0.00418153731 4.65656194e-06 254 254 254 0.325566471 
-0.00617067469 0.00313894288 0.00302304956 2.04881653e-05 254 254 254 0.607666194 
0.00323296757 -0.0335649326 0.00954766758 -9.36051947e-08 42 42 42 0.863141239 
-0.00432665879 0.00855067559 0.00364389108 1.79608469e-06 241 92 11 0.631975591 
0.00148601923 0.00449255574 -0.0061975834 5.02666808e-06 246 82 10 0.246627063 
0.00392891048 0.0328203812 -0.00473836949 2.99874227e-06 236 101 13 0.303763419 
-0.00681342464 0.00159206486 -0.00286497781 2.14367174e-06 240 240 240 0.377117097 
0.00410165126 -0.020323066 0.0103471382 1.10498513e-06 248 248 248 0.894445002 
0.0013942467 -0.0306299832 0.0123362578 4.40399162e-07 246 246 246 0.972330093 
-0.00707619917 0.00220271735 0.00128939108 2.0514708e-06 232 232 232 0.539783776 
-0.00441314187 0.023070747 -0.0106855053 3.48244794e-06 254 134 23 0.070899941 
-0.00703360047 0.0220375471 -0.00751063786 3.9577717e-06 234 62 6 0.195213661 
0.0010422843 -0.0348395891 0.0044655716 8.93021934e-07 104 104 104 0.664148927 
-0.0057727797 0.017288411 2.69405973e-06 1.04843639e-06 251 87 11 0.489402443 
-0.00292706047 0.0234239642 0.000468377606 9.24883352e-07 253 136 23 0.507636547 
0.000552424521 0.00989912264 0.00335578504 3.15236139e-06 250 98 13 0.620694637 
0.0040554353 0.0279270746 -0.0037705272 6.25819666e-07 249 95 12 0.341659814 
0.00375946471 0.023445081 -0.00224569137 3.7632999e-06 248 85 10 0.401365638 
-0.00502226129 0.0229684412 -0.000488593767 2.02096999e-07 241 102 13 0.470165789 
0.00899139419 -0.0323114321 0.00462614326 2.2627064e-05 254 254 254 0.670436203 
-0.00757202972 0.0304748323 -0.00771607552 8.76898412e-06 243 80 10 0.187169641 
-0.00260002259 0.0278254766 -4.72713073e-05 1.02053934e-06 227 91 10 0.48744601 
0.00441537425 0.0285619665 -0.00588204572 3.0764204e-07 254 89 12 0.258982122 
0.00245278771 -0.0289176274 0.000401365018 9.95813753e-06 254 254 254 0.505012631 
0.00682163425 -0.012958169 0.00247048354 8.69389623e-07 252 252 252 0.586030126 
0.00105825148 0.00103356654 0.00545633119 6.48957212e-07 249 249 249 0.702942669 
-0.00596881518 -0.00475853914 -0.00125827896 1.30268745e-06 231 231 231 0.44002831 
-0.00684393523 0.0204013027 -0.00763290934 3.45287845e-07 241 63 7 0.190426052 
0.000784166157 -0.034684211 0.00246424507 2.00483482e-05 247 247 247 0.585785866 
0.00410344778 0.0155997556 -0.00147171249 4.73478576e-06 247 96 12 0.431671202 
-0.00539195165 0.00425454741 0.00372389914 3.47851892e-06 254 254 254 0.635108352 
0.00155758974 -0.00616878131 0.00734676048 1.17815798e-05 245 245 245 0.776963532 
0.00810611062 -0.0334400572 0.00786073506 2.36126289e-06 109 109 109 0.797088444 
0.00274016801 -0.00215725019 0.00549672497 2.29850411e-05 251 251 251 0.704524338 
0.00162124517 0.0209984463 -0.0102579119 6.85395207e-09 248 81 10 0.0876426026 
0.00165283354 -0.00572795374 -0.00417043408 1.37108145e-06 253 253 253 0.326001257 
-0.00618448621 0.0241662469 -0.00181222509 1.45077938e-05 235 85 10 0.418338239 
-0.00561106624 -0.00416953908 0.00407213764 1.5308382e-05 252 252 252 0.648743808 
0.00159770518 0.0295675155 -0.0112250829 1.47637911e-06 249 98 13 0.0497724749 
0.000382272672 -0.0129744373 -0.00298670796 1.76445155e-07 254 254 254 0.372350723 
-0.0064315144 0.00303042098 0.00265920558 2.74521881e-07 254 254 254 0.593419671 
-0.00712440303 0.00046906108 -0.00069172756 3.32802301e-06 243 243 243 0.462211967 
-0.00623879256 -0.00146949326 0.00300751929 1.94454042e-05 242 242 242 0.607058108 
-0.00604968891 0.00509663764 -0.00567989284 9.34104901e-06 219 66 6 0.266897529 
-0.00465677865 0.0122647453 -0.00845160242 2.04586249e-05 228 67 6 0.158369675 
0.00382974651 0.0230628047 -0.00229443493 8.20169225e-06 247 85 10 0.399457067 
0.00224423874 -0.029664835 0.0124277147 2.26652483e-05 236 236 236 0.97591114 
0.00917564984 -0.0321266465 0.00921092182 2.12803134e-05 254 254 254 0.849955797 
0.0079796873 -0.0341752134 0.00408327905 2.17031629e-05 92 92 92 0.649180055 
-0.0010922472 -0.0342342481 0.00409560464 1.99853675e-05 245 245 245 0.649662673 
0.00281208684 0.0163171049 -0.00847734604 1.08620152e-05 249 87 11 0.157361656 
-0.00630194834 0.00638456875 -0.00571238343 -2.93366611e-08 238 64 7 0.265625328 
-0.00701385969 -0.000502319657 -1.67208855e-05 7.49214087e-06 238 238 238 0.488642246 
0.00579182524 -0.0071141487 0.00224512839 1.33779831e-05 253 253 253 0.577206194 
-0.00355990441 0.000920810038 0.00539941061 1.76840695e-06 249 249 249 0.700713933 
-0.00729338499 0.00222473568 -0.00162382284 7.59842806e-07 212 212 212 0.425715238 
0.00401462428 0.0283160266 -0.00816157367 1.23248901e-06 250 83 10 0.169725895 
-0.00107850228 0.0244798176 0.00050769822 -3.3263932e-06 240 105 14 0.509176135 
0.00326652406 0.0238056388 -0.0015994393 2.17277557e-06 233 88 10 0.426670015 
-0.000188196573 0.00697466545 0.00438977405 1.68170081e-05 246 100 13 0.661181033 
0.0059165135 -0.0343882591 0.00440272409 1.37144525e-06 110 110 110 0.661688089 
-0.00608727057 0.0024438086 -0.00447309203 2.23751122e-05 251 251 251 0.314150512 
-0.00343540986 -0.0217584502 0.00367900264 -3.66650056e-07 250 250 250 0.633350372 
-0.00104355591 -0.00420776522 0.00709255505 9.7026641e-06 250 250 250 0.767009974 
-0.00728251413 0.0250936914 -0.00743354065 3.96621181e-06 230 73 7 0.198232457 
-0.0024829912 0.0127084199 -0.00938065443 3.31309275e-06 211 65 9 0.121992119 
0.00835262705 -0.0330807529 0.00930976402 7.57545058e-06 153 153 153 0.853826046 
0.00402215915 -0.0166753884 -0.00158396026 6.8245572e-06 254 254 254 0.427276075 
0.00194453332 0.0143121472 0.00149943866 8.35745595e-07 254 107 16 0.548008323 
-0.00100622128 0.00700314436 0.00456819171 6.36444747e-06 251 107 15 0.668167114 
-0.000558013213 -0.000324352586 -0.0058266907 2.69127631e-05 251 251 251 0.261149585 
0.00847130176 -0.0339602605 0.00492205191 1.68314145e-05 113 113 113 0.682022691 
-0.00100426818 -0.0202511791 -0.000609245792 7.53623317e-06 254 254 254 0.465441585 
0.00432959432 -0.0338703878 0.00144564942 1.57578615e-05 237 237 237 0.545902193 
-0.00745943235 0.0247485228 -0.00485494826 2.29469151e-05 245 71 8 0.299198687 
-0.00454166159 0.0252980478 -0.000483258511 4.28734347e-06 251 91 12 0.470374703 
0.00101430702 0.0213064384 -0.0106214108 1.71088614e-05 250 75 9 0.0734095871 
0.00395184848 -0.00504266517 -0.00257413322 6.53380994e-06 254 254 254 0.38850528 
0.00420222944 -0.00568874739 -0.00224264851 1.3174722e-06 254 254 254 0.401484758 
-0.00739274267 0.0209612418 -0.00585815217 1.2135366e-05 236 107 13 0.259917676 
0.00144400285 -0.0171142314 -0.00211365824 1.00098632e-05 254 254 254 0.406535476 
0.0026863711 0.0043525747 -0.00503015658 1.12775888e-05 249 89 11 0.292338312 
0.00280476082 0.000856323983 -0.00427345326 1.07889064e-05 254 254 254 0.321967483 
0.00154637732 0.00337768509 -0.0056834314 1.94861786e-05 243 243 243 0.266758978 
-0.00563101191 -0.000177566937 -0.00396918505 6.21809158e-06 252 252 252 0.333881259 
0.00769070443 -0.0175280124 0.00376087357 2.94058118e-05 253 253 253 0.636556089 
0.00499261823 -0.0054249675 0.00405164529 1.17121963e-05 254 254 254 0.647941411 
0.00442703301 0.0273885056 -0.00654030312 2.41474481e-07 249 86 11 0.233207673 
0.00454887422 0.0243639052 -0.00589673314 3.36673111e-07 252 115 17 0.258407027 
-0.000744870515 -0.0348897353 0.00419918215 9.94710135e-05 55 55 55 0.653718293 
0.0045719156 0.0184671637 -0.00362889282 4.1583553e-07 234 93 11 0.347205579 
-0.00717276009 0.0288651548 -0.00379770948 7.44708814e-06 229 89 10 0.340595484 
-0.00419095578 0.00540179433 -0.00700983731 -2.42202077e-07 223 67 6 0.214822799 
0.00353220454 -0.0333382003 0.0104876095 -9.08767106e-08 18 18 18 0.899945259 
0.00444587693 0.00157116249 0.000226353688 2.29835859e-05 216 216 216 0.498159975 
0.00459944736 3.80472957e-05 -0.000667587621 2.88963201e-06 238 238 238 0.463157177 
0.00523376232 -0.0328169614 0.0120143062 5.03723277e-06 49 49 49 0.959723949 
0.00240758946 0.0333969854 -0.00238002022 8.34060484e-05 254 254 254 0.396105915 
-0.00110903697 0.0307170469 -0.000295779551 5.06979268e-06 254 94 13 0.477715552 
0.00311397109 0.00669744844 -0.00528534921 1.79733615e-05 228 100 12 0.2823461 
-0.00285137491 0.010473826 0.00355232973 9.03877662e-07 248 87 11 0.628390431 
-0.001288292 -0.0342243277 0.00821864232 9.61536898e-06 66 66 66 0.811102569 
0.00405320618 -0.0341127738 0.00147611415 8.99092811e-06 229 229 229 0.54709506 
-0.00661141239 -0.00270516286 -0.000529760437 1.60468335e-06 219 219 219 0.468553901 
0.00721242232 -0.0323177278 0.00236038282 4.27917257e-06 254 254 254 0.5817191 
0.00633124541 -0.0334244706 0.00879693311 -1.01459591e-07 92 92 92 0.833745897 
0.00601448957 -0.0114514269 0.000351939903 1.19656324e-05 252 252 252 0.503077328 
0.00509746838 -0.00703201024 -0.000875029364 2.00304203e-06 253 253 253 0.455034673 
-0.00253520859 0.00344409095 0.00522965053 2.90311436e-05 253 253 253 0.694066942 
-0.000630608585 -0.0347512476 0.00551635725 4.00771023e-06 65 65 65 0.705293059 
-0.00152988406 -0.0327779651 0.00990450196 1.5786296e-05 248 248 248 0.877113342 
0.000704738544 -0.00791876111 -0.00403262954 4.37139533e-07 254 254 254 0.331397057 
0.00434427382 0.00983273424 -0.00335670682 1.49436528e-05 247 133 21 0.357863218 
0.00377307343 0.0256845653 -0.00269299117 9.05286288e-06 254 98 14 0.383851379 
-0.00169401965 0.00244907849 0.00555685069 2.84985799e-06 242 242 242 0.706878543 
-0.00616489118 0.0058972137 -0.00574953156 1.31188426e-06 232 71 8 0.264170796 
-0.00389875821 0.0212466419 0.000488952908 1.20747718e-05 237 108 14 0.508442163 
0.00317605259 0.0299377143 -0.00973561779 -2.0783591e-07 247 112 16 0.108093314 
0.00068674353 -0.0276186038 0.0115279118 1.26209925e-05 251 251 251 0.940678895 
0.00510695204 -0.030965941 0.0126462542 7.45962097e-07 235 235 235 0.984468222 
0.00173053367 0.000726607512 0.00520975981 7.77241075e-06 248 248 248 0.693288088 
0.00437066564 0.0278902873 -0.00496539893 8.24406743e-06 244 99 13 0.294873923 
-0.0071959137 0.0295557324 -0.0086624613 4.65312041e-07 246 71 8 0.150113389 
-0.0056343847 0.0140957367 -0.00809255894 5.29363751e-06 206 104 17 0.172428221 
-0.000728171668 0.00720702205 -0.00792585779 1.14535796e-05 239 72 9 0.178955495 
0.00421489542 -0.00280267932 -0.00222897693 3.73693183e-07 254 254 254 0.402020097 
0.00697034085 -0.0192172062 0.00787990447 8.49016942e-07 254 254 254 0.797839105 
0.00175408984 -0.00220076856 -0.00469641853 7.09609594e-06 233 233 233 0.305406004 
-0.00162245648 0.0283479597 -0.0120907994 1.75850964e-05 254 145 25 0.015874844 
-0.00224103336 -0.0298741255 0.00830700155 -9.27393558e-08 238 238 238 0.814562321 
0.00220403401 -0.0053300946 -0.0039759716 1.10458932e-05 254 254 254 0.333615541 
-0.00581153808 -0.00371390325 -0.00216452964 1.92198204e-05 233 233 233 0.404543579 
0.00357681699 0.02063426 -0.00143374957 1.92667358e-08 246 101 13 0.433157682 
-0.00580779742 -0.000916321413 0.00373808411 5.00574242e-06 254 254 254 0.635663748 
-0.00323276711 0.0212908164 -0.0109087797 1.28976535e-06 231 71 8 0.0621574968 
0.00420407439 0.0118857492 -0.00493009016 5.26197255e-07 225 81 8 0.296256483 
-0.000102025893 0.0310631339 -0.000512444065 1.71935244e-06 249 109 15 0.469231933 
0.00413343031 0.00316781341 0.000630748516 5.92961442e-06 251 251 251 0.513994277 
0.00896672066 -0.0334637091 0.00471098116 4.21013974e-05 254 254 254 0.67375809 
0.000460431998 0.00483777467 0.00458099414 1.58316398e-05 254 254 254 0.668668389 
-7.12814654e-06 0.0142547479 -0.00963113271 1.52673165e-05 199 83 17 0.112184502 
-0.00224553258 0.00437399745 0.00506787794 3.2819753e-07 249 249 249 0.687732577 
-0.00124037859 -0.0235794932 0.00969380792 1.05700456e-05 253 253 253 0.868863523 
0.00390142109 -0.0134460917 -0.0020111436 6.3618063e-07 254 254 254 0.410549492 
-0.00289606769 0.00527629489 -0.007379035 7.04787089e-06 224 65 6 0.200366661 
-0.000127544263 0.0218034144 -0.0110811526 2.16240733e-06 227 121 16 0.0554081611 
-0.00710811559 0.00693751592 -0.0046801162 1.92960142e-05 254 116 20 0.30604434 
0.00838312786 -0.0233411174 0.00689862808 8.90577212e-08 254 254 254 0.75941664 
0.00166733027 -0.0324855894 0.00142223539 2.49270815e-05 254 254 254 0.544985354 
0.00765759638 -0.0215496775 0.00779086538 1.7323764e-05 254 254 254 0.79435271 
0.00530147739 -0.0206307936 -0.000425650127 2.38913344e-07 255 255 255 0.472630382 
-0.0015579114 -0.00449539907 -0.004843859 6.94027403e-06 254 254 254 0.299632907 
0.00379753625 0.00615232252 -0.00377378659 2.21891096e-05 234 80 9 0.341532201 
-0.00702332752 0.0228235554 -0.00769541552 1.23830978e-06 240 67 7 0.187978595 
0.00456131482 -0.00134037843 -0.00133484346 2.13487074e-05 233 233 233 0.437030405 
-0.00769726047 0.0298981722 -0.00592583092 1.66704413e-05 238 77 9 0.257267684 
0.00838780589 -0.0306977034 0.00348494598 5.15894499e-06 254 254 254 0.625751972 
0.0049929563 -0.00221900642 0.000398907461 3.29810428e-06 249 249 249 0.50491643 
0.00176806317 0.0194998067 0.000508444151 3.83681618e-06 242 98 13 0.509205341 
0.00128281373 0.0296940189 -0.0114278486 6.02834916e-06 250 98 13 0.0418330729 
-0.00348150195 0.0115489103 -0.00884622429 1.69727718e-06 232 71 7 0.14291802 
0.00274476013 -0.0333041809 0.00134726509 -1.11351255e-07 254 254 254 0.542049885 
0.00402064156 0.0271194782 -0.00812492706 2.03408999e-05 253 71 9 0.171160832 
0.00389854074 -0.00342587405 -0.0027005116 8.40518624e-06 254 254 254 0.383556902 
0.00339025888 0.00205779099 0.00315911695 1.41867495e-05 220 220 220 0.612993956 
-0.0037848677 -0.001619249 0.00569742173 2.33462197e-06 254 254 254 0.712382734 
-0.0067972918 0.0220530182 -0.00249470887 2.18341593e-05 220 98 12 0.391615182 
-0.0026190381 -0.0270838309 0.00427603954 -4.84986231e-07 246 246 246 0.656727731 
0.00815634988 -0.0204022191 0.00519619277 9.44361091e-07 254 254 254 0.692756891 
0.00785519369 -0.0213479996 0.00726141734 4.40864824e-06 254 254 254 0.773621857 
-0.00510557787 -0.00796794519 -0.00127573439 1.77843031e-05 253 253 253 0.439344853 
0.00790440943 -0.0337619074 0.00321113016 2.41622256e-05 230 230 230 0.615030587 
0.00417010766 0.0289180204 -0.00769889075 2.33971514e-06 254 81 10 0.187842518 
0.00460006204 -0.0227289889 0.0107959146 1.26244777e-05 248 248 248 0.912017047 
-0.00193199469 0.00600990141 0.00471445033 1.78496557e-05 250 250 250 0.673893929 
0.00445086975 0.0266611334 -0.0050576576 1.12364069e-06 253 90 12 0.291261494 
-0.00519139227 -0.0111900214 0.00108504656 9.82341589e-07 240 240 240 0.531782568 
-0.00519790547 0.027375469 -0.0108218845 1.2368866e-05 231 67 7 0.0655599162 
0.00588924158 -0.0244090445 0.00038974249 -8.00937414e-08 255 255 255 0.50455755 
0.00248126849 0.0251103584 -0.0101433629 1.88050763e-06 219 84 9 0.0921278372 
-0.00190226396 -4.68275612e-05 -0.00593007309 2.3352477e-06 252 252 252 0.257101595 
-0.00750443432 0.0250860695 -0.00618908228 2.34227628e-07 231 76 8 0.24695994 
0.00298197614 -0.00324080116 -0.0037010957 1.76567119e-06 251 251 251 0.344378471 
0.00400396902 0.0199295022 -0.00749349501 7.19213858e-06 244 74 8 0.195884913 
0.00578877423 -0.0134133119 0.00690722326 3.37918755e-06 254 254 254 0.759753168 
0.00762369623 -0.0281211231 0.0103480294 2.06319382e-05 254 254 254 0.89447999 
-0.000179543029 0.0251113977 -0.0115365051 1.81121868e-06 246 85 10 0.0375785567 
0.000209758524 -0.000446610415 0.00614358019 1.79798008e-06 253 253 253 0.729852319 
0.00402034726 0.00475792633 -0.000746331294 -2.87685543e-06 251 251 251 0.460073948 
-0.00485447096 -0.00366880908 -0.00344740273 1.37589814e-06 254 254 254 0.354311943 
0.00220537954 0.0243200213 -0.0102925682 6.56890916e-06 231 85 10 0.0862856135 
0.00414118404 0.00344141782 0.000271275669 1.0143267e-05 252 252 252 0.499918878 
0.00325886952 0.0258927345 -0.00195889594 5.2487012e-06 246 104 14 0.412595272 
0.00920297764 -0.033528205 0.00541381165 6.1527011e-05 254 254 254 0.701277852 
0.00368141034 0.0230501909 -0.00848119892 3.02225817e-06 253 88 11 0.157210797 
0.00332137174 -0.022522321 0.011035257 2.80313543e-07 252 252 252 0.921388686 
-0.00515391398 0.00652680174 -0.00675631268 9.38610174e-06 230 56 5 0.224749699 
-0.00410468411 0.0250066016 -0.0111370934 1.50420819e-05 234 61 5 0.0532177389 
0.00918992888 -0.0332467332 0.0078657344 3.50672635e-05 33 33 33 0.797284245 
-8.97953723e-05 0.0240044836 -0.0113753993 7.9232268e-07 244 82 10 0.0438867509 
-0.00581275206 0.00665046275 -0.00626674341 2.27987766e-05 239 71 8 0.243919075 
-0.00771664502 0.00491709216 -0.00102317322 3.79572157e-06 245 245 245 0.449234039 
-0.00543702161 -0.00829788391 -0.000388750777 1.12390844e-05 248 248 248 0.474075168 
0.00286601274 0.0235496741 -0.00960055552 9.88467946e-06 251 95 13 0.113381758 
-0.00137237052 -0.00317500229 0.00683020195 5.19958121e-07 241 241 241 0.756737351 
0.00630276417 -0.0328408442 0.0114366738 3.95576353e-06 124 124 124 0.937106431 
0.00694611715 -0.0342452042 0.00457724463 1.06348307e-06 109 109 109 0.668521523 
0.00377944694 0.0264677517 -0.00860387366 1.70627609e-05 240 88 10 0.152407423 
0.0087279873 -0.0257709119 0.00721071754 6.57688361e-06 254 254 254 0.771636665 
0.0042056106 0.0325082392 -0.00636726618 2.74553895e-06 254 84 11 0.239983052 
0.00516090496 -0.0250795521 8.88801951e-05 3.22831329e-06 255 255 255 0.492777109 
0.00316290185 0.029167911 -0.00241098506 7.3085539e-07 246 108 15 0.394893467 
-0.0025722424 0.00245586899 -0.00649471907 3.41765917e-06 240 240 240 0.234992549 
0.00326228864 -0.0270538442 -2.36164797e-05 8.18596163e-07 254 254 254 0.488372236 
0.00650855759 -0.0114517752 0.00390780997 2.14314787e-06 254 254 254 0.642309487 
0.00675112708 -0.0336661674 0.00745683955 -8.02683644e-08 30 30 30 0.781273723 
-0.00704489276 0.0062302514 -0.0046566152 6.5297354e-07 250 125 20 0.306964546 
0.00562224397 -0.0293038785 0.000958586053 3.40153929e-06 255 255 255 0.526830971 
-0.00250111963 -0.00139445846 -0.00548074022 4.41796146e-07 254 254 254 0.274695456 
-0.00151971809 0.00613728585 0.00467755739 -3.8059261e-07 251 251 251 0.67244935 
0.00459466083 0.0225992873 -0.00485653803 1.53408328e-05 246 89 11 0.29913646 
0.00629911385 -0.0174510535 0.000287460629 2.89140735e-06 255 255 255 0.500552654 
0.00447232695 -0.00410767645 0.00434368011 5.99428313e-06 254 254 254 0.659376204 
0.00203728513 0.0226957351 -0.0102219433 9.07783397e-06 235 86 10 0.0890509784 
-0.00376378582 0.0273122396 -0.000329363276 3.87517503e-07 252 84 11 0.476400554 
9.31991963e-05 0.0121901967 -0.00909923017 9.60804755e-07 230 80 9 0.133011445 
0.00295296754 0.0145550938 0.000549152028 1.0834774e-06 235 99 12 0.510799289 
-0.00566778099 0.02458781 -0.0100036152 6.57280907e-07 224 64 6 0.0975997448 
0.00461997325 0.0203978512 -0.00444879709 1.29299588e-05 254 161 28 0.315101773 
0.00414065272 0.0174933448 -0.00189147773 1.13272108e-06 248 76 9 0.415235072 
-0.00133743114 -7.55701985e-05 0.00615838729 1.47136325e-05 249 249 249 0.730432034 
-0.00220725685 0.000300457526 -0.00598498341 4.04057937e-06 252 252 252 0.254951537 
-0.00112779893 0.00424600998 0.00512292841 8.76955892e-06 250 250 250 0.68988812 
-0.00221204222 -0.0251517985 0.00856787898 6.39350037e-06 254 254 254 0.824777126 
0.00411423808 -0.0341462418 0.0063833599 -1.18729076e-07 113 113 113 0.739241064 
-0.00610353425 -0.00594712794 0.0025057653 2.12038867e-05 215 215 215 0.587411582 
0.00252954219 0.0274140034 -0.00143323967 7.04458216e-06 234 108 14 0.43317765 
-0.0061696046 -0.00525303977 0.00252908096 1.58394687e-06 245 245 245 0.588324547 
-0.00268596783 -0.0240715966 0.00767118065 3.68023757e-06 254 254 254 0.789666355 
0.00134778523 0.00837339088 0.00332278083 -1.39290933e-07 234 103 15 0.619402289 
-0.00616532052 0.00101329666 -0.00377287227 6.62798993e-06 243 243 243 0.341568023 
-0.0041993903 0.020213075 -0.0103296852 7.6869037e-07 243 70 8 0.0848322809 
-0.00585171208 0.00587875489 -0.00605056109 1.87451951e-05 246 91 13 0.252383798 
-0.00566282077 -0.00581485778 0.0038700907 9.90356784e-06 228 228 228 0.640832543 
-0.00304037426 0.0270378757 -5.45275325e-05 2.26625707e-05 253 94 13 0.487161905 
0.00491923653 -0.0345481485 0.00410351017 1.24664803e-06 41 41 41 0.6499722 
0.000337341829 -0.0281608943 0.000899646198 -7.99773261e-08 254 254 254 0.524523079 
0.00249132095 0.00141365489 -0.00464441115 4.24531754e-06 254 254 254 0.307442397 
0.00450029923 0.0192454699 -0.00335462485 1.27765816e-06 245 93 12 0.357944727 
-0.00547819678 0.000195424393 0.00408750307 1.21641206e-05 254 254 254 0.649345458 
0.00348709407 0.0251951199 -0.00214132387 1.31438719e-05 253 100 14 0.405452192 
0.000733398658 -0.0347851589 0.00487077935 2.14516149e-07 104 104 104 0.680015087 
-0.00791562069 0.00660689222 -0.00151646335 5.81960194e-07 237 73 7 0.429918945 
-0.00100277446 0.0301939324 -0.012233872 6.00735439e-06 243 87 10 0.0102727721 
0.00234508654 -0.0321138985 0.0128778601 1.14131108e-05 228 228 228 0.99353683 
-0.00102119532 0.020384511 -0.0110012069 2.57549482e-06 224 85 9 0.0585384481 
0.00525733177 -0.00383941992 0.0011393918 8.5637439e-06 254 254 254 0.533910513 
-0.00656828703 0.0286168996 -0.0096143214 1.00809848e-06 246 55 6 0.112842761 
0.00699194195 -0.0137840584 0.0040765428 2.15622131e-05 254 254 254 0.648916245 
-0.00251989998 0.033148542 -0.0121724242 5.43021742e-05 254 179 87 0.0126788002 
-0.000342122366 -0.0344404653 0.00699132541 1.04263017e-06 112 112 112 0.763046205 
-0.00511138095 0.0228281394 -0.0101901265 4.92320396e-07 242 85 10 0.09029679 
-0.00306978519 -0.00802647509 -0.00330034201 1.88515114e-05 254 254 254 0.360070199 
0.00272052875 0.00480787037 0.00290047214 2.46186974e-05 254 254 254 0.60286659 
0.0084068682 -0.0253087748 0.00354640163 3.45287845e-07 254 254 254 0.628158331 
-0.000657814846 -0.0108123822 -0.00338766468 1.12433954e-05 254 254 254 0.356651038 
-0.00764634227 0.0063750511 0.00048253272 3.71091301e-06 244 84 10 0.508190811 
0.00286638737 0.0267691296 -0.00991417561 5.82225039e-06 247 85 10 0.101101778 
0.00161040691 0.0264456701 -0.010939287 1.66342943e-07 245 103 14 0.060962975 
0.000264336937 -0.0344881341 0.00651573716 9.22940671e-07 139 139 139 0.744424343 
0.00429017656 0.0245446507 -0.00367718958 6.33433228e-06 252 136 22 0.345314503 
-0.00212989631 -0.00198853831 0.00643879967 9.38412268e-06 252 252 252 0.741411805 
0.00436667912 0.0225471556 -0.00349532021 1.57405157e-06 237 96 12 0.352435708 
0.00448026787 -0.00348855113 -0.00177968026 3.91132198e-06 254 254 254 0.419612557 
-0.000300365704 -0.0105403494 -0.00349886948 1.43270154e-06 254 254 254 0.35229674 
-0.00609968277 0.0215992946 -0.00132985401 -3.93902155e-09 234 88 10 0.437225729 
0.00398305478 0.0241481047 -0.00803454965 5.50609548e-06 238 76 8 0.17469959 
-0.00341002992 0.00115324254 -0.00592686888 1.0482705e-05 254 254 254 0.257227063 
0.00814558845 -0.0306108594 0.0105474321 1.08830864e-06 254 254 254 0.902287662 
-0.00203290815 -0.0256546661 0.00226834626 1.39568583e-05 254 254 254 0.578115344 
-0.000708849169 -0.00068886613 0.0063122306 4.19418939e-07 225 225 225 0.736455917 
-0.00684201345 0.0316513442 -0.00325977709 1.54660083e-05 243 85 10 0.361658543 
0.000998820295 -0.0125926202 -0.00306064985 1.30996341e-06 254 254 254 0.369455487 
-0.00630693557 -0.00346618937 0.0025934258 1.57547183e-05 242 242 242 0.590843976 
0.00354277389 -0.0332538076 0.0108815273 4.94910637e-07 95 95 95 0.915369332 
-0.00103236118 -0.0128933974 -0.00275157322 3.85555904e-06 254 254 254 0.381557554 
-0.00199552905 -0.0325313732 0.00879378151 1.35573791e-05 246 246 246 0.833622456 
-0.00391921122 -0.00140226947 -0.00492614321 8.11665086e-06 253 253 253 0.296411008 
-0.00643810024 -0.0028156878 -0.00117352756 1.42643694e-06 222 222 222 0.443346798 
-0.00100771768 0.0076754503 0.00439073471 -1.03575439e-06 250 111 17 0.661218643 
0.00826836284 -0.02897406 0.00980126951 3.87299224e-07 254 254 254 0.873071194 
0.00705606118 -0.0299865864 0.0019342883 3.2610842e-07 255 255 255 0.565035105 
-0.00413555605 0.0197680853 -0.0102860481 1.81622454e-05 243 70 8 0.0865409225 
0.000117744887 -0.0343438052 0.00279525993 1.86205143e-05 248 248 248 0.598746955 
0.000825937546 -0.0329870358 0.012237085 0.00011405957 247 247 247 0.96844691 
0.00303142262 0.0269477349 -0.00186786905 7.40925316e-07 252 96 13 0.416159511 
0.00405280339 0.00423542364 -0.00141398876 -9.235373e-08 250 250 250 0.43393144 
-0.00460454682 0.00862540305 -0.0076180445 3.17464583e-07 235 68 7 0.191008106 
-0.00285244244 -0.023955984 0.00727084605 2.57376814e-05 254 254 254 0.773990989 
0.00479954202 -0.0107998308 -0.00144124532 4.25206963e-07 254 254 254 0.432864189 
0.00428604987 0.0023485967 -0.00114299869 2.10247817e-05 229 229 229 0.44454217 
-0.00406342559 -0.00728567177 -0.00283470307 2.94565689e-06 250 250 250 0.378302574 
0.00398715073 -0.0257961489 -0.000171039603 -4.10742359e-07 254 254 254 0.482599825 
0.000554563536 0.00167086849 -0.00593299791 -8.42446752e-08 254 254 254 0.256987065 
0.00737482449 -0.02577563 0.00984823983 1.63777568e-05 254 254 254 0.874910414 
-0.00579933915 0.0279333945 -0.0103954608 2.07300764e-06 248 70 8 0.082256794 
0.00279453606 -0.0337982327 0.00864020642 -1.07800588e-07 80 80 80 0.827609122 
0.00204505981 0.0239330158 -0.0103690159 1.60880154e-06 231 85 10 0.0832922757 
-0.000282630674 0.00199903036 0.0055914456 4.76356945e-07 250 250 250 0.708233237 
-0.00622081198 0.00611809036 0.00270161359 -3.65445158e-06 250 250 250 0.595080197 
0.00053041213 0.0132676018 -0.00922909472 9.66939842e-06 208 79 16 0.127926528 
0.00343991583 -0.0339241885 0.00774661824 -9.87929525e-08 62 62 62 0.792620242 
-0.00583486259 0.0252979286 -0.00995390769 5.73985744e-07 235 69 7 0.0995460525 
0.00462122215 0.0189548694 -0.00414292654 2.14162865e-05 244 101 13 0.327078313 
0.00306073041 0.0296200924 -0.00235971576 1.82491494e-05 250 97 13 0.396900952 
0.00806263275 -0.0339022875 0.00564151537 6.75063347e-07 51 51 51 0.710193634 
0.00486645335 -0.00431219349 -0.00103401858 1.10710971e-07 254 254 254 0.448809355 
0.00933207013 -0.0333123319 0.00566932559 5.50272816e-05 254 254 254 0.711282611 
-0.00509016868 -0.00505541498 -0.00263599842 1.246389e-05 248 248 248 0.386082917 
-0.00686825067 0.000360817387 0.00161407294 7.83824362e-07 246 246 246 0.55249691 
0.00471035112 -0.0340386517 0.001541832 2.63667025e-05 225 225 225 0.549668252 
-0.000180895338 0.0326525159 -0.000716600509 1.43399229e-05 247 104 14 0.461238086 
0.00549323205 -0.00921373349 -0.000358226098 3.7268037e-06 253 253 253 0.475270391 
0.00502963783 -0.0332993828 0.00998671167 -1.08033419e-07 80 80 80 0.880332291 
0.00727113243 -0.0293428246 0.00204267167 1.04760402e-05 255 255 255 0.569278896 
0.000525116688 -0.0252445396 2.87533658e-05 -5.61703928e-08 254 254 254 0.490422815 
0.00292601087 -0.0287734717 0.000331454386 1.00233592e-05 254 254 254 0.502275229 
-0.00733753014 0.00284849154 -0.0019814542 7.72066414e-06 240 240 240 0.411711991 
0.00454300689 0.0231471453 -0.00609450368 1.39707699e-05 249 98 13 0.250663191 
0.00233299704 -0.00421563396 -0.00406152755 9.89976979e-06 254 254 254 0.330265552 
0.00392830884 0.00558931334 -0.00313479127 1.90641731e-06 252 159 30 0.366552442 
-0.00579983974 -0.00856171921 0.00174756336 3.70072667e-06 254 254 254 0.55772382 
-0.00459508505 0.0158849116 -0.00927778333 2.31675804e-05 235 74 8 0.126020074 
0.00401111972 -0.00544777792 0.00557059096 9.09296796e-06 254 254 254 0.707416594 
0.00342748221 0.0188246276 -0.00825488195 4.91243554e-06 234 96 12 0.166072384 
-0.00603776472 0.0125505878 -0.00734973606 1.45900412e-05 203 53 4 0.201513872 
-0.00681190845 -0.00151204818 -0.00060215249 1.21956691e-06 231 231 231 0.465719342 
-0.00680690352 0.0013891483 0.0019304218 1.45053491e-07 242 242 242 0.564883709 
0.00279277354 0.000655506738 0.00443547731 1.16446754e-05 248 248 248 0.662970543 
0.00156203483 0.00179098255 -0.00543169864 1.59271294e-05 254 254 254 0.276615709 
-0.00752300723 0.00800532196 0.000167623337 4.03146259e-06 249 152 25 0.495860338 
0.00934168138 -0.0305333454 0.00761562586 2.88535375e-07 254 254 254 0.787491083 
0.000970483816 -0.0337437056 0.00972938351 6.05228706e-07 136 136 136 0.870256484 
0.0052900631 -0.027904829 0.000591301941 -1.36161543e-06 255 255 255 0.512449741 
-0.00665570144 -0.000655982411 -0.00195008155 5.24916686e-06 240 240 240 0.412940413 
0.0089257583 -0.0287310909 0.0046333964 4.88758087e-06 254 254 254 0.67072022 
-0.00335495942 -0.0176012795 0.000742295524 5.43426722e-07 254 254 254 0.518361926 
