ply
format ascii 1.0
comment created by gply, a Houdini tool.
comment converted from .[b]geo
comment for more information about Houdini, try:
comment www.sidefx.com
element vertex 616
property float x
property float y
property float z
property float depth
property uchar red
property uchar green
property uchar blue
property float length
element face 0
property list uchar int vertex_indices
end_header
-0.00341661228 0.186140254 -0.0363675803 -0.0649120659 227 119 16 0.389617413 
-0.00166577671 0.187348887 -0.0161755271 -0.049698066 249 98 13 0.444961637 
0.0162937306 0.188168481 -0.0351497903 -0.0460629798 247 99 15 0.392955244 
0.0155579513 0.190062225 -0.0233892947 -0.0417529084 242 110 15 0.425189465 
0.00678400416 0.217272013 -0.138616487 -2.04065e-05 225 93 12 0.10936445 
-0.00388299674 0.211894974 -0.140350357 -3.86243919e-05 215 80 11 0.104612105 
-0.00271779695 0.22361058 -0.141764253 -0.000911461422 237 88 11 0.100736775 
-0.00101647142 0.220445022 -0.122873612 -0.0176855307 231 97 14 0.152513936 
0.0107333632 0.216091469 -0.123504139 -0.011994727 247 94 13 0.150785729 
-0.00484238146 0.214714989 -0.111954898 -0.0277772024 199 82 16 0.182440922 
0.0194510277 0.219470516 -0.114462987 -0.0159163643 227 63 6 0.175566539 
0.000684107363 0.201338306 -0.136851877 -1.76896719e-05 199 83 17 0.114201054 
-0.00882132165 0.217879102 -0.131326541 -0.0108947428 215 80 11 0.129345387 
0.00177194003 0.21104306 -0.129727453 -0.00848777778 199 82 16 0.13372831 
0.00718195364 0.225241467 -0.130396038 -0.00904743653 229 92 12 0.131895795 
-0.00492093246 0.207192585 -0.121450536 -0.017239254 199 83 17 0.156414434 
0.00131879502 0.232637972 -0.122869588 -0.0194419958 234 94 13 0.152524963 
0.0138423238 0.204487547 -0.122923799 -0.00876845699 217 76 11 0.152376384 
0.0121920845 0.227473825 -0.119673878 -0.0169071574 234 90 11 0.161284059 
0.00297262659 0.218176723 -0.101890422 -0.0347255282 247 85 12 0.210026547 
0.0058775926 0.219845623 -0.113054037 -0.0240397193 247 94 13 0.179428309 
-0.00711736362 0.214993224 -0.0891578645 -0.0495865233 211 76 13 0.244925082 
0.0126741575 0.22007595 -0.0949996337 -0.0350993723 236 66 8 0.228913441 
0.0026383833 0.203288868 -0.112919934 -0.0219955146 211 76 13 0.179795876 
0.00331244152 0.210354134 -0.092464529 -0.0409247652 230 80 11 0.235861883 
-0.00249168999 0.228500754 -0.100350283 -0.0405076891 247 94 13 0.214247897 
-0.00992871914 0.226252198 -0.0913139209 -0.0509528257 225 93 12 0.239015564 
0.0124435415 0.210045874 -0.112436287 -0.0195523258 224 79 11 0.181121498 
0.0147416191 0.208093092 -0.0893090963 -0.0355868563 234 78 10 0.244510576 
0.00866267178 0.228112161 -0.105064452 -0.0311153866 231 68 7 0.201326877 
-0.00521958759 0.223051935 -0.0809735283 -0.0574134924 231 68 7 0.267357439 
-0.00204393733 0.207445934 -0.103035115 -0.0335415863 211 76 13 0.206889063 
0.0016886862 0.222496226 -0.090658091 -0.0456355996 231 68 7 0.240813121 
0.0120290732 0.209668621 -0.101030812 -0.0290159192 230 77 10 0.212382644 
0.017727498 0.231176957 -0.0940932855 -0.0339597762 253 88 11 0.231397644 
0.00194537453 0.213877141 -0.0815038905 -0.0509184301 244 80 11 0.265903771 
0.0020240806 0.211574763 -0.0597951263 -0.0622152686 241 85 11 0.325405121 
0.0130114825 0.218253896 -0.0832510814 -0.0424227342 230 80 9 0.261114925 
0.0126010524 0.216710061 -0.0607433207 -0.0520758033 250 161 27 0.322806209 
-0.00378730916 0.219353199 -0.0695630088 -0.0639943331 230 80 9 0.298632413 
0.00827113539 0.217233509 -0.0717185438 -0.0525298379 250 82 10 0.292724341 
0.00032167969 0.208145455 -0.0711731017 -0.058053799 229 85 13 0.294219345 
-0.00605290942 0.230641961 -0.0625524819 -0.0707754493 244 85 10 0.31784749 
0.00454155495 0.22736074 -0.0667009726 -0.0591312386 244 85 10 0.306476951 
0.0116705066 0.207508788 -0.0779228285 -0.0449987426 217 80 11 0.275719076 
-0.0035553195 0.232382193 -0.0736554265 -0.0632482246 240 78 9 0.287415564 
0.0123140048 0.197533265 -0.0844355971 -0.0387625061 226 79 12 0.25786829 
0.00601905352 0.226845726 -0.0786109716 -0.0519825779 251 89 12 0.273832947 
-0.00489728618 0.211903766 -0.039219588 -0.0649145544 253 102 14 0.381800383 
0.0161815789 0.210471809 -0.0512779988 -0.0487517305 227 110 14 0.348749638 
-0.00996418484 0.212402448 -0.0620748252 -0.0722407624 217 80 11 0.319156706 
0.0118756732 0.223181531 -0.0506395847 -0.0529761724 254 86 11 0.350499451 
0.000303714478 0.202534005 -0.0458037034 -0.0637878776 252 89 12 0.363754034 
0.00131354865 0.223621175 -0.0446097329 -0.0613741204 254 109 16 0.367026567 
0.00579251628 0.212821215 -0.0474684797 -0.0585722812 254 84 11 0.35919109 
0.00746258209 0.201785415 -0.0554998778 -0.057014741 225 84 11 0.337177902 
0.000592979603 0.222610459 -0.0565593615 -0.0646826401 254 172 32 0.334273994 
0.0115253087 0.225331262 -0.016039677 -0.0351201929 252 141 24 0.445333958 
0.0113800215 0.212391287 -0.0264665801 -0.0443562753 253 102 14 0.416754991 
-0.0117635988 0.21419394 -0.0235124528 -0.0552420467 251 92 12 0.424851924 
0.0164478347 0.221620142 -0.0341764987 -0.0433886163 253 93 12 0.395622939 
-0.000697819167 0.209642977 -0.0244950354 -0.0517741255 234 88 10 0.422158778 
-0.0021082249 0.221419737 -0.0223295186 -0.0486834235 248 97 13 0.428094178 
0.00354379928 0.204902008 -0.0346241854 -0.056286402 254 89 12 0.394395858 
0.00748479459 0.22600095 -0.0276196729 -0.0461670198 208 107 12 0.413594484 
-0.00479786005 0.197651863 -0.0295626167 -0.0602166541 254 96 14 0.408269078 
0.000936089898 0.199107811 -0.0191778727 -0.0484594889 254 100 15 0.436732531 
-0.0041576582 0.222664773 -0.0340886787 -0.0591217279 251 119 18 0.395863622 
0.00104838808 0.2202214 -0.0109561365 -0.0376732573 253 100 14 0.459267378 
0.0156357251 0.210289776 -0.0384918861 -0.0466962457 231 88 10 0.383794934 
0.0102461539 0.213722557 -0.0147209 -0.0368295126 243 100 13 0.448948592 
0.00553724822 0.216679126 -0.0360988081 -0.0541764945 246 87 11 0.390354097 
-0.00214505312 0.235190183 -0.145001531 -3.5314275e-05 233 76 8 0.0918637514 
-0.00606606063 0.229519665 -0.131911382 -0.0122531075 238 82 10 0.12774241 
0.00819823332 0.230511114 -0.140971407 -4.49690124e-05 234 94 13 0.102909878 
0.00467044394 0.244642571 -0.143391564 -0.0016170094 242 74 9 0.0962764919 
0.0152482297 0.240096733 -0.140056223 -6.04611632e-05 239 125 20 0.105418295 
0.0142548904 0.23490274 -0.129522145 -0.00881553628 234 90 11 0.134291038 
-0.00972278137 0.233566195 -0.1185477 -0.0266402289 238 82 10 0.16437079 
0.0108416583 0.239400044 -0.118999809 -0.0203345157 238 163 27 0.16313161 
-0.00686877035 0.240695313 -0.127596989 -0.0187837332 233 76 8 0.139567688 
0.00365555007 0.238806069 -0.133078918 -0.0104266107 250 74 10 0.124542318 
0.00122245983 0.249567419 -0.128224611 -0.0177270751 250 74 10 0.137847438 
0.0218562353 0.243722066 -0.124538913 -0.0107126646 238 156 25 0.147949532 
-0.000272547361 0.233046412 -0.111323819 -0.030662464 229 92 12 0.184170648 
0.0175365414 0.233544961 -0.110887282 -0.0223629531 249 87 11 0.185367152 
-0.00487248972 0.239334047 -0.0956690237 -0.0477791093 238 96 13 0.227078706 
0.00633858191 0.235051781 -0.0955127925 -0.0413363948 249 87 11 0.227506921 
-0.00584522123 0.242739812 -0.107146546 -0.03828137 250 74 10 0.19562009 
-0.00205828971 0.247763351 -0.0871538073 -0.0550519936 231 104 12 0.250417978 
-0.000283670845 0.243019924 -0.117944099 -0.026523672 250 74 10 0.166025192 
0.00899320468 0.245502964 -0.0909233987 -0.04456269 254 105 15 0.240085945 
0.000403172424 0.249463022 -0.0993927643 -0.0439790115 238 163 27 0.216872349 
0.00634703366 0.241860494 -0.106486343 -0.033630807 238 163 27 0.197429627 
-0.00102671573 0.233071953 -0.0863144845 -0.0525764674 249 87 11 0.252718478 
0.00331012392 0.240745991 -0.0785056353 -0.0561274216 247 87 11 0.274121672 
0.0151828509 0.239371225 -0.0608873554 -0.0504100583 247 107 15 0.322411448 
-0.00883331802 0.240452588 -0.0808166862 -0.0627035275 234 85 10 0.267787337 
0.0117188748 0.235806376 -0.0717438757 -0.0514497794 239 82 9 0.292654902 
0.0021019415 0.238820657 -0.0656469315 -0.0627227277 240 85 10 0.309365958 
0.00743471412 0.249071032 -0.0680184737 -0.0576372296 241 93 12 0.302865833 
0.00585354585 0.252466351 -0.0794275478 -0.054965809 252 86 11 0.271594793 
0.0113437902 0.235446274 -0.0848227963 -0.0452921726 247 87 11 0.256807029 
-0.00210196804 0.233139172 -0.039205119 -0.0599331781 223 124 16 0.38184005 
0.0106955012 0.229698598 -0.0407654643 -0.0508106351 253 93 12 0.377563298 
-0.00547531759 0.242020816 -0.0569839999 -0.0707924813 245 96 12 0.333110094 
0.00617747754 0.233305067 -0.0558266267 -0.0591943525 236 90 11 0.336282313 
-0.00644716108 0.242481634 -0.0452696867 -0.0658714175 241 99 13 0.365217745 
0.00536679523 0.241000041 -0.0445357151 -0.0562943481 247 87 11 0.367229491 
-0.0045868163 0.231876403 -0.0505519733 -0.0685557947 254 84 11 0.350739598 
0.00597497541 0.245258152 -0.0556866191 -0.0592203885 245 96 12 0.336666077 
0.000803862698 0.230921865 -0.0162136052 -0.0402711742 240 99 13 0.44485724 
0.0107214348 0.236267045 -0.0209556576 -0.0375961289 236 114 16 0.431859821 
-0.00306224637 0.232420638 -0.027082298 -0.0511442162 253 95 13 0.415067375 
0.00689214421 0.237119243 -0.0321113802 -0.0480991453 229 92 11 0.401283205 
-0.00620299252 0.25026381 -0.0158949401 -0.0389351547 250 88 11 0.445730686 
0.0011856528 0.243526474 -0.0224692542 -0.0430978164 249 91 12 0.427711219 
-0.00491260597 0.243054092 -0.0326730385 -0.0548790656 244 95 12 0.399743736 
-0.00176389271 0.240706235 -0.0100568822 -0.0340001956 237 91 11 0.461732149 
0.0161674339 0.240384504 -0.0395332426 -0.0445284583 238 78 8 0.380940706 
0.00963525008 0.246494442 -0.0143716242 -0.0313886218 252 88 11 0.449905932 
0.00377821689 0.256103933 -0.146896273 -0.000677802833 240 80 9 0.0866704732 
0.00999856554 0.27831912 -0.144647226 -0.0043886737 233 77 8 0.0928348675 
-0.00655283034 0.246716902 -0.13988255 -0.00808047317 246 77 9 0.105894312 
-0.00703209871 0.280853331 -0.136716753 -0.0172711201 248 83 10 0.114571415 
0.00494336989 0.274236292 -0.134640783 -0.0147753302 239 73 8 0.120261416 
-0.00655512977 0.265293241 -0.151744872 -8.57980922e-06 249 83 10 0.0733809993 
0.00746275624 0.267218292 -0.148401156 -5.00737806e-05 250 82 10 0.0825457573 
0.0091133276 0.262812912 -0.137492493 -0.00875266735 239 73 8 0.112445198 
-0.00172249903 0.257856011 -0.136369392 -0.0124455895 240 80 9 0.115523495 
0.00817217864 0.274635255 -0.122589834 -0.0243405867 252 85 11 0.153291747 
0.0131096691 0.258700788 -0.126891613 -0.0157753434 234 82 9 0.141501039 
0.015633693 0.269933969 -0.130332395 -0.0133607024 230 73 7 0.132070228 
-0.0107405679 0.248768538 -0.116196401 -0.0320771076 246 77 9 0.170815438 
-0.00202994654 0.272595406 -0.11672122 -0.0334832482 239 73 8 0.169376969 
0.00857908837 0.251074463 -0.118961029 -0.023487648 254 168 31 0.1632379 
0.0144459754 0.269307613 -0.113931142 -0.0274148639 253 90 12 0.17702426 
-0.00591567066 0.269014448 -0.1346834 -0.0170162506 244 85 10 0.120144613 
0.00283182831 0.264926344 -0.127370909 -0.0206784252 239 73 8 0.140187338 
0.00507113291 0.262142539 -0.115955286 -0.0295983367 234 79 9 0.171476305 
-0.000237860921 0.252784222 -0.110821225 -0.0347946957 239 125 20 0.185548201 
0.00347951893 0.273393154 -0.106220163 -0.0404802859 249 88 11 0.198159203 
0.0169985611 0.245466739 -0.110767446 -0.0247513521 231 104 12 0.185695603 
0.0122792106 0.266092062 -0.102522865 -0.0370018668 236 90 11 0.208293095 
0.000985982013 0.26411882 -0.0989020988 -0.0464793779 226 81 8 0.218217209 
-0.0065680691 0.268502504 -0.0902206227 -0.0583841652 234 82 9 0.242012173 
0.00940869562 0.256445765 -0.0962160751 -0.0421507582 243 88 11 0.225579306 
0.000751017011 0.278499901 -0.0956357569 -0.0513114072 245 87 11 0.227169886 
-0.00486192014 0.263579756 -0.109480001 -0.0396248735 224 70 6 0.189224347 
-0.00661844853 0.257053047 -0.0932482257 -0.0538753793 239 125 20 0.23371385 
0.0110867806 0.255442023 -0.107913464 -0.0321081169 236 89 10 0.193518057 
-0.00764998421 0.272239327 -0.101620317 -0.0493085384 239 73 8 0.210766882 
0.00267917872 0.261142254 -0.0869421437 -0.0539934225 251 90 12 0.250998139 
-0.00178244605 0.252441913 -0.0613413192 -0.0675642341 242 90 11 0.321167171 
-0.00257454161 0.269072235 -0.0790858343 -0.0639335364 230 89 10 0.27253142 
-0.00925350748 0.273347139 -0.0619711541 -0.0743342936 253 103 15 0.319440842 
0.0153482445 0.254576951 -0.0859334096 -0.0437645577 252 86 11 0.25376296 
0.00768404128 0.259997189 -0.0618052483 -0.0580725558 239 92 11 0.319895595 
0.00851073489 0.270205498 -0.092034027 -0.0474426672 240 93 11 0.237041831 
0.0117492015 0.276223093 -0.0596512593 -0.0533554591 245 93 12 0.325799435 
-0.00390779693 0.247579888 -0.0716790184 -0.0666756034 242 85 10 0.292832673 
-0.00706510851 0.278001249 -0.0727408901 -0.0718122572 240 90 11 0.289922208 
0.0158851277 0.257038683 -0.0703859925 -0.0493022949 249 85 10 0.296376705 
-0.00534325093 0.263903528 -0.0685794801 -0.0706659183 246 88 11 0.301328152 
0.00306351064 0.272352159 -0.0667211115 -0.0628059432 249 94 12 0.306421757 
0.00572881568 0.262593746 -0.0733307302 -0.0586408153 236 90 11 0.288305521 
0.0133205568 0.2652798 -0.082189098 -0.0484208092 254 94 13 0.264025688 
0.00480329478 0.252224296 -0.0393729769 -0.0524772182 229 89 10 0.381379962 
0.00963314064 0.276758015 -0.0478071831 -0.0508864745 254 150 27 0.358262718 
0.0167393796 0.252159923 -0.0382183827 -0.042283278 238 93 11 0.384544581 
0.0068382821 0.272068441 -0.0371859409 -0.0468111783 254 86 11 0.387374401 
-0.00177188893 0.252462327 -0.0493263975 -0.0636944994 242 101 13 0.354098707 
0.000464111974 0.274695724 -0.0553762615 -0.0627385527 247 112 16 0.337516725 
0.0097709829 0.255050957 -0.0499210022 -0.0535381958 245 76 9 0.352468997 
0.00252810656 0.266712636 -0.046686694 -0.0570854768 254 145 25 0.361333877 
0.0126358727 0.263032645 -0.0414002202 -0.0463051796 254 159 27 0.375823498 
-0.00265124347 0.26360628 -0.0568138175 -0.0669982955 245 76 9 0.33357653 
0.0128023857 0.266359925 -0.053058099 -0.051065769 253 83 11 0.34387055 
0.00416702824 0.256331384 -0.0182640851 -0.0357581936 252 95 13 0.439237118 
-0.00312916166 0.278277874 -0.0221588891 -0.0383564532 241 96 12 0.428561866 
0.016407555 0.257114857 -0.0219508223 -0.0314538255 248 93 12 0.429132164 
0.00852255989 0.277463764 -0.0194361862 -0.0309536476 248 97 13 0.436024517 
-0.0010647634 0.253434241 -0.0286715999 -0.0477081612 233 87 10 0.410711229 
-0.00440999307 0.274078399 -0.0333041325 -0.0496656671 237 80 9 0.398013979 
0.00989736058 0.248139039 -0.0293559451 -0.0425117351 241 99 13 0.40883556 
0.0135984411 0.270192713 -0.0273753852 -0.0354017541 254 94 13 0.414264053 
-0.00620516064 0.268083841 -0.0168057736 -0.0362731181 236 103 13 0.443234205 
0.00188305008 0.267816901 -0.0252840854 -0.0408724025 246 90 11 0.419996083 
-0.00132496806 0.26276648 -0.0362263694 -0.0525449738 235 96 12 0.390004456 
0.00180954987 0.26361528 -0.00905953255 -0.0273168162 239 78 9 0.464465767 
0.00883479323 0.259705216 -0.0309237242 -0.0426755548 245 87 11 0.404538423 
0.0172040462 0.275564104 -0.00188940845 -0.0120397881 246 90 11 0.484118283 
-0.00506411213 0.292758495 -0.139731616 -0.0158495922 251 83 11 0.106308006 
0.0102051646 0.30215925 -0.14447847 -0.0079191504 250 75 9 0.093297407 
-0.00464492245 0.291581154 -0.155841932 -2.72612306e-05 238 81 9 0.0621514097 
-0.00877846405 0.289572984 -0.128956765 -0.0265222117 248 83 10 0.135840684 
0.0107643083 0.290101171 -0.143487409 -0.00689495821 252 72 8 0.0960137919 
-0.00686526485 0.279708654 -0.154305041 -2.11059087e-05 249 81 10 0.0663638562 
0.000722661207 0.285400301 -0.146993697 -0.00630507246 242 81 9 0.0864034444 
0.020713333 0.283406019 -0.14520368 -4.11967048e-05 246 89 11 0.0913096815 
0.00193239364 0.2959598 -0.124030404 -0.0288883708 252 72 8 0.149343297 
0.0187307224 0.292077154 -0.130768761 -0.0144429505 237 81 9 0.130874202 
-0.00820215233 0.294273317 -0.117829539 -0.0377914682 224 82 9 0.166339189 
0.00717358477 0.297210783 -0.113197215 -0.0359612554 243 84 10 0.179035872 
-0.00181141042 0.280742228 -0.125597134 -0.0264771376 243 81 9 0.145049065 
0.00352775375 0.286058873 -0.134904727 -0.0168663729 233 77 8 0.119537979 
0.00115362357 0.287123471 -0.115752228 -0.0353689753 236 80 9 0.172032863 
0.00940135773 0.286423445 -0.124474987 -0.0238444842 246 89 11 0.14812474 
-0.00238536554 0.294649571 -0.106721982 -0.0460075624 249 75 9 0.196783766 
0.0066869217 0.287610143 -0.103586309 -0.0426569059 244 92 12 0.205378309 
-0.00979703479 0.287966371 -0.0966218486 -0.0571920872 233 77 8 0.224467129 
0.0113014448 0.292821467 -0.0941923931 -0.0462805033 237 90 11 0.231125996 
-0.00412164954 0.282837033 -0.105816908 -0.0458240621 236 80 9 0.199264482 
-0.00480272807 0.279239476 -0.0850349888 -0.0629467517 254 93 13 0.256225437 
0.0107052783 0.280543685 -0.112458788 -0.0323564224 240 88 11 0.181059822 
0.00542643759 0.285464287 -0.08741384 -0.0543041751 232 88 10 0.249705255 
0.0133376997 0.277951121 -0.100924157 -0.0388807058 249 88 11 0.212674975 
-0.000430986576 0.294062346 -0.0922301412 -0.0565241463 252 81 10 0.236504316 
0.018798871 0.300424576 -0.0885617584 -0.0432121493 234 102 13 0.246558949 
0.014036567 0.298919648 -0.0603302978 -0.0502191931 243 91 11 0.323938251 
-0.00168709806 0.298011303 -0.0804191977 -0.0650099367 201 82 7 0.268876791 
0.00626427401 0.294543773 -0.0703967288 -0.0595276356 253 162 28 0.29634729 
-0.000810601865 0.283248723 -0.0637691393 -0.0661866292 253 102 14 0.314512789 
0.00889508612 0.281667888 -0.0709474757 -0.0568315014 241 84 10 0.294837743 
-0.000115169445 0.286745846 -0.0769264698 -0.0643532649 252 79 9 0.278449982 
0.00722679356 0.275462419 -0.0809392706 -0.0552302971 249 88 11 0.267451346 
-0.00213812222 0.292835504 -0.0436749719 -0.0543489158 253 95 13 0.369588673 
0.00779774552 0.296289146 -0.0501946509 -0.051686462 254 93 13 0.351718962 
0.000718207331 0.295495927 -0.0598066114 -0.062743865 254 97 13 0.32537362 
0.00195117423 0.286239147 -0.0523219071 -0.0587204769 241 101 13 0.345888376 
0.000542901864 0.281469673 -0.0414327905 -0.0526935458 243 87 10 0.37573427 
0.010605515 0.287468225 -0.0426394343 -0.0458534621 243 100 13 0.372426957 
0.00993967801 0.288078308 -0.0609881207 -0.0548938066 245 94 12 0.32213524 
-0.00328453886 0.294891298 -0.0148026077 -0.0285907164 254 99 14 0.448724657 
0.0161809791 0.294573098 -0.0201350618 -0.0246288646 253 95 13 0.434108973 
-0.0109898252 0.294782102 -0.0357354209 -0.0504789501 254 100 15 0.39135012 
0.00492831459 0.292920798 -0.0338346176 -0.0423636436 253 95 13 0.396559983 
-0.00424871128 0.285695821 -0.0314018093 -0.0458740331 250 98 13 0.403228045 
0.00521451142 0.290312409 -0.0220233873 -0.0326971896 250 95 13 0.428933263 
0.0069379881 0.281931758 -0.0301803295 -0.0399349108 248 94 12 0.406575978 
0.00110732671 0.284164608 -0.0125732413 -0.0269933529 241 96 12 0.454835087 
0.015849214 0.289693117 -0.031279061 -0.0340141393 246 95 12 0.403564513 
0.0180983339 0.280495942 -0.0128388694 -0.0198238399 248 94 12 0.454107016 
0.0030938345 0.322159499 -0.158455119 -4.13848175e-05 245 99 13 0.0549889542 
0.0132041117 0.312175959 -0.15332453 -2.74885679e-05 250 75 9 0.0690513328 
0.0208652783 0.321021914 -0.150700033 -5.45289076e-05 234 80 9 0.0762447864 
0.00149026106 0.312920839 -0.151007876 -0.00631466974 237 90 11 0.075401023 
-0.00445411354 0.311099172 -0.137010649 -0.0210105386 237 90 11 0.11376588 
0.00968104322 0.32149896 -0.146683052 -0.00867085531 247 77 9 0.0872548893 
-0.00207290472 0.303231508 -0.157081634 -4.93679618e-05 227 121 16 0.058753524 
-0.0151128871 0.32665807 -0.142421603 -0.0199092589 244 163 27 0.0989350528 
0.00652551791 0.295194954 -0.153414696 -7.93510117e-06 220 71 7 0.068804197 
-0.00151463412 0.302929431 -0.145210132 -0.0112328082 237 90 11 0.0912920013 
-0.00463450141 0.320736676 -0.144362509 -0.0153596038 239 144 22 0.0936152413 
0.00708734756 0.312438518 -0.139272273 -0.0152717093 250 75 9 0.10756702 
0.0133828064 0.321983039 -0.135146901 -0.0172557961 234 80 9 0.118874207 
-0.0031251139 0.316338509 -0.124609299 -0.033040002 253 85 11 0.147756606 
0.015289397 0.307539076 -0.131860718 -0.0173361506 250 91 12 0.127881274 
-0.000231614045 0.306180418 -0.109374382 -0.0442239679 248 81 10 0.189513832 
0.00729246438 0.308066994 -0.11788395 -0.0333594382 250 91 12 0.166190043 
-0.00669554248 0.301252842 -0.130651101 -0.0262239501 251 83 11 0.131196693 
0.00221683178 0.324413449 -0.132591158 -0.0247954503 247 77 9 0.125879213 
0.00832421612 0.297017545 -0.133858666 -0.0175559185 252 72 8 0.122405119 
0.00877266284 0.317316115 -0.125550166 -0.0272258483 235 86 10 0.145177796 
0.00354772969 0.306929499 -0.129388735 -0.024896659 250 75 9 0.134656698 
0.00143100345 0.317385882 -0.11357221 -0.0411754213 236 78 8 0.17800805 
0.0134820137 0.299234301 -0.12329939 -0.0244042259 243 84 10 0.151346922 
0.000227413402 0.315490931 -0.101770625 -0.051330246 253 88 11 0.210354894 
0.0219915826 0.319641083 -0.107406199 -0.0320931748 233 82 9 0.19490841 
-0.0075716353 0.318152815 -0.0881344154 -0.0668901876 227 88 10 0.24773024 
0.00456995983 0.313529104 -0.0907577276 -0.0554413572 253 145 25 0.240540028 
-0.011571805 0.302083492 -0.109662749 -0.0476425514 224 82 9 0.18872346 
-0.0053902627 0.305923373 -0.0886335969 -0.0637879074 220 81 8 0.246362045 
-0.00680658314 0.325999677 -0.112232104 -0.0470717587 234 73 8 0.181681141 
-0.0113555733 0.329196334 -0.0911659002 -0.0681129992 235 86 10 0.239421278 
0.0136612477 0.311092377 -0.108600616 -0.0368674733 243 82 9 0.19163464 
0.00708563533 0.302104712 -0.08743269 -0.0542787723 235 110 14 0.249653593 
0.0082265446 0.331047595 -0.0868545622 -0.0549602062 253 91 12 0.251238167 
0.00201552943 0.304450452 -0.0980939269 -0.0517551415 250 80 9 0.220432326 
0.000814125291 0.324453533 -0.0938038826 -0.0574283339 243 85 10 0.232190862 
0.0120575791 0.300804496 -0.103184745 -0.0407437794 240 113 16 0.206478953 
0.0141098732 0.320876747 -0.0919286907 -0.047086738 243 94 12 0.237330556 
-0.000796594773 0.312688529 -0.0799661875 -0.0651804879 228 112 14 0.270118445 
0.00297427131 0.315327704 -0.0590968281 -0.0586314686 253 100 14 0.327319056 
0.0081202006 0.320495099 -0.0815722048 -0.0564061105 237 107 14 0.265716553 
0.0148276053 0.316881746 -0.0590003431 -0.0478618219 237 104 13 0.327583522 
-0.00616071979 0.315674901 -0.0663536116 -0.0700283945 253 95 13 0.307429016 
-0.00499756401 0.306250155 -0.0594724678 -0.0662428513 247 96 13 0.326289475 
-0.00668923417 0.327371776 -0.0695244744 -0.0708736107 248 158 27 0.298738033 
0.00496883504 0.305312097 -0.0650544092 -0.0598489419 253 91 12 0.310990006 
0.00596385915 0.316144884 -0.0705931559 -0.059361238 251 91 12 0.295808911 
0.00863807369 0.305919081 -0.0765053704 -0.0566916838 244 171 29 0.279604167 
-0.00462167617 0.327633947 -0.0813289881 -0.0687911659 253 91 12 0.266383171 
0.0121357664 0.293618977 -0.0808181763 -0.0519069359 245 85 10 0.267783254 
0.0168235358 0.325383902 -0.0671239868 -0.0477258973 253 96 13 0.305317521 
0.00767834811 0.309258163 -0.0410081409 -0.043966312 245 94 12 0.37689814 
0.0130692935 0.324416727 -0.042568434 -0.039480865 223 86 9 0.372621596 
-0.00683062943 0.315678537 -0.0522518978 -0.0605854206 227 94 11 0.346080273 
0.00389854168 0.318339884 -0.047389064 -0.0499852449 247 96 12 0.359408766 
-0.00167178304 0.302794397 -0.0368629657 -0.0468026921 230 92 11 0.388259619 
-0.00823891815 0.324471146 -0.0436643623 -0.0522274412 250 99 13 0.36961773 
0.013331362 0.298695356 -0.0399806015 -0.0407045409 254 110 16 0.379714519 
-0.00212097913 0.32667315 -0.053825818 -0.0576141402 250 135 22 0.341766328 
-0.000652298331 0.304889232 -0.0483613238 -0.0554400124 254 103 15 0.356743932 
-0.0126632256 0.328514129 -0.0591908954 -0.0674697384 252 99 13 0.327061236 
0.0100419391 0.307719588 -0.0531116799 -0.0502742678 253 100 14 0.343723685 
0.00986308977 0.326651871 -0.0540051833 -0.0489841774 246 86 11 0.341274709 
-0.00612689089 0.31994307 -0.0100027965 -0.0204075854 248 94 12 0.461880416 
0.0165585671 0.311902285 -0.0332461894 -0.0320122018 252 99 13 0.398172826 
-0.0052744993 0.321797639 -0.0217955131 -0.0312163755 254 101 14 0.42955786 
0.00968146976 0.314667672 -0.0238098353 -0.0282304846 227 94 11 0.424036831 
-0.00378765166 0.296915263 -0.02652633 -0.0393206701 252 107 15 0.416591197 
-0.00500184391 0.328760058 -0.0330247842 -0.0406105332 242 92 11 0.39877966 
-0.0024303461 0.306203365 -0.0191676654 -0.0304853506 253 90 12 0.436760515 
-0.000557467167 0.311986864 -0.0294479486 -0.0383026712 241 95 12 0.408583403 
0.00231587724 0.303309321 -0.00860317703 -0.0195967909 254 99 14 0.4657166 
0.00389563479 0.321175158 -0.0356181152 -0.0402194187 227 94 11 0.391671628 
0.00410230458 0.314257234 -0.0132090924 -0.0213956162 247 93 12 0.453092307 
0.00824460946 0.303860009 -0.0301325656 -0.0358553156 247 96 12 0.406706929 
0.00902118068 0.304082811 -0.0185225382 -0.0256521869 230 92 11 0.438528687 
0.0145676024 0.323947519 -0.0309860706 -0.0299903285 250 135 22 0.404367566 
0.0105132544 0.324305385 -0.0124485474 -0.0165330153 254 139 24 0.45517686 
-0.00521412212 0.338775694 -0.162825584 -2.42193346e-05 246 86 10 0.043009989 
0.0108849378 0.3472341 -0.158958942 -2.93481571e-05 215 93 10 0.0536080301 
0.00136917597 0.329730093 -0.149364203 -0.0101311216 243 78 9 0.0799061507 
0.0155382901 0.331188262 -0.153979272 -0.000806559343 234 82 9 0.0672567561 
-0.0100274831 0.331734717 -0.151791155 -0.0107336855 209 93 10 0.0732541382 
-0.00469109882 0.331599236 -0.13932623 -0.0216513202 238 87 10 0.107419126 
0.00545457657 0.334647328 -0.159415498 -2.2622582e-05 243 78 9 0.0523566566 
0.00856146589 0.331474692 -0.13997741 -0.0163685661 234 82 9 0.105634309 
-0.0030569688 0.340647131 -0.147735864 -0.0143154338 244 82 10 0.0843692496 
0.00847008079 0.339692324 -0.149169192 -0.0090502603 215 93 10 0.0804406554 
0.00320286094 0.341862291 -0.137687683 -0.0218422748 215 93 10 0.111910202 
0.0145605393 0.344454348 -0.135106549 -0.0190779287 253 156 27 0.118984804 
0.00703479443 0.328707546 -0.122582361 -0.0319521017 235 86 10 0.153312221 
0.018965885 0.332016736 -0.133024961 -0.0170351975 236 91 11 0.124690212 
0.000674052746 0.334941179 -0.114660479 -0.0426452793 227 96 11 0.175025225 
0.0194735955 0.340460837 -0.114447981 -0.0311454516 250 84 11 0.175607666 
-0.00773581816 0.341171265 -0.132766426 -0.0299422722 238 87 10 0.12539883 
0.0134489406 0.338645607 -0.124563158 -0.0277164932 249 89 11 0.147883072 
0.00200595334 0.341974944 -0.125678435 -0.0331866778 234 82 9 0.144826233 
0.0115036331 0.332369477 -0.110313423 -0.0391184464 251 95 13 0.186940029 
0.0175458267 0.339835316 -0.101077512 -0.0406302847 235 81 9 0.212254643 
-0.00871286914 0.334504366 -0.103759646 -0.0565518439 234 82 9 0.204903215 
0.00854420383 0.332279593 -0.0987587795 -0.0488882326 235 81 9 0.218610033 
-0.00445834454 0.345522672 -0.101062529 -0.0577565134 231 85 10 0.212295711 
-0.00429300824 0.347099185 -0.0890488476 -0.0658334643 246 79 9 0.24522388 
0.00823828392 0.344141275 -0.115900673 -0.0382000953 239 84 10 0.171625987 
0.00725144148 0.343278706 -0.0905255526 -0.0548367053 238 76 8 0.241176397 
-0.00179513171 0.336170524 -0.0938027427 -0.0603179596 250 84 11 0.232193977 
0.0162458997 0.35051012 -0.096346356 -0.0444802269 252 86 11 0.225222215 
0.000213926309 0.338496655 -0.082205683 -0.0642028823 237 125 18 0.26398024 
0.00398678705 0.326029509 -0.0640843287 -0.0590793043 241 97 12 0.31364888 
0.0179169811 0.337882996 -0.0892998725 -0.0452077575 251 79 10 0.244535848 
0.0129998233 0.335253984 -0.0615338348 -0.0491050072 212 116 14 0.320639491 
-0.00629487121 0.338861942 -0.0721859783 -0.0705768764 252 136 22 0.291443139 
0.00514489505 0.330049425 -0.0753749311 -0.0600885786 254 90 12 0.282702595 
-0.0138272373 0.34733212 -0.0690381378 -0.0738740787 254 97 14 0.300071031 
0.0109994905 0.346500158 -0.0587334447 -0.048618827 254 95 13 0.328315049 
0.00529555837 0.340256959 -0.0690257251 -0.0585048497 252 136 22 0.300105065 
0.0117068011 0.339551091 -0.079071641 -0.0532511584 248 87 11 0.272570312 
0.0023919791 0.330197781 -0.043237485 -0.0460690558 251 137 23 0.37078777 
0.0142097585 0.336293906 -0.0420593619 -0.036863789 254 160 29 0.374016881 
-0.00457326602 0.338041216 -0.0492496863 -0.0536851622 240 91 11 0.354308963 
0.00728511158 0.337765247 -0.05157502 -0.0481958017 254 142 25 0.347935528 
-0.0106470203 0.345393479 -0.0420279875 -0.0482537188 254 99 14 0.374102861 
0.00327117275 0.341898263 -0.040798679 -0.0419601575 210 91 9 0.377472281 
0.00252992683 0.348912895 -0.0506605729 -0.0493992902 223 89 10 0.350441933 
0.00550953904 0.325897336 -0.0232907515 -0.0280912872 247 95 12 0.425459564 
0.0129447952 0.334337085 -0.0188942198 -0.0195287354 251 108 15 0.437509954 
-0.00237277616 0.334445149 -0.0228630658 -0.0294054057 242 92 11 0.426631838 
0.00665997062 0.333965987 -0.0320989452 -0.0339928865 251 108 15 0.401317269 
-0.00835174974 0.34453243 -0.0211888533 -0.0277915765 242 91 11 0.431220651 
0.00598398689 0.342851162 -0.0235814676 -0.0256456342 254 89 12 0.424662769 
-0.0049120388 0.34123835 -0.0323767774 -0.0380943827 254 99 14 0.40055576 
4.22440207e-05 0.345283896 -0.0133611234 -0.0180915948 254 99 14 0.452675581 
0.0122946529 0.344408393 -0.033728905 -0.0307800621 248 148 25 0.396849722 
0.0107510956 0.342765301 -0.00839016493 -0.0100597953 251 97 13 0.466300458 
0.000811726088 0.357666492 -0.163754806 -2.58286454e-05 254 85 11 0.0404630937 
0.00765306922 0.365958005 -0.155444115 -0.00651787873 234 76 8 0.0632417798 
0.00299377507 0.351225674 -0.144897953 -0.0163719133 232 83 9 0.0921476483 
0.0146855991 0.349635154 -0.146300286 -0.00999861769 239 148 23 0.0883040056 
-0.0108214701 0.354142517 -0.158689156 -0.00699674059 226 84 9 0.0543474816 
-0.000794166583 0.348095477 -0.156716615 -0.00604007393 244 82 10 0.0597539991 
0.00383379543 0.352783293 -0.133097023 -0.0269480143 235 129 19 0.124492697 
-0.0130203292 0.359925836 -0.148512006 -0.0180216581 226 84 9 0.0822419301 
-0.00168184889 0.359291852 -0.152273357 -0.0118532078 254 84 11 0.0719324797 
0.00569312926 0.362666517 -0.139659539 -0.0213045124 238 145 22 0.106505565 
0.0153913638 0.361545265 -0.146622032 -0.0105556231 232 161 25 0.0874221399 
0.012360977 0.350542098 -0.124965772 -0.029175777 231 85 10 0.146779552 
-0.00344062434 0.346089125 -0.112866625 -0.0474233851 239 148 23 0.179941982 
0.00135971571 0.353128642 -0.121236756 -0.0385701656 239 148 23 0.157000378 
-0.00274578389 0.363171518 -0.126409993 -0.0368457846 253 122 19 0.142821103 
0.00914609339 0.362389743 -0.128134131 -0.0295264665 251 157 28 0.138095438 
-0.00145669072 0.362923622 -0.114454985 -0.0467552058 236 163 26 0.175588459 
0.0138260527 0.358673841 -0.116263375 -0.035337951 241 94 12 0.170631871 
0.0049169641 0.353984505 -0.109686464 -0.0458894372 247 95 12 0.188658461 
0.00648460304 0.342477947 -0.104112528 -0.0478046276 250 84 11 0.203935996 
0.0045355903 0.352525264 -0.0978664458 -0.0539177246 252 84 11 0.221055821 
-0.0107018603 0.36571306 -0.101947114 -0.0624239445 232 161 25 0.209871158 
-0.00275185239 0.369150072 -0.093881771 -0.0629773587 246 87 11 0.231977373 
0.00153700029 0.362754971 -0.102928929 -0.0536767654 252 100 14 0.207180113 
0.00796810351 0.363954663 -0.0927475616 -0.0538925119 244 87 11 0.235086113 
-0.0051194327 0.357807249 -0.0945026428 -0.0638983399 245 85 10 0.230275631 
0.0130092576 0.360081941 -0.10295292 -0.0444495901 246 87 11 0.207114354 
0.00412533944 0.354994774 -0.086196579 -0.0595464706 248 124 19 0.253041625 
0.000311182754 0.348553926 -0.0623697005 -0.0592310801 254 103 15 0.318348467 
0.0154244145 0.349594951 -0.0843797028 -0.0488820113 254 116 18 0.258021504 
0.00785779767 0.35693261 -0.0662114248 -0.0539065562 249 93 12 0.307818741 
0.00149448158 0.360588223 -0.0758154541 -0.0625444055 253 97 13 0.281495154 
0.00680694124 0.349675804 -0.0757249221 -0.0577925406 249 92 12 0.281743288 
0.000864641916 0.366723567 -0.0656702965 -0.0588083453 253 96 13 0.309301913 
-0.00632793363 0.364190847 -0.0838127658 -0.0702648163 235 137 20 0.259575397 
0.0133040473 0.359618932 -0.0781865269 -0.0511131436 231 91 10 0.27499631 
-0.00161901698 0.352840513 -0.0401870124 -0.042303212 254 83 11 0.379148781 
0.0132389292 0.347867996 -0.045092985 -0.0382839628 243 103 14 0.365702063 
-0.00815517176 0.353676111 -0.0507829264 -0.054426074 246 84 10 0.350106537 
0.00760721928 0.358555228 -0.045471929 -0.0410090648 252 94 12 0.364663422 
-0.00335397804 0.363215625 -0.0463399738 -0.0470942557 251 90 12 0.362284184 
0.00484234001 0.36882025 -0.0394996628 -0.036451485 237 92 11 0.381032765 
0.00117479323 0.358984947 -0.0564623587 -0.0533591956 254 92 12 0.33453986 
0.0130794402 0.359745264 -0.0559842065 -0.0440660827 253 100 14 0.335850418 
0.000824198709 0.360355377 -0.0188224241 -0.0207864121 254 93 12 0.437706798 
0.0104434025 0.35359785 -0.0206634533 -0.0195518751 254 83 11 0.432660699 
-0.0113412244 0.359339297 -0.0381537043 -0.04266271 246 92 12 0.384721845 
-0.00119630306 0.351500332 -0.0275743119 -0.030866053 248 89 11 0.41371879 
-0.0114351297 0.36148563 -0.0261679832 -0.0307056848 248 94 12 0.417573392 
0.0106502138 0.364156395 -0.026122082 -0.0227331892 254 103 15 0.417699218 
-0.000359277707 0.363116264 -0.0304736774 -0.0315939486 252 92 12 0.405771971 
-0.0027827411 0.360797554 -0.00660430361 -0.0101291575 236 92 11 0.47119531 
0.00826087501 0.355587691 -0.0338703543 -0.0316662006 254 97 14 0.396462053 
0.0116937682 0.363778502 -0.0141625563 -0.0118556023 251 90 12 0.450478941 
0.020514207 0.196908295 -0.116445072 -0.00934387185 200 74 11 0.170133859 
0.0318017863 0.192986876 -0.116507359 -0.00185267127 207 72 11 0.169963136 
0.0235496238 0.187811553 -0.123541266 -1.50296837e-05 200 74 12 0.150683969 
0.0278326049 0.192131951 -0.105017729 -0.0126898419 214 73 11 0.201454937 
0.0389836021 0.195347622 -0.104741223 -0.00547459163 221 80 12 0.202212811 
0.0165456943 0.18991527 -0.101348609 -0.0221900921 219 81 11 0.211511597 
0.0371581279 0.18879132 -0.0948863924 -0.0118372049 227 113 21 0.229223818 
0.018109465 0.187173247 -0.0860920474 -0.0315913036 211 78 11 0.253328145 
0.0205020383 0.185422167 -0.111850195 -0.0106968516 226 88 13 0.182727903 
0.0316704884 0.18437928 -0.0848166272 -0.0212586895 228 141 31 0.256823927 
0.0255863555 0.185628444 -0.0950322151 -0.0199589431 223 82 12 0.228824139 
0.0463442169 0.186228991 -0.101916812 -3.45869921e-07 227 113 21 0.209954217 
0.0260105263 0.193542257 -0.0795499086 -0.0301702879 223 126 24 0.271259427 
0.0365178622 0.194988728 -0.0848829374 -0.0187464077 229 88 13 0.256642193 
0.0382334031 0.195571691 -0.0618826784 -0.025347352 235 84 12 0.319683373 
0.0168546643 0.198011681 -0.073415406 -0.0416927561 229 88 13 0.288073421 
0.0450685695 0.190668494 -0.0776173249 -0.0137535641 220 87 14 0.276556432 
0.0220896453 0.18672289 -0.0645324662 -0.0392510779 234 89 13 0.312420577 
0.0363360755 0.183618218 -0.0610690787 -0.0263173506 232 95 15 0.321913332 
0.0211047884 0.182363525 -0.0755063146 -0.0346842557 249 148 27 0.282342464 
0.0314431861 0.186928347 -0.0715780854 -0.0280618258 220 87 14 0.293109328 
0.0227819644 0.194817454 -0.0442682616 -0.041439373 248 153 27 0.367962509 
0.0340179056 0.194904059 -0.0401761569 -0.0297452901 232 136 20 0.379178554 
0.0206852462 0.199812889 -0.0548082031 -0.0438734554 212 85 10 0.339073718 
0.0288098622 0.191448748 -0.0556674451 -0.0352338441 225 84 11 0.336718619 
0.0204593018 0.183204532 -0.0455358438 -0.0436695255 234 103 16 0.364488214 
0.0349010862 0.175586283 -0.0393939875 -0.028700389 239 97 14 0.381322354 
0.0263929199 0.179776013 -0.0556896292 -0.0367844328 235 100 17 0.336657822 
0.041610539 0.18933551 -0.0520710126 -0.022693174 235 93 15 0.346576035 
0.0217793938 0.202054203 -0.0225036386 -0.034819901 254 89 12 0.427616954 
0.0398558453 0.199924484 -0.0221158843 -0.0188116375 249 112 16 0.428679734 
0.0191923156 0.199753448 -0.034064915 -0.0424160436 249 103 14 0.39592877 
0.0420079045 0.201567367 -0.0340678468 -0.0205563512 252 89 12 0.395920724 
0.0271051582 0.191821739 -0.0257021114 -0.0324513726 252 147 25 0.418850332 
0.0361422449 0.189000383 -0.0182289053 -0.0213516299 252 147 25 0.439333528 
0.0383739583 0.190861672 -0.0298896115 -0.0233203098 247 99 15 0.407372832 
0.0347214453 0.17744346 -0.0165811852 -0.0227875654 243 133 21 0.443849742 
0.0420697033 0.185560688 -0.0398766249 -0.021735752 238 120 20 0.379999518 
0.0387283228 0.185403645 -0.0072501963 -0.0141844824 249 106 15 0.469424993 
0.0321334973 0.214674458 -0.123960994 -3.48166795e-05 245 71 9 0.14953354 
0.0235886946 0.208525792 -0.117022701 -0.00945360493 230 77 10 0.16855064 
0.042424608 0.211909577 -0.113471068 -5.85929956e-06 239 87 11 0.178285271 
0.0123496642 0.207394809 -0.134210944 -1.2021279e-05 211 76 13 0.121439561 
0.017615743 0.225439161 -0.135828391 -1.86848301e-05 234 90 11 0.117006317 
0.0319156945 0.226341411 -0.126801431 -3.90324276e-05 249 87 11 0.14174822 
0.0229792818 0.20864971 -0.12900053 -2.92323239e-05 224 79 11 0.13572073 
0.0216482002 0.220187977 -0.125983775 -0.00546219666 239 74 9 0.143989325 
0.0350227207 0.20427908 -0.118960388 -5.55894367e-05 244 80 11 0.163239658 
0.0396692008 0.222234651 -0.118849188 -4.13630623e-05 232 67 7 0.163544446 
0.03141056 0.216199666 -0.112322256 -0.00935011916 232 67 7 0.181434035 
0.0371525027 0.211081922 -0.102817409 -0.0106334342 230 80 9 0.20748578 
0.0286474247 0.210638478 -0.0943751559 -0.0223237704 230 80 9 0.230625063 
0.0338992774 0.206734374 -0.0843616948 -0.0228575636 231 87 12 0.258070856 
0.0228762683 0.212568432 -0.104692027 -0.0199586414 244 80 11 0.202347651 
0.0242763553 0.200964272 -0.0888487399 -0.0275442321 229 85 13 0.245772362 
0.0195858441 0.224364951 -0.103535652 -0.0250270851 236 66 8 0.205517158 
0.0235991981 0.221360981 -0.0918423831 -0.0294192471 251 89 12 0.237567112 
0.0297928117 0.203361854 -0.108227819 -0.0111187352 244 80 11 0.192656443 
0.0278290156 0.22766687 -0.111826189 -0.0140483659 252 91 13 0.182793707 
0.035256803 0.222944155 -0.0904327482 -0.0208092444 243 91 11 0.241430759 
0.021092603 0.201576605 -0.100249477 -0.0223743077 214 73 11 0.214524195 
0.0309956577 0.221173584 -0.10140761 -0.0177841298 240 78 9 0.211349875 
0.0367383696 0.201801479 -0.0949422568 -0.0142073398 217 80 11 0.229070693 
0.0368495397 0.231337249 -0.0986510366 -0.0161999855 253 90 12 0.218905345 
0.0237854756 0.213037863 -0.0835457817 -0.0327633508 237 79 9 0.260307193 
0.0321884938 0.21499449 -0.0623021722 -0.0324315019 250 161 27 0.31853357 
0.0325834304 0.214717418 -0.0743056014 -0.0291226935 241 80 9 0.285633504 
0.0438381322 0.217448682 -0.0605744645 -0.0211540628 244 170 29 0.323269039 
0.0199201461 0.214863032 -0.072330676 -0.0415832251 246 83 10 0.29104656 
0.0383727923 0.224785313 -0.073017396 -0.0248859469 246 114 17 0.289164335 
0.0109964292 0.206072569 -0.0660282001 -0.051184915 241 83 12 0.30832094 
0.0161956903 0.227817833 -0.0638394877 -0.048672419 250 152 25 0.314319968 
0.0271658562 0.198962763 -0.0649090111 -0.0356147662 233 82 13 0.311388522 
0.0270877536 0.223732755 -0.0687165707 -0.0367592126 246 114 17 0.300952405 
0.0261243246 0.204564556 -0.0752274245 -0.0335850529 235 85 12 0.283106893 
0.0281233825 0.223782256 -0.0806420296 -0.0317300111 246 93 12 0.268266052 
0.0438205265 0.205619335 -0.0772140101 -0.0167051498 238 77 10 0.27766186 
0.0409667194 0.21590738 -0.0824905559 -0.0184921268 246 83 10 0.263199449 
0.0321603268 0.22011134 -0.0394306034 -0.0308095068 248 120 18 0.38122201 
0.0376415402 0.209600642 -0.043225456 -0.0265258234 247 85 11 0.370820761 
0.0229368694 0.221296981 -0.0565613098 -0.0423275083 254 172 32 0.334268659 
0.0281040948 0.211862549 -0.0517299511 -0.0368888304 227 110 14 0.347510874 
0.0263278447 0.206004724 -0.0411834456 -0.0373236015 254 84 11 0.376417696 
0.0325322784 0.200856999 -0.0502238907 -0.0321991853 244 131 22 0.351638824 
0.0369671918 0.219057009 -0.0506904125 -0.0280709565 232 86 10 0.350360125 
0.0218440965 0.209342182 -0.0620839149 -0.0422814004 223 94 12 0.319131792 
0.034813989 0.226221129 -0.0599052496 -0.0305204391 251 165 28 0.325103283 
0.041612573 0.207518473 -0.0543261282 -0.0233192053 251 156 27 0.340395004 
0.0293181185 0.227327704 -0.0484620444 -0.0353571735 253 85 11 0.356467813 
0.028423069 0.225531653 -0.0136949588 -0.0215810314 253 102 14 0.45176059 
0.0317672789 0.208306789 -0.0207874775 -0.0247867182 254 104 15 0.432320774 
0.0247680731 0.213367984 -0.0312918834 -0.0353364684 254 97 13 0.403529346 
0.0311608016 0.219871834 -0.0236568265 -0.0256519914 254 90 12 0.424456179 
0.0210613292 0.213882282 -0.0199589338 -0.0326376632 253 102 14 0.43459174 
0.0204945374 0.224965319 -0.0236983579 -0.0339944698 231 94 11 0.424342364 
0.0316021591 0.199020371 -0.0133940866 -0.0220201835 254 101 14 0.45258525 
0.0405733772 0.230274588 -0.0200242121 -0.014766559 248 93 12 0.434412807 
0.0304990597 0.201992229 -0.0308320094 -0.0305876434 249 89 11 0.404789835 
0.0220862757 0.205669239 -0.0111826835 -0.027354911 235 99 12 0.458646446 
0.0214842875 0.21907483 -0.0447899401 -0.0425167978 243 93 12 0.366532654 
0.0276827347 0.2235367 -0.00176400365 -0.0142704193 254 162 30 0.484462023 
0.0527192056 0.205244184 -0.0298251808 -0.00900020637 252 86 11 0.407549411 
0.0399052724 0.207573429 -0.0121968733 -0.0135331508 254 89 12 0.455866694 
0.0387598127 0.225411132 -0.0309532005 -0.0215574652 254 138 24 0.404457659 
0.0397963636 0.219294965 -0.0153067783 -0.0140752466 246 87 11 0.447342753 
0.0247569773 0.246289149 -0.136135936 -1.83027005e-05 238 156 25 0.116163373 
0.0229314175 0.23210524 -0.12170624 -0.010396908 249 87 11 0.155713573 
0.0271850191 0.240246177 -0.114393152 -0.014625608 246 98 12 0.175757945 
0.0345429592 0.237470627 -0.123409495 -0.00271904748 246 98 12 0.151045144 
0.0125900069 0.247579977 -0.13110058 -0.0104489122 239 125 20 0.129964724 
0.0256967768 0.23471652 -0.133129746 -3.20417748e-05 241 84 10 0.124403007 
0.0335243158 0.248382166 -0.128233373 -0.00148497708 231 104 12 0.137823418 
0.0256520566 0.234696105 -0.102354623 -0.0232284814 253 88 11 0.208754227 
0.0393410996 0.229913726 -0.109756812 -0.00746956142 254 94 13 0.18846564 
0.0161660407 0.241666645 -0.0997508615 -0.0328214429 249 87 11 0.21589084 
0.0292035975 0.236247867 -0.0907565653 -0.027439991 242 85 10 0.240543216 
0.0277793147 0.251020163 -0.109102957 -0.0194706861 254 105 15 0.190257788 
0.020968046 0.244418845 -0.0891017392 -0.0361960419 250 86 10 0.245078921 
0.0353864841 0.240898877 -0.105805665 -0.0144693889 237 82 9 0.199295297 
0.0310776103 0.244765505 -0.0827842727 -0.0302790217 239 82 9 0.262394398 
0.0300961398 0.246629402 -0.0967191905 -0.0247415937 250 86 10 0.224200323 
0.0410229899 0.241938055 -0.0946418047 -0.0159719232 241 85 10 0.229894206 
0.0227725711 0.235509709 -0.0813492835 -0.037479464 249 88 11 0.26632753 
0.0249928758 0.233110249 -0.058137238 -0.0405142307 254 154 26 0.3299492 
0.0345902108 0.233933046 -0.0798965618 -0.0271260105 241 84 10 0.270309299 
0.0353071317 0.235267088 -0.0677704811 -0.0296107102 250 152 25 0.303545535 
0.0176467951 0.226067841 -0.0756494701 -0.0435162894 246 93 12 0.281950086 
0.0236237496 0.235089257 -0.069426097 -0.0407452546 246 114 17 0.299007684 
0.0226975512 0.246927217 -0.0680983737 -0.0425314605 230 96 11 0.302646816 
0.0374501161 0.2495047 -0.0606213249 -0.028294025 249 97 13 0.323140591 
0.0152738001 0.244968519 -0.0785279721 -0.046378877 249 88 11 0.274060458 
0.0409581475 0.245260656 -0.0713113695 -0.0239404757 230 96 11 0.293840349 
0.0229487326 0.23021926 -0.0389062539 -0.0388467014 254 138 24 0.382659197 
0.0356332362 0.232519418 -0.0398804583 -0.0270944629 245 87 11 0.379989028 
0.0164018534 0.234609067 -0.0499036312 -0.0481619202 244 92 11 0.352516592 
0.0357073285 0.236533076 -0.0536884815 -0.0295925085 236 90 11 0.342142761 
0.0188425183 0.247249097 -0.048812177 -0.0450360104 248 87 11 0.355508149 
0.0378117226 0.246611893 -0.0483318903 -0.0265538506 252 98 13 0.356824577 
0.0270096473 0.24475576 -0.0572151728 -0.0385461561 251 90 12 0.332476497 
0.0269491281 0.238981828 -0.0460853018 -0.0368605591 245 87 11 0.362982243 
0.0220654979 0.235150486 -0.0174190346 -0.0274663866 208 107 12 0.441553295 
0.0301682204 0.231880948 -0.025693763 -0.0263888519 248 93 12 0.418873191 
0.0191811547 0.23565416 -0.0288852565 -0.0368528627 231 83 9 0.410125643 
0.0306767281 0.243369818 -0.0223902222 -0.0229539722 231 83 9 0.427927852 
0.0188584216 0.245308086 -0.0219159406 -0.0314255469 229 92 11 0.429227769 
0.0399244949 0.241053641 -0.0151526211 -0.0115677109 231 83 9 0.447765291 
0.0311353356 0.247874513 -0.00561770797 -0.0110566551 241 99 13 0.473899424 
0.0288937092 0.240482897 -0.0341312997 -0.0307608414 238 78 8 0.395746827 
0.0366901383 0.24336952 0.00398161868 -0.00104581018 241 99 13 0.500210106 
0.0143466899 0.251832515 -0.142802015 -5.27846278e-05 241 80 9 0.0978923813 
0.019787129 0.272233307 -0.141387895 -0.00216065627 230 73 7 0.10176833 
0.0300626922 0.277345449 -0.138214156 -9.31046088e-06 240 88 11 0.110467196 
0.0245462544 0.256216943 -0.129476115 -0.00719818287 236 89 10 0.134417206 
0.0191242285 0.278233767 -0.120173454 -0.0209087245 244 92 12 0.159914777 
0.0359873138 0.259960473 -0.130295485 -1.71321444e-05 236 90 11 0.132171407 
0.038089551 0.272317261 -0.130563408 -2.22777599e-05 254 93 13 0.131437048 
0.0201536734 0.254037023 -0.118569799 -0.0180977862 236 89 10 0.164310217 
0.0266948789 0.284532726 -0.113264322 -0.021567367 254 84 11 0.178851947 
0.031532485 0.256756246 -0.119739033 -0.0102465162 243 88 11 0.161105469 
0.0304846596 0.274386585 -0.121719554 -0.0118327541 254 93 13 0.15567708 
0.0220639557 0.260453552 -0.140452579 -5.06479992e-05 234 82 9 0.104331926 
0.0272610299 0.267611653 -0.132321611 -0.00501419092 253 90 12 0.126618013 
0.0226155743 0.265289038 -0.12149398 -0.0159691926 245 87 11 0.156295359 
0.0405990481 0.266920179 -0.120149098 -0.00470259134 240 93 11 0.159981534 
0.0305476468 0.258871943 -0.100647025 -0.0235779323 254 101 14 0.213434562 
0.0228826553 0.27464211 -0.1075828 -0.0270629339 249 88 11 0.194424361 
0.0399020277 0.251341194 -0.101964913 -0.014271928 252 86 11 0.209822372 
0.0360662378 0.277258545 -0.111421004 -0.0147848548 234 96 12 0.183904275 
0.0203287844 0.252829015 -0.0998005718 -0.0313668735 254 105 15 0.215754598 
0.0378515795 0.252184749 -0.0892116129 -0.0222035237 246 85 10 0.244777769 
0.0214329753 0.261107743 -0.10835474 -0.0258859061 243 88 11 0.19230856 
0.0197641831 0.266191095 -0.0931958035 -0.0373883955 254 101 14 0.233857542 
0.0309853181 0.26654467 -0.113071539 -0.0164614934 249 88 11 0.179380342 
0.0265025441 0.255682439 -0.0898878872 -0.0323283337 247 82 10 0.242924169 
0.0327540487 0.2707555 -0.102171458 -0.0221512597 240 98 12 0.209256262 
0.0417790301 0.262874931 -0.100179099 -0.0147716179 254 92 13 0.21471709 
0.0316057503 0.266325563 -0.0911194757 -0.0282229595 254 94 13 0.239548519 
0.0250668246 0.25730744 -0.0628119856 -0.0407632776 242 90 11 0.317136228 
0.0231511034 0.272222012 -0.0833631977 -0.0395148695 238 96 12 0.260807633 
0.0268500429 0.273588449 -0.0669715405 -0.0390441641 249 94 12 0.30573535 
0.0332719609 0.260197103 -0.081239149 -0.0299226213 246 88 11 0.266629398 
0.0356487595 0.262480855 -0.0599139072 -0.0300486349 239 92 11 0.32507956 
0.0440242067 0.278845727 -0.0775000453 -0.0211294014 253 92 12 0.27687788 
0.0342326388 0.274122089 -0.0577041358 -0.0309738275 247 95 12 0.331136286 
