ply
format ascii 1.0
comment created by gply, a Houdini tool.
comment converted from .[b]geo
comment for more information about Houdini, try:
comment www.sidefx.com
element vertex 600
property float x
property float y
property float z
property float depth
property uchar red
property uchar green
property uchar blue
property float length
element face 0
property list uchar int vertex_indices
end_header
0.104214706 0.184569061 -0.157550648 3.57324025e-05 128 137 132 0.358579159 
0.081567876 -0.337724358 -0.121661194 -0.000870077405 75 88 85 0.384723544 
0.0655073076 -0.221860752 -0.136259884 -0.00166560721 108 121 116 0.374088854 
0.15589653 -0.0968466774 0.0989305303 7.54250068e-05 125 138 133 0.545417964 
-0.348117054 -0.217298359 -0.182881728 2.2569322e-05 139 145 140 0.340126246 
0.0834279433 0.205573425 0.0852570608 -7.89799233e-05 124 134 129 0.535457253 
0.331962466 0.137897357 -0.153603256 9.71919508e-06 107 118 114 0.361454695 
0.00640848652 0.207319528 0.322435677 7.72811472e-06 113 123 118 0.708234668 
0.277399689 -0.0457157418 -0.428160489 6.82112295e-05 124 135 129 0.161448047 
0.0257655028 0.267467797 0.486733973 1.39958574e-05 129 141 136 0.827921033 
-0.176269308 -0.17600973 -0.0443144701 8.11903737e-05 132 139 134 0.441068292 
0.0146798231 0.112124473 0.234006271 -0.000157510978 114 126 122 0.643816531 
-0.255409747 -0.00642446149 -0.12484163 -0.000171064632 134 141 136 0.382406682 
-0.396249503 0.142079636 0.127362639 -2.81635439e-05 129 139 133 0.566129923 
-0.110610664 -0.318883866 0.155959487 8.67608469e-06 87 96 93 0.586961806 
0.0281081628 0.225951016 0.0879263952 5.03546325e-05 137 144 138 0.537401736 
-0.012846089 -0.260095 -0.0286016054 -4.72983811e-06 125 131 127 0.452514648 
0.0294959079 -0.136465147 -0.0210905187 -2.23896932e-05 146 154 148 0.457986236 
-0.130521089 0.0885731727 -0.018791141 -0.000122017344 118 129 124 0.459661245 
0.141940832 0.22843039 -0.259298921 -6.53055031e-06 125 136 131 0.284458607 
0.284491122 -0.168804094 0.121133216 -4.88833175e-05 112 123 118 0.561591923 
0.0263218842 -0.129413977 -0.054675933 -0.000106355525 103 114 110 0.433520257 
-0.249376088 0.253255963 -0.0289114174 9.57539305e-06 130 139 134 0.452288955 
0.0482316166 -0.288560122 -0.0831737667 -0.000104244566 117 132 127 0.412760466 
-0.297131628 -0.303541183 0.325492024 2.60283268e-05 123 132 127 0.71046114 
0.384513646 0.292464972 -0.191821545 -6.34608732e-05 127 137 132 0.333613843 
0.105303712 0.254629046 -0.148953229 -1.30351846e-05 117 127 122 0.364842087 
0.0451259986 -0.140996039 0.0988706201 5.49481047e-06 126 134 129 0.545374334 
0.0256865863 -0.15484938 0.0788739622 -1.28407264e-05 109 120 116 0.530807316 
0.406547815 0.00720714033 0.153170675 2.24605319e-05 121 130 125 0.584930241 
-0.00917409547 0.191776082 0.0556261763 -1.15768053e-05 108 118 113 0.513872027 
0.144124493 0.247271806 -0.125984743 3.86145548e-05 104 112 108 0.381573975 
-0.151801839 -0.160274148 0.0788675323 -6.21014042e-05 94 108 104 0.530802667 
-0.163461998 0.262875974 -0.130374581 -4.66080382e-06 137 147 141 0.378376067 
0.0506519563 0.0625642613 0.359755367 -9.79291508e-06 117 123 119 0.735420942 
-0.0738362893 0.186899975 -0.115007877 -9.81579069e-06 125 134 129 0.389570266 
0.0308774356 0.247050881 -0.284397006 -1.24090002e-05 97 109 104 0.266175419 
-0.259627908 -0.0684133098 -0.137787133 -2.19956855e-05 120 129 124 0.372976243 
-0.0660257563 -0.205476239 0.0808348209 5.07184304e-05 119 125 121 0.532235742 
-0.265703291 -0.266068161 0.262050629 3.720721e-05 128 141 136 0.664246023 
-0.291137457 -0.19958815 0.238190487 7.52927735e-06 149 157 152 0.646864593 
0.0452439673 0.248222545 -0.26765424 -8.4934436e-06 106 115 111 0.27837202 
0.0725259557 -0.292690516 0.0265522655 -8.65137699e-05 150 158 152 0.49269256 
0.41480726 -0.0785889924 0.139888629 -2.54480401e-05 113 122 118 0.575254679 
-0.144652024 0.216945857 -0.0988907814 -1.04041828e-05 104 114 110 0.4013111 
-0.132233799 0.144685894 0.0520950593 -4.01035941e-05 108 119 115 0.511299729 
-0.228361711 -0.0684156269 -0.0737283677 1.66906975e-05 116 125 121 0.419641137 
0.314105779 0.056806881 0.156353176 -4.38865682e-05 96 108 104 0.587248623 
-0.043094743 0.0217248239 0.0168603566 9.40378523e-05 122 133 128 0.4856323 
0.498402655 0.010591818 -0.194167212 -2.59361695e-06 131 142 136 0.331905097 
0.288430572 0.247417957 0.150086164 -1.70045532e-05 106 118 114 0.582683265 
0.150740698 -0.186736092 0.100329958 0.000154221532 120 126 121 0.546437383 
-0.0843707249 -0.159761146 0.016631389 -2.82539986e-06 145 154 148 0.485465497 
-0.217312485 0.169721678 0.050178621 4.73536566e-05 116 124 120 0.509903669 
0.168794215 -0.116630062 -0.117327958 -1.72661967e-05 99 112 108 0.387880147 
-0.122042008 0.466482759 -0.125898764 -5.00542228e-07 141 150 144 0.38163659 
0.412320167 -0.218508065 0.157218903 -6.98841177e-06 100 111 107 0.587879241 
-0.243261486 0.00148777151 -0.108885132 -3.72685026e-05 118 125 120 0.394030511 
0.363444954 0.188453108 -0.164866507 1.90658029e-05 131 138 133 0.353249758 
-0.157474786 0.0417971797 0.0948555022 -7.50860054e-05 130 139 134 0.542449415 
0.0361863263 -0.0637393519 -0.0537029617 -7.60128023e-06 117 124 119 0.434229046 
-0.129700869 0.305977553 -0.142664194 2.63515867e-05 130 137 132 0.369423479 
0.314172029 -0.0152283777 -0.15531522 -9.6076692e-06 90 102 98 0.360207587 
-0.0123339519 0.149369076 0.0664104521 3.85895983e-05 116 124 120 0.521728039 
0.169088393 0.0486256331 -0.26886493 -0.000133044901 124 131 126 0.27749005 
-0.188600942 0.12258359 -0.0933107734 -1.32767018e-05 128 139 134 0.405375957 
0.241086096 0.211133718 0.121802174 -1.59515766e-05 126 138 132 0.562079251 
-0.305879682 0.166361481 0.035230767 -6.72966125e-05 131 138 133 0.499014586 
-0.351962358 -0.183151349 -0.191418633 -5.05656644e-05 137 147 142 0.333907336 
-0.263956189 -0.210751623 0.259436846 -0.000128080195 135 140 135 0.662341952 
-0.229068905 0.164768949 -0.174182817 -6.49555004e-05 127 140 135 0.346463114 
0.343152076 -0.139428258 -0.110651776 -9.94567017e-07 111 119 115 0.392743558 
-0.446756184 -0.273469687 0.368942469 -4.28192725e-05 131 140 135 0.742113471 
-0.0539158992 -0.286562473 -0.0143222194 -1.23445061e-05 104 117 112 0.462916732 
0.342750072 0.063568145 0.141992196 1.60808595e-05 94 105 101 0.576787055 
0.0657555461 -0.22681354 0.135249406 -3.12487246e-05 125 133 128 0.571875155 
0.304296434 -0.095036 -0.139392152 3.02086119e-06 125 134 129 0.371807069 
-0.319732964 -0.305324495 -0.1606085 7.47800223e-05 118 125 120 0.356351584 
0.0440096855 -0.0298995301 -0.392336339 4.84241173e-06 93 105 101 0.187544867 
-0.291495293 -0.210045919 0.245032355 -2.55698687e-05 124 136 131 0.651848733 
0.291376591 -0.177693188 0.103556313 -0.000192043182 112 121 117 0.548787713 
-0.51073432 -0.15367201 0.371631235 3.3696997e-06 122 132 127 0.744072139 
-0.401175857 -0.0345881395 0.19882445 4.34012618e-05 120 131 126 0.618187666 
0.0998596102 0.238519847 -0.224875972 -1.07482774e-05 120 130 125 0.309534669 
0.0657425895 0.280222535 0.0810675099 -6.98602962e-05 114 127 122 0.532405257 
-0.310804158 -0.105004586 0.220421672 -0.000856092083 107 121 116 0.63392055 
-0.0474427566 0.118704677 -0.0225162879 1.05419567e-05 115 125 121 0.456947595 
0.456706285 0.0516816266 0.180910781 -3.11839976e-05 112 120 116 0.605138063 
0.0221517608 0.120973572 -0.00996359717 -3.65963206e-06 108 119 115 0.466091871 
0.228871837 -0.036685165 -0.364999443 -2.41858652e-05 123 134 129 0.207458973 
-0.347315937 -0.052320689 -0.226935759 -1.99115384e-05 105 115 111 0.308034211 
0.478349835 0.128905535 0.214087427 -0.000445976504 165 172 166 0.629306257 
0.190848574 0.14769049 -0.357625544 -8.06463067e-05 120 131 126 0.212830633 
-0.235139117 0.0587186776 0.0513328202 -6.01236243e-05 99 115 111 0.510744452 
0.0900280997 0.228291318 -0.201713145 -2.50996527e-05 94 106 102 0.326408118 
0.0834308416 -0.275927573 0.130870044 -3.94309754e-05 134 143 137 0.568684936 
-0.243576929 -0.213909075 -0.0889396742 4.34061512e-05 148 157 151 0.408560187 
-0.180656984 0.0232745167 -0.00175188517 4.41418961e-05 106 117 113 0.472073823 
-0.392116964 -0.141447574 -0.228606746 -3.25726869e-05 130 141 136 0.306816906 
0.0648813546 0.303027034 0.0759772062 2.63137626e-05 103 114 110 0.528697133 
-0.136898249 0.181135923 -0.0326795205 2.92649784e-05 125 131 126 0.449544013 
0.0459019169 0.0688765571 0.110839762 -3.57284443e-05 123 133 128 0.55409348 
0.132087693 -0.0938218236 -0.203242183 3.48631293e-05 140 150 144 0.325294256 
-0.232854277 0.13631393 0.0760580823 0.000122563913 140 149 143 0.528756082 
0.228069738 -0.0914448574 0.1244983 8.52780067e-06 113 121 116 0.564043283 
-0.16035977 0.248591274 -0.00389497401 3.71972565e-05 138 145 140 0.470512658 
-0.262611002 -0.221474841 -0.135081783 -9.08660004e-05 108 116 112 0.374947041 
-0.328799844 -0.307459503 -0.141573966 -1.72744039e-05 115 125 121 0.370217681 
0.124639869 0.0988092571 -0.225017861 -5.94677404e-05 148 155 150 0.309431344 
-0.177824825 0.230185732 -0.117729962 4.50073276e-06 156 163 156 0.387587309 
0.487009138 -0.213387161 0.169287264 2.45889532e-05 106 116 111 0.596670687 
0.00604547933 -0.133832425 0.0224672183 -0.0210183244 115 126 121 0.489716709 
0.057692837 0.347842515 -0.0119687095 -5.10579121e-05 78 92 89 0.46463117 
-0.0277887322 0.268102258 0.226922929 -2.71457247e-06 143 152 147 0.638656557 
-0.0808830485 0.37369585 -0.17105265 3.38741957e-05 92 104 100 0.348743349 
-0.392714381 -0.0494593233 0.203702778 -3.65527812e-05 125 138 133 0.621741354 
0.062844038 0.291003883 -0.135827944 9.29992384e-05 97 112 108 0.374403477 
0.221641034 0.142046005 -0.369659364 -9.52149276e-06 112 126 121 0.204064354 
0.0343808942 0.242992073 0.0855382085 2.64190894e-05 125 134 129 0.535662055 
0.35785383 0.0588186681 0.145985439 2.02901429e-05 109 120 115 0.579696 
-0.362303346 -0.00395448459 0.245402142 1.41691562e-05 126 135 130 0.652118087 
0.105394714 -0.225308955 0.298448056 -2.69642915e-05 147 156 150 0.690760434 
0.103384547 -0.343805999 0.131908253 2.39549554e-05 123 133 129 0.569441199 
-0.253913671 -0.0481634326 0.0966371074 3.25378496e-05 113 122 118 0.543747246 
-0.45844835 0.22514914 0.128732502 0.000113948714 114 120 116 0.567127764 
0.00198240858 0.485091686 0.107720219 -4.92241816e-05 131 141 136 0.551820934 
0.313781142 0.159320787 -0.129270703 1.03199854e-05 81 91 88 0.379180223 
-0.0995609686 0.114672907 0.0560567491 -9.53298877e-05 128 136 131 0.514185667 
-0.388839632 -0.173083663 -0.241958708 5.99969935e-05 130 138 133 0.297090441 
0.242416352 0.305380344 0.131621063 -8.94052209e-06 125 132 127 0.569231987 
-0.0106861787 -0.232180059 -0.0292064399 6.60552178e-06 107 116 112 0.452074021 
0.189450666 -0.0168280937 -0.341830283 3.19555402e-05 115 125 121 0.224336997 
0.154389322 -0.311303616 -0.291004717 6.07902184e-05 123 127 123 0.261361897 
0.0103958435 -0.0844650939 0.0180905182 -1.77086331e-05 149 160 154 0.486528456 
-0.14149633 0.274479806 -0.104623869 1.16261072e-05 96 107 103 0.397134721 
-0.175146416 -0.159118697 0.10677053 -2.95566861e-06 98 112 108 0.551129162 
0.0858498514 -0.283231199 -0.0173177086 -4.6113506e-05 127 135 130 0.460734606 
-0.00306766946 -0.0994886011 -0.0141109824 -0.00082974619 92 101 97 0.463070601 
-0.219697714 -0.0438202806 0.149711668 -8.62532761e-06 132 141 135 0.582410455 
-0.00448046671 -0.313388109 -0.00979856774 1.17708987e-05 125 135 130 0.466212064 
-0.0926329866 0.405036837 0.0955424011 3.26661393e-07 130 137 132 0.542949796 
0.00834762864 0.100780599 -0.141156211 -5.32388804e-05 94 102 98 0.370522022 
0.39324075 0.274739236 -0.189833984 -0.000166537444 130 139 133 0.335061699 
0.0474901348 -0.185032919 -0.124782681 -5.96558675e-06 127 134 129 0.382449627 
-0.224174768 -0.117859185 0.189994335 -4.82740579e-05 152 160 154 0.611755192 
-0.248249725 0.0444449298 -0.168989524 5.43473288e-06 134 142 137 0.350246251 
0.326668411 0.0787648261 -0.157206193 -6.49533322e-05 106 116 112 0.358830094 
0.361673146 0.241646796 0.175087214 3.28177121e-05 101 115 110 0.600895762 
-0.207463354 0.135496706 -0.0258488208 1.35200407e-05 136 145 140 0.454519957 
0.0789377764 0.144006878 -0.362468868 -7.34204659e-05 115 126 121 0.20930241 
0.0508481041 -0.315383583 -0.268392712 1.40469056e-05 104 114 110 0.277834058 
0.375579655 -0.0157336071 -0.146068588 -1.05689978e-05 103 112 108 0.366943508 
0.262827784 0.166873991 0.147170454 2.57648608e-05 127 136 131 0.580559313 
0.045054961 -0.170018628 0.030814752 3.4982957e-05 79 92 89 0.495797664 
-0.17459248 0.234784529 -0.0339727476 -2.549075e-05 124 134 129 0.448601931 
-0.00374030741 -0.345209688 -0.00892260578 5.02844341e-06 131 140 135 0.466850221 
0.207243368 0.0639944002 -0.140035316 -2.31104787e-06 149 157 151 0.371338516 
-0.00635978347 0.182038426 -0.0158295538 -9.18414444e-05 91 102 98 0.461818665 
-0.0244938042 -0.243860155 0.0316570252 1.25485531e-06 137 146 140 0.496411234 
0.273512512 -0.257152647 -0.0270045418 -3.78233381e-06 113 122 117 0.453678042 
0.156200409 -0.367186904 0.0862586945 2.71862373e-05 86 95 92 0.536186874 
-0.440452963 -0.0207501594 0.213543162 -1.68946572e-05 117 124 120 0.628909767 
-0.0449757092 0.30860737 -0.127986461 0.000100532205 106 115 111 0.380115747 
0.15666917 -0.325849444 0.0801511854 3.54025397e-05 128 136 131 0.531737745 
0.57830584 -0.00090264075 -0.193350136 4.54179826e-07 109 118 113 0.332500309 
0.0882490575 -0.15279223 -0.119117521 3.31189949e-06 119 129 124 0.386576533 
-0.0609798282 0.16759029 -0.00338317151 -0.000113277609 136 142 136 0.470885515 
-0.0930357203 -0.023316456 0.104578346 6.99114753e-06 113 122 118 0.549532175 
0.108317316 -0.183923274 -0.196268857 0.000283926929 113 122 118 0.330374092 
0.030364424 0.461292624 0.0859101191 -8.29414639e-05 142 149 143 0.535932958 
0.371671826 0.0854906365 -0.14678514 4.22080047e-05 95 107 103 0.366421491 
0.0875545666 -0.27783528 -0.139201179 -6.3022555e-05 153 162 156 0.371946186 
-0.292518914 -0.130169928 -0.146200955 4.140893e-06 129 135 130 0.366847068 
0.165181056 -0.203499749 0.430542558 -3.85070452e-05 125 136 130 0.786987245 
0.108312666 -0.0722604617 -0.190592259 5.03176125e-06 98 111 107 0.334509343 
-0.166625783 0.0613216758 0.000259686058 1.72064756e-06 128 139 134 0.473539233 
0.526208103 0.0751038417 0.231083363 2.21540249e-05 127 132 128 0.641687274 
0.122115314 0.147149831 0.123095982 4.82036558e-05 115 124 120 0.563021719 
0.144593999 0.222131178 -0.259724855 9.98232281e-05 126 135 130 0.284148335 
-0.15096724 -0.142831594 -0.0436953418 0.000309908617 80 96 93 0.44151932 
0.405329466 0.264156133 0.188311443 0.000171766093 109 120 115 0.610529244 
-0.212737158 -0.181921422 -0.0573819727 3.77027318e-05 144 154 149 0.431548983 
0.405392736 0.137734383 0.193355635 1.72396685e-05 130 137 132 0.614203751 
-0.04748974 -0.000949140347 0.0765307769 1.29591444e-05 131 141 136 0.529100358 
0.376920342 0.19985579 0.163802192 -1.33896829e-05 117 130 125 0.592674971 
-0.0524515808 0.386493474 -0.189476296 4.0564446e-05 96 108 104 0.335322261 
0.526267409 -0.0366754979 0.185040221 3.69313348e-05 92 102 99 0.60814625 
0.23415868 0.0582668371 -0.371567458 -2.16384651e-05 109 123 119 0.202674359 
-0.268630505 0.205173433 0.0910322592 -5.62947243e-05 124 131 126 0.539664268 
-0.0811765343 -0.146233618 0.0488285385 -0.000308472023 105 113 109 0.508920133 
-0.057096079 0.0661354363 0.0763020962 1.76463363e-05 114 123 118 0.528933823 
0.145354837 0.171283051 -0.279691249 3.43346619e-06 125 134 129 0.269603401 
0.184669614 -0.133928835 0.620125532 -1.41880009e-05 117 125 120 0.925092697 
0.0659646168 0.0155870393 -0.344752431 7.50596519e-05 106 119 115 0.222208306 
0.240653276 0.138694599 -0.138583392 1.93530068e-05 117 127 122 0.372396231 
0.355432123 -0.0859631598 -0.124780081 -5.9866823e-05 136 143 138 0.382451534 
-0.262942284 0.243788376 0.0734493583 -6.15873141e-05 106 116 111 0.526855707 
0.0125461593 0.14706713 -0.202118546 2.49464174e-05 104 113 109 0.326112777 
-0.226192936 0.00649465667 0.0438592844 -3.60612758e-05 107 115 111 0.505300224 
0.059724085 -0.218933418 0.121339574 -5.24702482e-05 134 141 136 0.561742246 
-0.308577746 -0.0431847759 0.203862339 3.3291115e-05 141 148 143 0.621857643 
0.349821895 -0.0505519137 0.128517032 1.19603064e-05 106 114 110 0.566970825 
0.00332815968 0.438065529 -0.0858034715 -4.08095948e-05 117 126 121 0.410844803 
0.419660509 0.1235255 -0.164727643 -5.0085946e-05 127 135 130 0.353350937 
0.225918368 0.138867527 0.142562807 -2.60091401e-05 113 120 116 0.577202737 
0.14507024 0.0950134695 -0.268319547 -5.00952265e-05 102 113 109 0.277887344 
0.0746642053 0.179257169 -0.333656013 8.29971395e-06 114 123 119 0.230291709 
0.100632735 -0.117288537 -0.0832801387 -7.29821477e-05 124 136 131 0.41268298 
0.556950688 -0.156930208 -0.171782717 -0.000163030345 75 89 85 0.348211497 
-0.0466597788 0.292037308 -0.112826288 4.94962733e-05 131 140 135 0.391159505 
-0.354848593 -0.313591182 -0.15881668 -7.25363279e-05 114 127 122 0.357656866 
-0.325701147 0.0432816073 0.133026287 -0.000113560236 130 143 138 0.570255697 
0.226811528 -0.144267544 -0.114904419 5.03117917e-06 98 111 107 0.389645636 
-0.352720678 -0.296242833 0.351507485 -4.52112872e-05 128 138 133 0.729412615 
-0.00927855819 0.0387479849 -0.154906228 2.03998643e-05 97 107 103 0.360505551 
-0.369281352 -0.161194175 -0.208826974 -2.32043676e-05 100 113 108 0.321225911 
-0.0134155527 0.154144809 -0.151914954 -1.7004204e-05 127 138 133 0.362684578 
-0.0276658218 0.171389207 -0.128604621 -0.000149811734 121 130 125 0.379665464 
-0.0083653694 0.335659087 0.0456214584 -0.000235914718 107 121 116 0.506583869 
0.035014417 -0.204975903 0.0377922729 -0.0233911332 114 124 120 0.500880539 
0.40837431 0.288995475 -0.181908086 -5.76559105e-05 163 168 162 0.340835512 
-0.0779329017 0.160717383 0.0461009294 5.87063842e-05 89 102 98 0.506933153 
0.1077746 -0.247196078 -0.175067142 0.000200005743 112 123 119 0.345818937 
0.085055083 0.304304242 0.0544300675 -5.42251837e-06 118 128 123 0.513000727 
-0.234689936 0.379311264 -0.0701736808 -7.19103555e-05 139 145 140 0.422230631 
0.218583733 -0.0445936099 -0.353903323 -3.86440661e-05 110 120 116 0.215542153 
-0.120469809 -0.00689110951 0.0363831855 -4.64124605e-06 142 151 145 0.499854118 
0.0636826158 -0.194780976 0.17651327 2.91087199e-05 82 92 89 0.601934612 
-0.230996385 0.148875192 0.0141195059 -4.07402404e-05 112 120 116 0.483635664 
-0.270589918 0.222392172 0.0123355631 1.38364267e-05 115 124 119 0.482336104 
-0.0290412158 0.377905458 -0.209535345 -9.87556996e-06 106 116 112 0.320709854 
0.123253524 -0.145020515 -0.101525173 4.32091692e-05 117 125 120 0.399392009 
-0.210814685 0.266899973 -0.0264925584 -0.00013650785 100 113 109 0.454051018 
-0.354585677 -0.083908841 0.286547065 -0.000266141986 135 145 140 0.682090938 
0.271873742 0.196427882 -0.125406936 -0.000156414811 110 120 115 0.381994873 
-0.378068924 0.255292177 0.0505174547 -0.000136204646 76 86 83 0.510150492 
-0.416273355 -0.0368099436 0.208819136 1.20169716e-06 97 109 105 0.625468493 
0.281339735 -0.172303319 -0.0976174325 4.36633563e-05 128 136 131 0.402238667 
-0.187840089 0.155996814 -0.0145677151 -3.16731166e-06 94 104 100 0.462737888 
0.0760968179 -0.278005838 0.0886888653 -6.19649072e-05 102 110 106 0.537957191 
0.0550883226 -0.216104656 0.111306176 -2.6892536e-05 141 146 141 0.554433227 
0.225571662 0.0134849036 0.117870003 2.46311392e-05 116 125 120 0.559214771 
0.49723047 -0.0351824462 0.194488868 5.6927558e-05 101 114 109 0.615029335 
0.228516802 0.111539736 -0.119157918 -0.000170485233 151 160 154 0.386547089 
-0.163302973 -0.158918098 -0.0537399314 0.00014242233 137 145 140 0.434202135 
-0.0194470137 0.249075547 0.0311632138 -8.09232006e-06 127 137 132 0.49605149 
-0.00614146609 0.256755561 0.212238312 3.15256184e-05 139 146 141 0.627959251 
-0.213465914 -0.0173019096 0.0706899315 2.5589834e-05 125 134 129 0.524845481 
0.519730568 -0.206154242 0.184660122 1.9265688e-05 129 142 137 0.607869387 
-0.0141376983 0.242153957 0.0394133814 6.10917923e-05 115 126 121 0.502061486 
0.184536532 0.0316603296 0.114429876 -3.49400507e-05 134 143 137 0.556708753 
0.0961210057 -0.0259822998 0.409065813 2.61082896e-05 121 128 123 0.771342099 
0.0681453198 0.231355503 -0.118899055 -0.000123139733 140 148 143 0.386735678 
0.0996856689 -0.296969652 0.181544632 -7.63777643e-06 99 107 103 0.605599821 
0.0414104871 0.317665994 -0.229330927 -0.000164942016 113 124 119 0.306289375 
-0.0858621523 0.433805108 0.119103566 -4.21750592e-05 127 140 134 0.56011337 
-0.0742779821 -0.0791042 0.103915282 -7.81176495e-05 130 140 135 0.549049199 
-0.000291762437 0.152898103 -0.174822375 1.6689999e-05 99 109 105 0.345997214 
-0.117493838 0.0590000898 -0.0627248958 -3.62898936e-05 112 120 115 0.427656859 
-0.0463224463 0.26428926 -0.0657090098 -1.92064326e-05 103 113 109 0.425483018 
0.0499757156 -0.126320258 0.150140047 -0.000128753018 109 116 112 0.582722545 
0.181466281 0.206659839 -0.121715099 -0.000198438298 97 108 104 0.384684235 
-0.0324728638 0.319755584 -0.159959346 7.69892722e-07 113 124 119 0.356824487 
-0.407827199 -0.278753281 0.351323307 -5.49029792e-05 125 134 129 0.729278445 
-0.206785426 -0.152707264 0.16105625 -0.00197266671 122 130 125 0.590674639 
0.189587206 0.15781796 0.135029465 -4.18090203e-05 99 111 107 0.571714938 
-0.186676085 0.212151274 -0.160589889 -2.89225718e-05 139 148 143 0.356365174 
-0.507332146 -0.130071178 0.355016053 -0.000140325224 100 112 108 0.731968522 
0.238384545 0.0229466017 -0.144088924 6.37118501e-06 88 98 94 0.368385613 
-0.302098691 0.0484878793 0.1135979 -7.81809504e-05 106 116 112 0.556102693 
0.300039589 0.255365163 0.132637978 2.62476442e-06 125 134 129 0.569972813 
-0.272786021 -0.166752949 -0.150235519 -1.34328147e-05 123 134 129 0.363907993 
-0.030688202 0.334428132 -0.190311074 -0.00020035106 87 95 91 0.334714174 
0.191372469 0.13217859 -0.321547806 1.6887323e-05 89 99 96 0.239112169 
-0.486695558 -0.119746432 0.339237779 1.83199445e-05 132 142 137 0.720474482 
0.304894954 -0.221125111 -0.105932385 5.37791639e-05 104 114 109 0.396181464 
0.184980482 0.172384202 0.11838723 -0.000472983695 113 123 118 0.559591532 
0.0272184554 -0.214117721 0.0594248921 0.000124907063 113 122 118 0.516639292 
-0.285252899 -0.278186709 0.281160265 -1.54608861e-05 110 117 112 0.678166807 
0.0739007145 -0.253786594 -0.106141768 -5.70883276e-05 86 97 93 0.396028996 
0.121320687 -0.0523872972 -0.165974915 4.3223612e-05 125 132 127 0.352442324 
0.112131439 -0.0126720732 0.464600354 -2.91377073e-05 130 139 134 0.81179738 
-0.278893918 0.112096027 -0.230405912 4.18057316e-05 114 122 118 0.305506289 
-0.244115412 0.0216447711 -0.154097572 3.09100724e-05 104 115 111 0.361094624 
-0.050726898 0.301850796 -0.046343144 4.58034629e-06 116 125 121 0.439590454 
-0.264208943 0.10809426 0.144725576 -9.43602645e-05 109 119 115 0.578778267 
-0.292196989 0.0257636849 -0.202780113 -4.59558505e-05 116 125 120 0.325630844 
-0.180649742 0.237030596 -0.12355154 2.7387403e-05 113 124 119 0.383346468 
-0.417235792 -0.137747332 -0.245024428 1.31548877e-05 92 102 98 0.294857144 
0.106919818 -0.0186645258 0.385869116 6.81845704e-05 139 150 144 0.754444003 
-0.535898685 -0.148823261 0.37757954 -0.000101348065 160 165 159 0.748405278 
0.446552277 -0.285988301 -0.106803469 8.58449494e-06 126 138 133 0.395546943 
0.0523374751 0.12036179 0.329909205 -1.93114392e-05 108 118 114 0.713678956 
-0.479554057 -0.00546945166 0.222593993 3.15845973e-05 105 113 109 0.635502994 
-0.190697879 0.0715109706 0.0119238701 -6.23041997e-05 135 146 140 0.482036203 
0.331988692 -0.151094452 0.116046153 -9.63122584e-05 137 147 141 0.557886124 
0.121882349 -0.159114107 -0.0909043849 0.000166465528 109 120 115 0.40712893 
-0.25126183 -0.127810851 0.186948389 -0.0035851798 172 179 172 0.60953629 
0.310058683 -0.113973387 0.115259409 -7.06530318e-06 86 95 92 0.557313025 
-0.0691315904 -0.0309254341 0.041520711 8.03319563e-05 150 158 152 0.503596604 
0.120248154 -0.155583352 0.298349023 -9.05824563e-05 94 104 100 0.690688312 
0.122866988 0.248546422 -0.148331612 1.61985881e-05 128 140 135 0.365294963 
0.149703071 0.0441965535 0.109745368 -4.83580516e-05 113 122 117 0.553296208 
0.147263423 -0.241186231 -0.00173936761 -4.9979426e-05 109 122 117 0.472082943 
0.0381086655 -0.0873623937 0.156701118 5.3679687e-06 130 138 133 0.587502062 
0.167549506 -0.00383809675 0.128365904 -5.05517055e-05 133 143 138 0.566860735 
0.398786247 0.137119263 -0.17676501 -3.33096832e-05 112 123 118 0.344582051 
-0.42859146 -0.238600537 0.37420693 9.88545944e-05 139 145 139 0.745948493 
0.58292836 -0.0341314003 -0.206395566 -1.51986023e-05 120 133 128 0.322997093 
-0.346517473 -0.0852379128 0.228714436 1.78782211e-05 100 112 108 0.6399616 
0.160540268 -0.127354428 -0.279006541 -0.000136653223 141 149 143 0.270102203 
0.0211345796 0.0639417395 0.224014625 -0.000143191544 103 113 109 0.63653791 
-0.184068456 0.13391456 -0.0958341882 -4.52060485e-05 128 138 133 0.40353772 
0.140534312 0.1389734 -0.261565059 3.16154328e-05 93 104 100 0.282807797 
-0.0192357711 0.0624392442 0.173983097 3.45075387e-05 112 123 118 0.600091457 
0.189599141 -0.254915297 -0.353214085 -2.61841342e-05 115 124 120 0.216044247 
-0.00510294084 0.426825076 -0.0907797888 -0.000163721852 130 139 134 0.407219708 
-0.359151989 0.240317956 0.0639666095 -3.09318129e-05 132 141 135 0.519947767 
0.0561300702 -0.28513816 0.0664603114 -0.000188679929 96 107 103 0.521764338 
0.0514316224 -0.111137703 0.0881499797 4.24975879e-05 170 177 170 0.537564635 
-0.114593245 0.177316934 -0.0354601294 7.79071706e-06 92 104 100 0.447518408 
0.239089802 -0.0472476855 0.115954354 3.60865961e-05 77 88 85 0.557819247 
-0.478126705 0.03635782 0.220793501 -4.01471916e-05 139 147 141 0.634191394 
0.0387341827 0.443042129 -0.0567362309 4.54816618e-05 132 137 132 0.432019413 
-0.0442039445 0.29080075 -0.0813103244 -3.44394939e-05 125 135 130 0.414117903 
-0.145377323 0.27611506 0.00270515215 5.02265757e-05 165 170 164 0.475320667 
0.0791074261 -0.206141859 0.134436399 -5.79942716e-05 112 121 117 0.571282923 
-0.19069761 -0.157682717 0.179838866 -2.58927466e-05 119 129 125 0.604357183 
-0.208906934 0.157745063 -0.0326423645 -5.06025972e-05 99 106 102 0.449571073 
-0.451370716 -0.0943578929 0.273727536 2.13742023e-05 112 120 116 0.672752261 
0.0888402387 -0.118172929 -0.10731747 -5.14845597e-05 119 132 127 0.395172507 
0.236076787 -0.135487333 0.0982099697 -4.25717444e-05 135 148 143 0.544893026 
0.112594716 -0.04025428 0.375820041 0.000115435687 161 167 161 0.747123659 
-0.000489941216 -0.183101356 -0.12511009 -3.50679038e-05 98 111 107 0.382211119 
-0.0744717494 0.443018943 -0.0383378938 -3.19164246e-06 127 139 134 0.445422053 
-0.011960553 0.298340678 0.125125006 -4.68938379e-06 137 147 142 0.564499795 
-0.125901505 -0.166130915 0.1104386 1.78311602e-05 125 134 129 0.553801239 
0.103568748 -0.342214078 -0.0292580612 -8.6346874e-05 108 122 117 0.452036411 
-0.0947254375 0.118053429 0.0124341948 4.62954631e-07 96 108 104 0.482407957 
-0.16601491 -0.0810297132 -0.0321559869 1.15559669e-05 118 129 125 0.449925363 
-0.233919278 0.0683821514 -0.133126959 3.3715507e-05 131 141 136 0.376371056 
0.0410012975 -0.0142597258 -0.352507532 -4.28474159e-05 99 112 107 0.216558948 
0.450654894 -0.191533372 -0.118324928 -2.32797101e-05 103 116 112 0.387153894 
-0.244743049 0.253607929 0.0554288626 -5.34665451e-05 148 158 153 0.513728261 
-0.0953590423 0.0120396139 0.100881919 8.60530417e-06 130 139 134 0.546839476 
0.250441968 -0.110727444 -0.110826693 8.24807285e-06 126 136 131 0.392616153 
-0.0165961497 0.16324167 0.0608364902 -0.000110124354 135 143 138 0.517667592 
-0.499878496 -0.226225361 0.37720114 -5.97193066e-05 162 170 163 0.748129666 
0.0709057227 -0.204359695 0.187614962 6.32402953e-06 138 144 138 0.610021889 
0.0539910346 -0.256458223 -0.130795926 -1.27889216e-05 122 133 128 0.378069192 
-0.0515916683 0.0570925809 -0.0980280638 -8.48194468e-05 120 130 126 0.401939541 
0.0706264004 -0.227350116 0.0383274071 -0.000207833014 122 130 125 0.501270413 
0.34175086 0.0658187717 -0.139698967 -9.79553442e-06 104 113 109 0.371583551 
-0.0515962988 0.250051558 0.0565556698 2.25948752e-05 124 135 130 0.514549136 
-0.0665806681 0.192262858 0.0446190983 3.02813132e-05 121 129 124 0.505853713 
-0.387032002 -0.162069336 0.284444839 1.46961393e-05 108 121 117 0.680559516 
-0.198809057 0.131414294 -0.117006168 -1.87286641e-05 103 111 107 0.388114572 
-0.0908229128 -0.136518478 0.0908765644 4.71742242e-05 139 148 142 0.5395509 
0.508923471 -0.0115225911 0.20371072 1.77016773e-05 118 127 123 0.621747136 
-0.50163728 -0.0318091772 0.278407156 4.19099233e-05 113 124 119 0.67616123 
-0.350932539 -0.128314629 -0.22351554 7.4954587e-06 110 119 114 0.310525715 
0.0914463103 -0.0165121239 -0.0949741453 -5.60563058e-06 135 145 139 0.404164225 
0.00669965986 0.0689334199 -0.137015924 -1.55996531e-08 113 124 120 0.373538077 
0.159415409 0.16036281 0.128264427 4.8581569e-07 124 131 126 0.566786826 
0.0292407498 0.164139941 0.289613843 -6.1617e-05 119 125 120 0.68432498 
0.0493695699 0.0718240663 -0.331495196 5.77145256e-05 151 157 151 0.231865793 
0.120318964 -0.037909504 -0.106212318 -1.71051142e-05 129 138 132 0.395977557 
0.147910163 -0.338380963 0.0989787504 -4.48041174e-05 117 127 122 0.545453072 
0.0299909096 -0.100162737 0.0610445105 -3.25323781e-05 130 140 135 0.517819107 
0.298945189 -0.155450001 0.127422571 7.80157279e-06 108 117 112 0.566173553 
0.0310046859 -0.374564528 0.0978069976 -2.5946094e-05 140 147 142 0.544599473 
0.00193134579 -0.121466324 -0.0848006085 -6.99888915e-06 92 103 99 0.411575347 
-0.539739072 0.110690743 0.186497405 7.15074275e-05 111 122 117 0.609207749 
-0.0265421104 -0.0221528877 -0.097801134 -9.66261141e-05 123 132 127 0.402104855 
-0.0909015164 0.449006766 -0.0524133779 -3.65555752e-05 120 131 126 0.435168445 
-0.547313094 0.00872668531 0.269919544 -3.04181449e-05 113 120 115 0.669978321 
0.0586328469 0.098041676 0.338710338 1.10419933e-05 140 149 144 0.72009033 
-0.191118255 -0.0715915114 0.0556210354 -2.19592475e-05 124 135 130 0.513868272 
0.0532066301 0.388534248 -0.0508389883 -2.15606706e-05 132 142 136 0.436315358 
-0.108297162 0.190790892 -0.0725241005 0.000115361647 88 99 96 0.420518398 
0.33870703 -0.116916358 -0.136379525 -5.04308555e-05 116 121 117 0.374001652 
-0.0148376366 0.399256468 -0.105705999 -4.88728838e-05 123 133 128 0.39634642 
0.354705572 0.104434453 -0.141209677 -4.74316766e-06 105 113 109 0.370483071 
-0.504287302 0.170767143 0.16575864 -5.58056418e-05 126 136 131 0.594100237 
0.199180171 0.0988999307 0.117973104 -2.64682822e-05 118 130 125 0.559289873 
-0.010716103 0.488098413 0.110607356 0.000106903623 130 139 134 0.553924143 
0.32204926 0.296617955 0.140022606 4.17570991e-05 110 118 114 0.575352252 
0.175799564 0.00869827811 0.111914851 -5.57441599e-05 134 144 139 0.554876626 
-0.396251172 0.040464703 0.176816732 2.5073532e-05 121 129 124 0.602155685 
-0.0142017994 0.319873035 0.146826059 -1.55680464e-05 90 102 98 0.580308437 
0.174475878 0.0407807492 -0.278865308 1.76241156e-05 101 114 110 0.270205081 
-0.515183449 -0.129777968 0.334881783 -3.02232802e-05 115 123 118 0.717301309 
0.28924787 -0.10392461 0.113274679 2.08685815e-05 100 111 107 0.555867255 
0.207998082 0.221815944 0.132953078 1.56989991e-05 122 131 126 0.570202351 
0.308235556 -0.0409878753 0.144466341 3.58296384e-05 114 123 118 0.57858938 
-0.216412738 0.356397688 -0.0791111067 4.42944875e-05 120 127 123 0.415719986 
-0.149327517 0.0758506134 -0.00984165911 -0.000450839696 122 131 126 0.466180682 
0.50928551 -0.0539047495 0.17443873 2.75101047e-06 106 115 110 0.600423396 
0.18197082 0.0766194686 0.13536492 -9.83652717e-06 130 139 134 0.571959317 
-0.141320467 0.467446148 -0.109752707 3.66469612e-06 123 130 125 0.393398494 
-0.0430563651 -0.11884705 -0.0214248411 2.30894075e-05 98 107 103 0.457742691 
-0.218163967 0.162807524 0.0771750808 -7.24366982e-05 143 151 146 0.529569745 
-0.163071781 0.033188574 0.0083870599 6.22386578e-05 119 128 123 0.479459792 
0.0517875105 0.140381277 0.110450089 1.08337263e-05 95 109 105 0.553809583 
0.143374726 -0.322260022 0.0734425932 -3.20285908e-05 95 106 102 0.52685076 
0.0230625495 -0.316038668 0.0741665512 1.61514909e-05 128 136 130 0.527378142 
0.167072579 -0.00123724842 -0.116829939 -9.73102215e-05 121 132 127 0.38824296 
0.06643603 -0.37196064 0.102529339 -6.98851072e-05 147 154 148 0.548039556 
0.222932354 0.0921645164 -0.139008313 5.64774928e-06 99 107 103 0.372086644 
0.326017529 0.0898556858 0.160875514 -4.11059591e-05 105 114 109 0.590542972 
-0.0131076025 -0.0504691005 -0.0212659184 -2.28892313e-05 139 146 140 0.457858443 
0.102273993 -0.118917733 0.0809621289 -1.37892202e-05 139 149 143 0.532328486 
0.333346874 -0.164281473 0.133396775 -3.82714788e-05 112 120 116 0.570525587 
-0.219188541 -0.183217049 -0.0641255081 2.26437114e-05 102 116 112 0.426636577 
-0.0647826567 0.265747339 -0.127405435 5.37283922e-05 103 115 111 0.380539 
0.0525517762 0.368856192 -0.234502897 5.53446807e-05 121 131 126 0.302521735 
-0.394292355 0.0512557626 0.17098774 -0.000136615912 107 118 114 0.597909451 
-0.0664871782 0.276759326 -0.125533208 -2.08785059e-06 146 154 148 0.381902874 
0.412970424 -0.0620795488 0.162347734 -8.28038901e-06 108 119 114 0.591615438 
0.204847127 0.253848195 -0.128015146 0.00013414651 126 136 131 0.380094856 
-0.492691547 0.188887075 0.135840997 -0.000150942593 141 147 142 0.572306097 
-0.364067107 0.16165559 0.0765416846 -0.000120036944 99 115 110 0.529108346 
-0.0109066768 -0.203175828 0.016670512 -0.00116823125 76 89 86 0.485494018 
0.0215865672 -0.129234865 -0.268377066 -2.71364115e-07 110 122 117 0.277845442 
-0.42938754 0.201534107 0.121157922 -0.000236156222 126 135 130 0.561609924 
0.0397681035 -0.221862525 -0.0066618463 2.07726844e-05 101 113 109 0.468497097 
0.129910335 0.278053671 0.107589364 -2.43216637e-05 128 134 129 0.551725626 
-0.33778742 0.130122706 0.0711935312 -1.59143237e-05 141 150 145 0.525212348 
0.115410388 0.0739268139 -0.149503827 1.36290328e-06 144 152 147 0.364441007 
0.691851735 -0.096408926 -0.220184729 7.90989725e-05 139 148 142 0.312952101 
-0.405891389 -0.14967756 0.316738158 -8.80047446e-05 102 111 107 0.704084218 
0.083912164 -0.0362806134 -0.128032759 -4.22362937e-05 109 117 113 0.380082041 
-0.119884118 0.0364127867 0.0811337009 8.31967191e-06 121 129 124 0.532453477 
-0.0746615529 -0.147306174 0.0768250823 -1.18732569e-05 107 119 114 0.529314816 
-0.119229719 0.358747184 -0.168220967 1.14144332e-05 130 139 134 0.350806147 
0.0868362039 0.0853499025 0.419117302 1.6654958e-05 107 118 114 0.778664291 
0.205153808 0.162954018 0.138640508 8.0395148e-07 101 112 108 0.574345469 
-0.0229683872 0.125022218 -0.0456272811 1.05935615e-05 129 141 136 0.440111935 
0.0881455094 -0.192989543 -0.427470535 -1.18226744e-05 105 119 114 0.161950663 
0.0285676848 -0.247716874 -0.0500058867 -5.37291635e-06 126 135 130 0.436922252 
-0.027032081 -0.283479095 0.0831039399 -0.000103185463 120 127 123 0.533888757 
0.0846846998 -0.152152836 -0.436071396 9.1989059e-06 130 141 135 0.155685201 
-0.294308513 -0.109449498 0.210253894 -0.00277531426 130 140 135 0.62651366 
0.10286092 -0.260628134 0.140140921 -7.44161662e-05 139 145 139 0.575438499 
0.303160846 -0.0326001868 0.143407777 -7.6895747e-05 136 144 139 0.577818274 
0.0497246683 0.344977736 -0.0997031108 -8.06794269e-05 115 129 124 0.400719315 
-0.0264434889 0.262444824 -0.0161399189 -2.28160061e-05 139 148 142 0.461592585 
-0.257329464 0.114377126 0.0104739359 2.5549336e-05 100 111 106 0.480979949 
0.0656092763 0.1056033 0.0937574431 -2.68259901e-05 148 155 149 0.54164952 
0.375098377 0.099128969 -0.145775586 3.54104377e-05 135 145 139 0.367156893 
-0.285830557 -0.0807147399 0.223087266 -1.10947294e-05 132 141 135 0.63586235 
0.500489771 -0.20109798 -0.129907787 3.36099329e-05 122 132 127 0.378716141 
0.480147243 -0.0724137425 0.159593865 -4.72123429e-06 138 147 142 0.589609385 
-0.391453624 -0.180850223 0.327674478 4.47238563e-06 119 128 123 0.712050974 
0.40092206 0.0588535704 -0.157222152 2.32766906e-05 129 137 132 0.358818442 
0.205492616 0.213843748 -0.120995142 -1.05683366e-05 120 130 125 0.385208726 
-0.172842398 0.248376518 -0.145564005 -2.58790096e-05 93 102 99 0.367311031 
-0.0236707609 0.151041433 -0.0561476089 5.03549818e-05 117 129 124 0.432448179 
0.127326205 0.0995225906 -0.182268038 -1.31861307e-05 119 131 126 0.340573281 
-0.0395832509 0.337293595 -0.180781826 -0.000136224669 126 134 129 0.34165594 
0.252558351 0.117643364 0.123843998 -2.68381373e-05 149 158 152 0.563566625 
-0.280510843 -0.330596119 0.303050399 -1.52942957e-05 135 143 138 0.694113076 
-0.422598481 -0.144365862 0.322074771 -6.02129148e-05 124 138 133 0.707971752 
-0.246464506 -0.180318758 -0.124837026 0.00022632 144 152 147 0.38241002 
0.132188559 -0.349737853 0.167926446 8.90491065e-05 131 137 132 0.595679343 
-0.221406281 0.15209572 -0.161314264 -1.00649777e-05 121 132 127 0.355837464 
-0.00879401527 0.0926543698 -0.0898833349 -2.00435752e-05 120 131 126 0.407872736 
0.225861087 -0.130879164 0.099364087 8.59592401e-05 140 149 144 0.545733809 
0.0110684857 0.309213221 0.0516243763 4.56897251e-05 140 149 144 0.510956824 
-0.0761702806 -0.0206643678 0.0478812978 -6.56787306e-05 114 122 117 0.50823015 
-0.239747599 -0.0959944874 0.118175201 -0.0010692483 101 115 111 0.559437096 
-0.446076721 -0.128241941 0.321890384 -5.95047604e-05 130 138 133 0.707837462 
-0.442353934 -0.215073228 0.372563034 -9.1489761e-05 98 110 105 0.744750977 
0.0321973786 0.128821611 0.084153302 -5.39572211e-05 113 123 119 0.534653187 
0.0808546767 0.437974602 0.0468745269 4.97544679e-05 106 115 111 0.507496715 
-0.275587827 0.0760457367 0.0465295352 1.37167226e-05 121 130 125 0.507245421 
0.0368363149 -0.242560968 -0.249769986 -3.70831694e-05 101 113 108 0.291400135 
0.0903551951 -0.200433075 0.267126858 -5.59806067e-05 124 135 130 0.667943895 
0.000543374917 0.16763705 -0.0125185102 -2.21038354e-05 148 155 149 0.464230657 
-0.203789726 0.0468016826 -0.113247022 -4.28151106e-05 96 104 100 0.390852988 
-0.176495805 0.196307838 -0.108966194 1.13504939e-08 124 135 130 0.393971473 
0.0814626664 -0.0702582598 0.103332631 -6.08401024e-05 123 130 125 0.548624754 
-0.272424936 -0.276029319 -0.132658929 -1.40559896e-05 92 105 101 0.376712024 
-0.0229499284 -0.37246719 0.127454877 -1.69913983e-06 123 132 127 0.566197038 
0.142064497 0.233004168 0.0950247496 -0.000135501759 101 114 110 0.542572737 
-0.0204429459 -0.127161726 0.00261270232 -0.00270084641 119 128 123 0.475253314 
0.0367793292 0.181376204 0.100805886 2.50348821e-05 125 134 129 0.546784103 
-0.0530381091 0.0553367399 -0.0743505731 -1.3106619e-05 108 120 115 0.419187874 
0.182939246 0.104269348 -0.300044328 8.49796925e-06 112 122 117 0.254776806 
0.218151256 0.0579820015 -0.142335355 3.03750603e-05 120 131 127 0.36966303 
-0.137008965 0.106347598 -0.0652864426 -8.70192598e-05 153 160 154 0.425790817 
-0.386455685 0.15118514 0.0943727121 2.72295438e-06 89 102 98 0.542097688 
-0.0219458472 -0.0127219064 0.0845749453 0.000102192687 137 145 140 0.53496033 
0.0706712753 -0.0896923169 0.237776637 1.55993039e-05 128 137 132 0.646563113 
0.503258646 0.00566074159 0.204920545 -0.000142067584 127 140 135 0.62262845 
0.0273864623 -0.319089472 -0.0526892468 1.78974587e-05 138 146 140 0.434967518 
0.0996074378 -0.0190920793 0.117098197 -4.13416128e-05 101 112 108 0.55865252 
0.035487026 -0.365660757 0.0318398848 -3.5032077e-05 108 120 115 0.496544451 
0.064400062 -0.156667069 0.157174811 2.37249769e-05 125 133 128 0.587847173 
0.104462132 -0.325562358 -0.132679403 -2.08660495e-05 94 103 99 0.376697093 
-0.445227355 -0.301798552 0.374041289 -9.1206166e-06 124 134 129 0.745827794 
0.464088708 0.244385242 -0.222717211 4.0599436e-05 134 142 136 0.311107278 
-0.393517315 0.107080244 0.117887422 -2.8267561e-05 128 138 133 0.559227467 
-0.319109082 0.232205376 0.0161707047 -0.000110463327 105 115 111 0.485129893 
-0.373332173 -0.180863053 0.315872639 -2.88386364e-05 126 134 129 0.70345372 
-0.19409889 0.336801857 -0.125054955 5.69495314e-05 122 131 127 0.382251292 
0.370515376 0.141474217 -0.148205549 -8.60653236e-05 124 131 126 0.365386754 
0.0948458984 0.236979172 0.105105102 -3.10211908e-05 104 114 109 0.54991591 
-0.109600313 -0.174123555 -0.0029713863 -1.61908683e-05 97 112 107 0.471185446 
0.186418012 -0.284822345 -0.0118222022 -7.64674332e-05 119 125 121 0.464737892 
0.167723477 0.0950298682 0.113998465 -7.25349855e-06 99 113 108 0.556394458 
0.251678169 0.0607080422 0.144086927 -2.24866671e-05 104 115 110 0.578312993 
0.220602363 -0.324738413 -0.00176894455 -1.02437916e-05 123 130 126 0.472061425 
0.382345647 -0.119286366 -0.119692594 5.08300727e-05 96 103 99 0.386157572 
-0.326809466 0.102525271 -0.25189206 -0.000104980369 90 99 95 0.289854288 
0.356686175 -0.202955335 0.117484987 -1.23703794e-05 130 138 133 0.558934331 
0.183159843 -0.253002286 0.109232493 -5.2520918e-06 110 121 116 0.552922606 
0.0770542622 -0.310441226 -0.440880299 -0.000106494059 135 145 140 0.152182057 
0.197174236 0.0522001944 -0.116865382 4.58607246e-06 122 132 127 0.388217121 
0.420237482 -0.218020007 0.160545677 -4.4811095e-06 95 102 98 0.590302706 
-0.205462247 0.41093275 -0.103655137 0.000122838566 109 116 112 0.397840381 
0.189293906 0.0476386957 -0.138255104 5.28287055e-05 111 119 114 0.372635365 
0.145093217 0.152818829 -0.275174469 1.35423688e-05 109 119 114 0.272893757 
-0.0267275069 0.200662807 -0.13364847 -4.02693258e-05 84 93 89 0.375991166 
0.590808392 -0.261686236 -0.156688079 2.15079635e-05 143 154 148 0.359207481 
0.458384365 -0.246206298 0.164871365 5.67813659e-05 135 142 136 0.593453884 
-0.338326454 0.136972815 -0.268748313 -2.42044916e-05 161 169 163 0.277575016 
-0.266300738 -0.0756216496 -0.144827485 8.53883103e-06 135 143 138 0.367847592 
0.0217546113 0.289639205 0.0317826234 7.18724914e-06 101 113 109 0.496502727 
0.0551449396 -0.0189980492 -0.0748786926 5.17287262e-05 129 139 134 0.418803185 
0.214541644 0.109140426 0.138590157 -1.47589017e-05 105 116 112 0.574308753 
-0.150281757 -0.0701302662 0.0449590683 1.15282601e-05 82 93 89 0.50610137 
0.179138288 -0.100974925 0.507231832 -3.84682789e-06 119 126 121 0.842853129 
-0.254393995 -0.13928622 -0.105043486 -2.03459349e-05 129 137 132 0.396829039 
-0.316511005 -0.186142281 0.301505238 5.95033634e-06 128 137 132 0.692987502 
0.33009401 -0.0718787834 0.123099484 3.85877756e-05 129 137 132 0.563024282 
0.441235095 0.169883922 0.212247089 -0.000115890056 107 116 112 0.627965629 
0.332587004 -0.166371569 -0.103662394 -1.14798768e-05 118 131 126 0.397835135 
0.0403238907 -0.23025012 -0.0517281294 -0.000108499546 132 142 137 0.435667664 
-0.116050467 -0.146743342 -0.0232156254 -6.78075594e-05 107 117 112 0.456438124 
0.0911176726 -0.218372867 0.162275493 -5.15159336e-05 136 148 142 0.591562808 
0.012898908 -0.415471286 -0.0407634713 2.10728613e-05 123 132 128 0.443655074 
0.220122203 -0.185905024 -0.0763487518 1.72768741e-05 115 127 122 0.417732298 
-0.229678258 -0.0430592522 0.0956241637 -9.23076732e-05 119 127 122 0.543009341 
-0.075969331 0.461500257 -0.0277165938 -6.64542895e-05 175 179 172 0.453159362 
-0.0432340056 0.0273821168 -0.00839109346 -9.66130756e-06 124 129 124 0.467237383 
0.0320841037 -0.0025740047 0.0790974051 -1.35140144e-05 106 118 113 0.530970097 
0.156658992 -0.124381281 -0.268025905 8.51838849e-05 110 119 115 0.278101265 
-0.353741527 0.0137508838 0.253124833 -9.31103714e-05 104 117 113 0.657743812 
0.0528123826 -0.222765133 0.0820794627 -7.85561278e-05 75 86 83 0.533142447 
0.22445178 0.0685768053 0.139533654 -6.62672974e-05 143 151 145 0.574996054 
0.107330583 0.148540601 -0.15329583 -8.11575446e-05 101 112 108 0.36167866 
0.236635387 -0.269649893 -0.0326586366 2.8915063e-05 117 124 119 0.449559212 
-0.487310678 -0.109844245 0.306649089 -5.95904712e-05 121 130 125 0.696734667 
-0.255026162 0.233044311 0.0702306554 4.53686807e-05 122 132 127 0.52451098 
-0.136101067 -0.183615506 0.0821348429 2.50226585e-05 109 123 119 0.5331828 
-0.0886949003 -0.205634579 -0.020842446 2.12260056e-06 79 92 89 0.458166957 
0.136532813 -0.331733227 0.0526192114 3.36620724e-06 135 144 139 0.511681557 
0.0217473246 -0.0127414847 0.072679624 1.09420507e-05 127 137 131 0.526294947 
-0.465923995 -0.241218626 -0.271134198 4.66911588e-05 99 107 103 0.275836974 
0.442195654 -0.254156649 0.155438885 8.77906568e-05 93 105 102 0.586582601 
0.0429203175 -0.071492441 -0.2933456 -7.517208e-05 97 108 104 0.259656638 
-0.488126278 0.0218603965 0.235538483 3.51177878e-05 150 157 151 0.644932687 
-0.249627069 -0.0811884627 0.196912289 6.9406291e-05 92 105 101 0.616794705 
-0.261174709 -0.232084677 0.236802459 -4.1632331e-05 108 117 113 0.64585346 
0.108263701 0.138535663 -0.151089296 -2.61464156e-05 125 132 127 0.363286048 
0.104758129 -0.359666258 0.123474091 2.49620061e-05 117 129 125 0.563297153 
-0.0552481897 0.364812016 -0.178281158 -2.84193084e-05 124 132 128 0.343477607 
-0.0113596478 0.182507291 -0.15281935 6.99504744e-06 127 137 132 0.362025768 
0.405140191 -0.00299086119 0.171705037 1.3644516e-05 106 116 111 0.598432004 
0.0807262734 -0.000869115465 0.0939277709 -2.75301863e-06 109 119 115 0.541773617 
0.217280149 -0.259976834 0.102681361 0.00014536141 141 150 144 0.548150301 
-0.375358224 0.213231727 0.0861407742 9.50647518e-07 117 127 122 0.536100984 
-0.112528853 0.0879120976 0.0531546585 -6.56619668e-05 94 103 99 0.512071609 
0.131963804 0.0268695243 -0.184241265 1.85283134e-05 116 124 120 0.339135826 
-0.320768327 0.211483628 0.124636829 7.58839305e-05 131 139 134 0.564144194 
-0.14531365 -0.115885004 0.00619240897 -0.000361639191 110 123 118 0.477861017 
0.0228330549 0.264525503 -0.220321372 -3.63185245e-05 124 134 129 0.312852591 
-0.273355514 -0.135561138 -0.123989917 -2.58211512e-05 81 91 87 0.383027107 
-0.192543551 -0.012783641 -0.0342042074 1.87619589e-05 129 138 133 0.44843331 
0.386015326 0.269169718 -0.165026739 -7.17162038e-06 155 161 155 0.353133053 
0.569625437 -0.0868758634 0.198956802 -2.3267814e-05 122 133 128 0.618284047 
0.183645412 -0.179962784 0.114849426 -4.06750769e-06 115 125 121 0.557014406 
-0.0139499679 -0.0276169628 0.0997498855 -2.55543855e-05 132 143 138 0.546014786 
0.595823109 -0.160625488 -0.188092023 8.9134468e-05 127 136 131 0.336330682 
0.0631972998 -0.206261382 0.0378352553 -0.000112080888 107 117 113 0.500911891 
-0.0751264989 0.360067189 -0.171946958 -6.99391603e-06 109 117 113 0.348091871 
-0.360915571 -0.0598786771 0.192764685 -3.69409099e-06 110 123 118 0.613773286 
0.0856558904 -0.3406744 0.00281371223 -4.63249162e-05 113 120 115 0.475399733 
-0.437379003 -0.225367188 0.348637044 -5.54496946e-05 148 155 149 0.727321565 
0.0883042067 -0.162778422 -0.45206511 2.2798893e-05 109 121 116 0.144034252 
-0.221868232 0.171720281 -0.196991071 -4.38305433e-05 102 113 109 0.329847991 
-0.444009036 0.0372510627 0.204075634 4.30989894e-05 146 152 146 0.622012973 
0.119199798 -0.0868132114 0.35861367 -2.27068085e-05 124 134 129 0.734589279 
-0.334001005 0.014340125 0.233664274 -3.70773487e-05 145 155 149 0.643567383 
-0.358982921 0.208989799 0.0765434057 1.3044104e-05 137 148 142 0.529109597 
0.357453257 0.11158672 -0.162664831 1.49427797e-05 160 163 157 0.35485363 
0.282782555 -0.138233855 0.12737833 6.02321234e-06 110 126 121 0.566141307 
0.569720566 -0.246847287 -0.169525474 -2.52417522e-06 105 115 111 0.34985584 
-0.121725373 0.0499065556 -0.0553278178 4.81577299e-05 122 130 125 0.433045387 
