ply
format ascii 1.0
comment created by gply, a Houdini tool.
comment converted from .[b]geo
comment for more information about Houdini, try:
comment www.sidefx.com
element vertex 607
property float x
property float y
property float z
property float depth
property uchar red
property uchar green
property uchar blue
property float length
element face 0
property list uchar int vertex_indices
end_header
0.00467916578 0.298038363 0.00442799926 -0.000155807356 125 137 132 0.497479945 
-0.07072106 0.0135981534 0.333350509 -2.88861338e-05 112 125 120 0.310284525 
-0.689625621 0.431138456 -0.473650545 -3.4015131e-05 101 113 109 0.769562602 
0.0742886811 -0.214216813 0.351400197 -0.00011189963 113 124 119 0.300012171 
-0.093045868 0.376614988 0.0315290913 -1.61803346e-05 149 157 151 0.48205626 
0.467314124 -0.235960007 0.271787763 2.7895876e-06 109 120 115 0.34532094 
-0.0264744088 -0.140376136 0.130595908 -1.16401352e-05 152 158 152 0.425675631 
-0.406705827 -0.0401429608 -0.136213258 2.64553819e-06 128 139 133 0.577521265 
-0.437601238 -0.205248192 -0.0650202781 3.04843416e-05 107 115 111 0.537004173 
-0.0800930932 -0.0186180025 0.287014961 -3.17471349e-05 118 128 124 0.336654902 
-0.212936446 0.385360718 -0.0409790091 -0.000233168365 141 148 142 0.523321867 
0.00449465215 0.337539852 0.117626831 4.0772371e-05 120 130 125 0.433056593 
-0.0165387243 0.454690129 0.158191621 -2.90821772e-05 140 150 144 0.409970462 
-0.131860763 0.429991037 0.0178550333 -6.11566065e-05 131 141 136 0.489838362 
0.450317025 -0.155997962 -0.206024453 1.04601495e-05 108 119 114 0.617252052 
0.555357754 -0.117357865 -0.244822577 7.75657827e-05 117 126 121 0.639332652 
0.0588607192 0.29393369 -0.26778698 5.50978584e-05 99 111 106 0.652402163 
-0.381768167 -0.196776479 0.038310267 -5.5784476e-05 128 139 134 0.478196979 
-0.409038484 -0.0134306997 0.217672914 -2.48654105e-05 127 133 128 0.37611866 
-0.245973542 -0.0770197809 0.094736211 -5.90533891e-05 144 152 146 0.446084023 
-0.302588522 0.237543032 -0.0947719812 4.2125117e-05 107 115 111 0.553936362 
-0.556110024 0.034790419 -0.165282264 -6.8169029e-05 136 146 140 0.594064951 
-0.18235451 -0.571727276 0.230017513 7.0019978e-06 129 140 134 0.36909309 
0.0894192755 0.234078318 -0.355717629 -4.41301745e-06 145 155 149 0.702444971 
-0.0985991508 -0.19550693 0.0533042811 -2.15402397e-05 141 148 143 0.46966362 
0.000524044037 0.029944241 0.162258521 -3.91825452e-05 117 128 123 0.407655895 
0.554690182 0.131928831 -0.163827837 -3.76673415e-06 102 112 108 0.593237221 
0.424638689 -0.311844289 -0.17036213 -1.54100708e-05 130 143 138 0.596955955 
0.171197832 -0.110681564 0.220383048 5.68524702e-05 112 122 117 0.374576241 
-0.325027466 0.227974221 0.0936972648 -0.000175578753 112 121 116 0.446675271 
0.635875285 0.154018924 0.256033659 -0.000155088026 160 167 161 0.354286879 
-0.261384785 -0.133360326 -0.0397952758 -5.3736585e-06 127 136 131 0.522648156 
0.567187071 -0.0737924576 -0.215210155 6.66725246e-05 138 146 140 0.622479737 
-0.679259717 0.00973805878 -0.251439929 -1.74100278e-05 142 152 146 0.643098772 
-0.295318186 -0.110084236 0.069966808 4.73759137e-05 110 118 113 0.4601807 
-0.14538753 0.125205919 -0.0499279015 8.80548614e-05 150 155 150 0.528414845 
-0.148209572 -0.408180922 0.0977099016 -8.89529474e-06 152 158 152 0.444391638 
0.152767763 0.17360577 0.199184492 6.51768642e-06 120 128 124 0.386640698 
0.087416783 -0.11296542 0.362080693 -5.33878338e-05 129 141 136 0.293933719 
0.0477067381 -0.255835712 0.320552021 -8.79170839e-05 136 145 140 0.317568392 
0.575187922 0.281492919 0.218138084 -6.63448009e-06 125 134 129 0.375853866 
-0.0132701248 0.366265595 0.207286105 0.000106438529 143 151 145 0.38202998 
-0.10604468 -0.275356919 0.156699449 -2.66351271e-05 124 134 129 0.410819679 
0.0496800989 0.312601775 0.347307295 -2.9623392e-05 117 127 122 0.302341521 
-0.603015959 0.226891324 -0.332789183 -6.31679432e-05 105 117 113 0.689395964 
0.495427191 0.364186168 0.186508626 -4.92547406e-06 126 132 127 0.393854767 
0.365250409 0.063263014 -0.123148382 -1.06780062e-05 102 112 108 0.570085824 
-0.0663110912 0.111944616 -0.0273006745 -0.000220511516 107 117 112 0.515537262 
-0.151681632 -0.506330788 0.260680914 -6.35502802e-05 108 117 113 0.351642042 
0.182976454 0.073087804 0.479569405 -2.7512433e-05 109 122 118 0.227068886 
-0.0682694539 0.0295062661 -0.234194919 1.4374149e-05 133 145 140 0.63328433 
0.165154994 -0.116365671 0.193920195 1.91415675e-05 99 110 106 0.389636695 
-0.0564672016 0.316065699 0.292369008 -0.000146506005 96 107 103 0.333607823 
0.000916734338 -0.460480303 -0.00645566732 1.41572091e-05 96 106 102 0.50367403 
-0.330492139 0.0606365539 0.0896909088 -0.000100910896 116 127 123 0.448955357 
-0.181194335 0.15407972 0.00201438367 8.68586358e-06 150 160 154 0.498853564 
0.410230815 -0.324831039 -0.163594455 -0.000189843471 120 132 127 0.593104362 
-0.00819003582 -0.531582177 -0.00467079878 -7.77142559e-05 110 121 117 0.502658248 
0.0080152005 -0.259479731 0.196438968 -6.25548419e-05 136 143 138 0.388203233 
0.491023779 0.116043895 -0.144434229 -1.6995793e-05 129 137 132 0.582199991 
0.19297123 -0.138913035 0.196042523 3.76344251e-05 111 121 117 0.388428837 
-0.747994781 0.241733357 -0.418144137 -3.80191486e-05 110 117 113 0.737972915 
-0.0889669806 0.29609102 0.048411537 2.50901212e-05 98 107 103 0.47244817 
-0.0918067247 -0.510019898 0.160496145 -2.90841344e-05 122 132 127 0.408658922 
-0.0807529613 0.18096967 -0.0390360169 -7.49007449e-05 119 127 123 0.522216082 
0.261662453 -0.00322586112 -0.137113854 1.5621481e-05 110 120 116 0.578033864 
-0.0792905465 -0.396923333 -0.0032207109 6.83465623e-06 151 157 151 0.501832962 
-0.114385486 -0.191613749 -0.0798378736 3.7660473e-05 157 162 156 0.545437098 
-0.102492422 -0.0685931295 -0.0864099413 -2.92048717e-05 92 104 100 0.549177349 
-0.0184158981 -0.0951821357 -0.358858287 -7.68790487e-05 112 122 118 0.704232395 
-0.368515939 0.165287927 0.133826077 -1.7075683e-05 107 114 110 0.423837304 
0.215068161 0.122956172 0.534558177 -6.56590564e-05 123 132 127 0.19577384 
0.661812603 0.0819217339 0.305925667 6.12194417e-05 124 135 130 0.325892478 
-0.0110928938 -0.300998896 0.190789312 4.06780746e-05 130 140 135 0.391418546 
-0.37370199 -0.153945327 0.0653993934 -2.67158612e-06 101 110 106 0.462780088 
-0.593975246 0.209724829 -0.315439463 1.28931715e-05 151 159 153 0.679521978 
-0.214899272 -0.0850619972 0.115152091 1.8729188e-05 131 141 136 0.434464961 
-0.0190939903 -0.31902793 0.267512351 -6.19636558e-06 116 125 120 0.347754151 
0.00692167133 -0.321044028 -0.0338984765 -7.23400444e-05 130 140 135 0.519292176 
-0.531064034 0.301137537 -0.362470537 4.62438475e-05 145 152 146 0.706288159 
-0.0568385422 0.539142549 0.077989161 4.98286681e-05 131 138 133 0.455615014 
-0.203097597 0.414031148 -0.164894834 -3.44932778e-05 125 132 127 0.593844473 
-0.425575823 0.00632014684 -0.167097181 -1.4896932e-05 128 137 132 0.59509784 
0.210652649 0.311254531 0.117753357 2.0985608e-06 109 117 113 0.432984561 
-0.197289437 -0.549022436 0.251081318 1.33543945e-05 121 131 126 0.357105345 
-0.665955484 0.204288006 -0.388713062 -0.000101783953 116 127 122 0.721223235 
-0.308882773 -0.23473388 0.0882080942 7.02723628e-06 98 108 104 0.449799269 
0.333156586 0.166962638 0.221253574 1.83712327e-05 119 130 125 0.374080807 
-0.0268316232 -0.226534173 -0.593081355 -2.09151767e-06 118 126 121 0.837532699 
-0.462972164 0.347071141 0.248829275 1.06115476e-05 112 125 121 0.358387023 
-0.000280208886 0.301159829 -0.13792339 -5.35289291e-05 126 134 129 0.578494549 
0.717285931 0.333551258 0.265784383 -8.22135189e-06 137 143 137 0.348737597 
-0.0181835964 -0.295853347 0.533351183 -2.23233365e-05 119 124 120 0.196460739 
0.607187867 0.0861757696 -0.22102721 -6.31082803e-05 140 149 144 0.625790358 
-0.610754728 0.432034284 -0.445486665 -0.000168591985 122 131 126 0.753534019 
-0.231418788 -0.0448808707 0.00112751499 3.51201743e-06 122 134 129 0.499358296 
-0.510818601 0.374598682 0.247130111 -7.01076351e-06 124 133 128 0.359354049 
0.0641720593 0.276140302 0.0984209031 -1.9866362e-05 139 147 141 0.443987012 
0.0536244661 -0.188245207 0.307269216 -1.11227855e-05 110 121 116 0.32512787 
0.57358849 -0.0151051581 0.279170573 2.94148049e-06 144 154 149 0.34111926 
-0.630239725 0.312807202 -0.393046975 -1.88817066e-05 138 145 139 0.723689735 
-0.193331838 0.0437546 -0.0822226405 -4.77868016e-05 105 116 111 0.546794295 
-0.028941486 -0.246454388 0.429356724 -2.86503346e-05 88 99 96 0.255645782 
-0.640218675 0.466472208 -0.434823066 -0.000181218464 121 131 126 0.747465253 
0.157835528 0.236476079 -0.826227784 0.00015196146 125 136 131 0.970220327 
0.13108319 0.477778286 -0.087384522 -6.39704085e-05 66 79 76 0.549732029 
-0.329825342 0.106494069 -0.0616005771 -9.44567e-06 119 129 124 0.535057962 
0.390459478 -0.136443019 -0.156067431 -7.40925825e-05 122 135 130 0.588820636 
0.459661722 -0.189937204 -0.186839327 -1.79948984e-06 127 134 129 0.606333435 
-0.0325895883 -0.081106469 0.210371569 3.16273363e-05 123 131 126 0.380273968 
-0.31602034 0.251211047 0.10717997 -4.33748646e-05 115 125 121 0.439002067 
-0.00184977055 0.135799572 -0.31133616 -1.21155172e-05 128 138 133 0.677186728 
0.0419550538 0.0849267989 -0.0977457166 1.79838389e-06 109 122 117 0.555628777 
0.269726843 0.0825052485 -0.104342774 4.1849853e-06 110 119 114 0.559383273 
0.220719039 0.416848838 0.598798811 -0.000112465204 152 159 153 0.159213394 
0.599702179 -0.0258501694 -0.243504062 9.7193566e-05 117 125 121 0.638582289 
-0.0339485072 0.324185073 -0.0293332972 -4.23580059e-05 90 103 99 0.516694069 
0.502792835 0.383940846 0.187003344 6.07318361e-06 138 146 141 0.393573225 
0.184879661 0.416771621 -0.0806301236 4.22226149e-05 106 117 112 0.545887947 
0.0255547687 0.407226145 -0.0730001479 -4.60771553e-05 110 120 115 0.54154563 
0.265695691 0.253238171 -0.0902123153 0.000382854487 139 146 140 0.551341355 
-0.21233432 -0.523210168 -0.0539886244 -6.04660017e-05 120 130 126 0.530725837 
-0.256243408 -0.269549847 0.0532842837 6.19181355e-06 133 140 135 0.469675004 
-0.522643566 -0.289559484 0.0107635558 -7.52537744e-05 114 121 116 0.493874282 
0.24798432 0.116752371 0.225995615 -2.04512617e-05 137 146 141 0.371382028 
-0.079994604 -0.271288276 0.303149939 -3.4069526e-06 102 112 108 0.32747221 
-0.319478691 -0.285191566 0.0878399685 -3.97136027e-05 139 146 141 0.45000878 
-0.291726649 0.00742720347 0.0239261892 -4.31304798e-05 138 147 141 0.4863832 
-0.221770763 -0.247105539 0.0292002428 2.79187225e-06 115 131 126 0.483381659 
0.138664797 0.284470201 -0.0902448893 -8.44371971e-05 115 126 121 0.551359892 
0.0681188703 0.384357691 -0.324744284 -4.72388929e-05 114 125 120 0.684817493 
-0.0861523822 -0.19769685 -0.311088532 6.40578219e-05 106 115 111 0.677045822 
0.0813239217 0.421127588 -0.0122268125 3.31201591e-06 115 127 122 0.506958485 
0.511847317 0.393639445 0.189895362 -4.17421361e-05 139 148 143 0.391927302 
-0.477464288 0.155758932 -0.274079353 3.85579187e-06 136 145 139 0.65598321 
-0.220767632 0.292910427 0.059362337 1.95392204e-06 122 129 124 0.466215879 
0.255504876 0.288091898 0.159493044 0.000258978544 116 123 119 0.409229815 
-0.153926253 0.47315672 -0.129097253 1.766067e-05 114 124 120 0.573471487 
-0.054211013 -0.344107628 -0.55588001 -3.42605053e-05 139 145 140 0.816360772 
0.411963284 0.118400067 0.215481028 1.91443105e-05 123 134 129 0.377366066 
-0.466860831 0.221568137 0.237787426 -1.9051251e-05 131 139 134 0.364671111 
0.423694015 -0.221809536 0.273333639 5.52367419e-06 126 136 131 0.344441146 
-0.208429441 -0.244599134 0.0763424188 -3.08253802e-05 103 111 107 0.456552237 
0.0527447611 -0.259761274 0.331505388 -2.16275221e-05 144 155 150 0.31133467 
-0.0901399404 0.456747532 0.0982613713 1.07248779e-05 108 122 117 0.44407779 
-0.399238974 -0.232515901 0.0361714326 -3.59582191e-05 109 119 114 0.479414225 
0.135570213 0.0145329442 -0.795344412 -2.1160231e-05 111 119 114 0.95264405 
-0.417094648 0.0693831891 -0.171743274 1.02547347e-05 125 135 130 0.597742021 
-0.0580586269 0.321764648 0.0182255097 -8.37908592e-05 114 123 119 0.48962757 
0.00587255508 0.305636346 -0.158460349 1.05239451e-06 143 151 146 0.590182483 
-0.0266548321 0.424420059 0.145146459 -3.45831504e-05 110 118 114 0.417394668 
0.36290729 0.137849927 -0.112716585 2.23904353e-05 124 135 130 0.564148962 
0.19339487 -0.352687299 -0.0905018002 -7.3701638e-05 136 146 141 0.551506102 
-0.161352217 0.345979869 0.0340744294 -8.23728042e-05 91 101 98 0.480607688 
0.29459241 -0.130297542 -0.125724748 -7.18453375e-05 93 103 99 0.571552098 
0.168759495 -0.153053373 0.512590408 1.67655526e-05 146 157 152 0.208276063 
-0.0726542175 0.557970285 0.0861327052 9.38772573e-05 111 125 121 0.450980395 
0.156987369 -0.105183601 -0.103062138 3.68076908e-05 130 136 131 0.558654428 
0.208983839 -0.0730316341 0.513849676 -3.63134895e-05 107 117 113 0.207559392 
0.39301163 0.257885307 0.208294481 -2.25399272e-05 142 149 144 0.381456047 
0.193922728 -0.0637006313 0.197035342 1.16843657e-05 125 131 126 0.387863815 
0.521810174 0.171607107 0.222028613 2.57109205e-05 101 111 107 0.373639703 
-0.709677398 0.407890916 -0.452230424 5.33869897e-05 151 158 152 0.757372022 
-0.256116211 0.238611415 -0.0995346308 -0.000140643751 102 113 108 0.556646824 
-0.0385685489 0.213524058 0.0330078863 8.70322765e-06 97 106 103 0.481214643 
-0.0255314037 -0.218751281 0.173721462 2.03774543e-05 117 128 124 0.401132166 
-0.537582159 0.0101301996 -0.250368118 5.58872125e-06 121 130 125 0.642488778 
-0.0383255444 -0.331152439 -0.468220264 -0.000107346874 99 110 106 0.766472161 
-0.194438875 0.361240625 -0.0510164164 7.053421e-05 134 142 137 0.529034317 
-0.504203439 0.0286643431 -0.163202748 -1.99710485e-07 91 99 95 0.592881441 
-0.152125046 -0.241125733 0.20687741 8.13648512e-05 105 112 108 0.382262528 
0.173396617 0.123398736 0.471339107 3.01742693e-06 97 107 103 0.231752887 
-0.304755658 0.00693380646 0.0664821118 -0.000114461523 123 133 128 0.462163925 
-0.037417613 -0.07884866 0.394640535 -2.54785991e-05 146 154 148 0.275403351 
0.259689093 0.200257301 -0.109125733 5.64347283e-05 146 155 150 0.562105298 
-0.138050869 -0.31471172 -0.0946196169 2.3862347e-05 110 120 116 0.553849638 
0.0726358891 0.159194276 0.347914785 -1.92399602e-05 132 142 136 0.301995784 
-0.443903536 0.0438295789 -0.125027195 4.20622528e-05 142 152 147 0.571155071 
0.362515718 -0.359744847 0.275610834 2.54496117e-05 120 129 125 0.343145192 
0.157062441 -0.0932155252 -0.129009932 1.16127667e-05 127 136 131 0.573421776 
-0.0275555924 -0.328076005 -0.0183877014 3.41572159e-05 93 103 99 0.510464728 
-0.0728849992 0.259723485 0.0174265224 -0.0212413166 150 158 152 0.490082264 
-0.280872583 -0.123500839 -0.0232132934 -1.686826e-05 127 138 133 0.513211071 
0.292602092 0.0527854003 -0.11111635 -1.99423521e-05 111 120 115 0.563238204 
-0.76397723 -0.179346636 -0.17345506 0.000239277026 121 136 131 0.598716199 
-0.495509237 0.0286767948 -0.116459787 0.000127667066 141 149 144 0.566279233 
-0.397125721 0.188500702 -0.218438968 -9.91334673e-06 118 130 125 0.624317348 
0.00326812267 -0.178836867 -0.0714530796 1.425964e-06 139 148 142 0.54066515 
-0.0389037281 -0.248114109 0.399588287 -5.26048243e-05 140 151 145 0.272587508 
0.0867506117 0.0751234144 0.301055342 -0.000338301965 115 124 119 0.328664273 
-0.0829902291 -0.250505328 0.193722263 -2.66625721e-05 123 130 125 0.389749348 
0.472130358 -0.0581286065 0.281294018 9.19527374e-05 113 123 119 0.339910775 
-0.0798894763 -0.384653598 -0.321129352 -3.72083741e-05 107 119 115 0.682760179 
0.194847673 0.0450637713 0.532939196 -8.62882007e-06 136 147 142 0.196695238 
0.0181007534 0.337375671 -0.0141196102 -0.000218273024 96 109 105 0.508035719 
-0.643784285 0.255137175 0.366768062 2.98925443e-06 108 117 112 0.291266054 
-0.0285002068 0.00725489482 -0.0864461362 -8.91905074e-05 121 133 128 0.549197972 
0.397048384 -0.25893566 -0.1616707 -5.62569767e-06 103 112 108 0.592009544 
-0.159803018 -0.261212707 0.085132584 -0.000130967353 149 156 151 0.45154959 
-0.165391386 -0.156859696 0.155280128 -9.53266863e-07 110 118 114 0.411627412 
-0.650385261 0.43466875 -0.461248904 4.24804166e-05 119 128 123 0.762504637 
-0.443721443 -0.0925528109 0.330375671 1.18249445e-05 97 108 104 0.311977565 
0.215140939 0.106435046 -0.093772918 -5.21653419e-06 122 131 126 0.553367734 
0.012809597 0.00169163197 -0.379766583 6.28501584e-06 107 115 111 0.716131628 
-0.376999974 0.188560739 0.144155994 -1.96015462e-05 121 130 125 0.417958349 
-0.332859516 0.209550992 0.132173702 3.20864638e-05 119 132 127 0.424777716 
0.0598737895 -0.0886086673 -0.647327423 6.57951459e-05 149 158 152 0.868405044 
0.149920672 -0.167957485 0.221844897 1.55734015e-05 121 130 125 0.373744279 
-0.0884194076 0.0697360113 0.123870939 1.17476447e-05 101 113 108 0.429502934 
-0.296431512 -0.312855721 0.184018567 0.000131409965 109 124 119 0.395271897 
-0.323811829 0.13417244 -0.0724951178 5.60749322e-06 126 135 130 0.541258216 
0.1859667 -0.38608104 0.229500383 6.96986172e-05 154 160 155 0.369387388 
-0.129727498 -0.113722488 -0.124327525 0.000104531064 102 110 106 0.570756912 
-0.135140613 0.00439560972 0.0820921808 4.96068969e-06 138 147 142 0.453279912 
0.0491090566 0.113206372 -0.382625133 2.83303089e-05 118 125 120 0.717758477 
0.685647488 0.151853651 0.300149977 -1.68736296e-05 124 134 129 0.329179525 
-0.105191417 -0.44584325 0.126276791 -6.2170664e-05 134 143 138 0.428133726 
-0.00655813515 0.172235474 -0.0667315274 -2.58692871e-05 128 139 134 0.537978053 
-0.0728452355 0.140039474 0.344354481 -6.23370288e-05 135 142 137 0.304022014 
-0.223741725 -0.0307215825 0.0938913301 2.46224954e-05 119 131 126 0.446564853 
-0.42714113 -0.106580183 0.324233294 -2.88070878e-05 134 144 139 0.315473288 
-0.0744035393 -0.141669244 -0.073848471 -4.48373612e-07 146 158 152 0.542028427 
-0.42375204 -0.132312551 -0.131227285 -9.42042097e-05 125 136 131 0.574683666 
-0.0065190345 -0.3799707 -0.0429721214 -4.65834637e-05 131 139 134 0.524456143 
-0.0376244858 -0.587452352 0.0089709647 4.71028034e-06 112 123 118 0.494894475 
-0.236846671 -0.39400813 0.255543947 9.43366103e-06 141 149 143 0.354565561 
0.502673507 0.00272787921 -0.199914232 2.31923696e-05 83 97 93 0.613774598 
-0.132869825 -0.0721494406 0.130722284 -9.82626807e-06 122 133 128 0.425603718 
-0.454608828 -0.232785761 -0.0688281953 -1.24398211e-05 112 121 116 0.539171278 
0.610209465 0.237628475 -0.228254005 1.60668278e-05 111 121 116 0.629903257 
-0.789136589 0.0483760238 -0.295187145 -2.61098321e-05 126 136 131 0.667996049 
0.681375027 0.339655548 0.250268966 -6.61336162e-05 125 133 128 0.357567698 
-0.366800398 0.0625137985 0.136632279 -0.00010731176 103 111 107 0.422240227 
-0.0296053365 0.243150458 0.115202308 -0.000188431935 125 133 128 0.434436381 
-0.0898222774 -0.398133188 0.32582137 2.86793438e-05 135 144 139 0.314569503 
-0.00811243057 0.138550639 0.508406341 2.66559655e-05 104 117 113 0.210657299 
0.0987156928 0.0931784958 0.392685443 -7.16987997e-05 129 137 132 0.27651602 
0.163795516 0.0955166519 -0.754263282 3.72943468e-05 113 121 116 0.929264069 
-0.102341823 -0.0630588531 0.217071339 3.35050572e-06 97 109 105 0.376460969 
-0.10073968 -0.382449716 -0.056234356 -5.97815961e-06 122 131 126 0.532003939 
-0.012988098 0.516695857 0.150702983 -0.000120916666 109 119 115 0.414232373 
0.160616025 0.342915654 -0.705027521 -6.380782e-05 135 141 136 0.90124321 
-0.0549130738 -0.040244706 -0.314531088 -4.60532028e-05 125 133 128 0.679005027 
0.00767859071 -0.291143805 0.587637782 -3.99909914e-05 120 128 124 0.165565312 
-0.179668605 -0.135849103 0.175664574 4.61441232e-06 114 125 120 0.400026292 
0.537498474 0.361775011 0.224250481 -4.33050445e-07 140 147 141 0.37237522 
-0.100292735 -0.379638582 -0.0896614492 -4.19999706e-05 88 101 97 0.551027894 
0.234921187 0.343682677 0.0747399777 7.39266397e-06 126 134 129 0.457464188 
0.212444961 -0.135109112 0.220638663 -5.90510244e-05 112 125 120 0.374430776 
-0.370434731 -0.0500586815 0.188323021 -6.67792046e-05 127 136 131 0.392822146 
0.259806752 -0.116594598 0.2280761 2.71259269e-05 124 133 128 0.370198011 
-0.0796751529 -0.263444483 -0.248560801 -4.16100665e-05 103 114 110 0.64146018 
-0.105074242 -0.165675551 -0.228144899 -2.04368262e-05 125 133 128 0.629841149 
-0.581025124 0.394383192 -0.39434889 -2.39072251e-05 112 121 116 0.72443068 
0.0931658745 0.0106755067 0.370787561 -1.62232609e-05 123 133 128 0.288978487 
-0.0291840769 0.315796405 0.0903276801 -2.06837431e-05 101 110 106 0.448592991 
-0.0199024379 0.194913387 0.406473696 1.94304157e-05 112 124 119 0.26866889 
-0.0612790063 -0.245075136 0.104751676 -4.02157893e-05 142 150 144 0.44038403 
-0.0244629271 -0.0389303155 -0.380696476 -2.91109318e-05 129 138 133 0.716660857 
0.0317078009 0.41957593 -0.082387507 -3.25916335e-05 105 115 110 0.546888173 
-0.328330934 -0.0278162248 0.162093386 -1.32301939e-05 115 123 118 0.407749921 
0.130734846 0.0827122331 0.218529046 3.59598198e-06 90 99 95 0.375631392 
-0.506354332 -0.208789185 -0.0405394919 1.10388501e-05 112 124 119 0.523071706 
-0.194560587 -0.14755176 0.140052035 1.92972948e-06 128 138 133 0.420294017 
-0.303842425 0.213150159 -0.0777299404 -2.5453206e-05 116 127 123 0.544237435 
0.485210061 0.34626469 0.185930476 4.70093801e-06 133 140 135 0.394183785 
0.122537553 0.129883587 -0.54510951 -2.81376415e-05 125 134 129 0.81023103 
-0.635822177 0.260146767 -0.407402009 8.67594208e-05 109 117 113 0.731859446 
0.0818730295 -0.197765991 0.306268692 -8.33045924e-05 105 116 112 0.325697273 
-0.671735227 -0.226843938 -0.103964403 -5.4655e-05 99 110 106 0.559167922 
-0.337077409 -0.204529092 0.0670311153 6.38859347e-05 140 149 143 0.461851448 
-0.417291582 0.162510484 -0.138382047 6.35324977e-06 95 102 98 0.578755558 
-0.327311635 -0.529971242 0.0812922567 6.25029788e-05 107 118 114 0.453735173 
0.258628607 -0.239690155 -0.136706874 -0.000132952497 112 124 119 0.577802181 
0.50197345 0.410970539 0.210474879 -3.47441528e-06 129 136 131 0.380215168 
-0.19058831 -0.244007617 0.0135911442 2.65771523e-05 122 130 125 0.492265046 
-0.225255713 -0.194475874 0.164390549 -6.26673573e-05 131 137 132 0.406442523 
0.692872703 0.176305011 0.296683073 -2.20605871e-05 99 110 106 0.331152618 
-0.0392567888 0.121502057 0.0750716627 -0.000146623352 135 145 140 0.45727545 
-0.414308459 0.112056196 -0.179620087 -4.09917557e-05 113 127 123 0.602224827 
-0.681078076 0.0598128028 -0.253862321 3.71564529e-05 135 146 140 0.644477367 
0.387965709 0.11626038 0.212130964 1.97244808e-05 105 113 109 0.37927264 
0.648613095 0.159966335 -0.208253995 5.74089354e-05 104 113 109 0.618520916 
-0.195707828 0.0994579792 0.0475071557 -3.34397191e-05 95 105 101 0.472962856 
-0.177227736 -0.423679233 -0.0173310302 -4.87498473e-05 137 147 142 0.509863377 
0.554153085 0.011729599 0.266905814 -5.22996197e-05 117 128 124 0.348099351 
0.272101492 0.0343946964 -0.111595944 -1.89076309e-06 114 127 122 0.563511133 
0.558864236 0.0402336419 -0.182633415 1.41984783e-05 119 127 122 0.603939772 
-0.598148704 -0.000216184184 -0.20022428 2.80061795e-05 144 154 148 0.613951087 
0.11868161 -0.230371118 0.223967999 5.1211242e-05 129 136 131 0.372535974 
-0.517631173 0.178176597 -0.287631899 -0.000485466677 139 149 143 0.663696229 
-0.315849692 -0.229294837 0.194831192 2.68496224e-05 120 130 125 0.389118224 
-0.373388708 0.0674894378 -0.147124141 -1.86043035e-05 115 127 122 0.583730876 
0.0945636481 0.371003121 -0.342666537 -4.23870515e-05 109 119 115 0.695017397 
-0.635547042 -0.0412896536 -0.196903303 -1.53542496e-05 106 115 111 0.612061024 
-0.248171538 0.0778054222 -0.112515792 -0.000151693239 124 138 133 0.564034641 
-0.559985042 -0.0983126014 -0.0973535329 -2.90328971e-05 94 103 100 0.555405557 
-0.675994992 0.126411319 -0.29721114 6.99807424e-06 100 110 106 0.669147909 
-0.62272352 0.265960813 -0.402132839 -5.62541536e-05 104 115 111 0.728860676 
0.226777434 0.157545045 -0.105713993 0.000366413384 113 123 118 0.560163617 
0.455163062 -0.178851232 0.262172639 0.000135624665 124 132 127 0.350793093 
0.64106226 0.398289919 0.254522294 -7.65551813e-05 101 112 108 0.355147034 
-0.126938283 0.311537802 -0.0158881806 -1.26069062e-06 154 161 155 0.509042263 
-0.242869347 -0.100061938 0.0241397079 5.06624056e-05 118 128 123 0.486261666 
-0.0646775141 -0.480079085 0.201448753 7.33263441e-05 123 133 128 0.385352075 
0.358239859 -0.227225631 0.249067247 -3.77938013e-05 92 103 99 0.358251601 
0.21884352 -0.368294597 0.250493646 -8.72229066e-05 129 139 134 0.357439786 
-0.398712575 -0.203481972 0.066474922 -5.51294652e-05 118 126 122 0.462168008 
-0.348775208 -0.515718162 0.166872084 5.76447201e-06 109 117 112 0.405030251 
0.0828996748 -0.233825177 0.198756784 1.64597732e-05 127 136 130 0.386884123 
-0.494877756 0.133967131 -0.188538462 -0.000206584111 114 124 120 0.60730046 
-0.0329185911 0.346722454 0.37108478 1.33382855e-05 142 152 146 0.288809329 
0.257320583 -0.0349213034 0.208610356 -2.12885789e-06 139 147 141 0.38127628 
0.0382327214 0.321616739 -0.0294087641 3.55325174e-05 143 149 143 0.516737044 
0.0695536584 0.369709134 0.395571887 3.07379523e-05 116 128 124 0.274873286 
-0.529737532 0.252978653 -0.297349453 7.79316761e-05 128 137 132 0.669226646 
-0.45933944 0.0442273468 -0.194507197 -5.33722341e-05 145 152 146 0.610697389 
-0.625672877 -0.131551236 -0.122187078 -6.87801075e-05 157 163 156 0.569538713 
-0.232740805 0.402629614 0.0940339714 8.44727037e-05 106 116 112 0.446483672 
-0.579030275 0.034246482 -0.179671228 -0.000229608995 104 112 108 0.602253973 
-0.210464641 -0.510605991 0.0969561487 6.26996043e-05 132 143 138 0.444820583 
0.187005997 0.249142468 -0.818288028 1.94057357e-05 130 139 134 0.965701699 
0.228236884 -0.206118047 0.199149281 -1.90366663e-05 123 131 126 0.386660725 
-0.100816429 -0.14419508 0.222710073 -2.79477099e-05 89 99 95 0.373251885 
0.225594491 0.0176247507 -0.106406048 -5.9476879e-06 137 146 141 0.560557485 
0.114861116 0.33462584 0.419997036 9.33511183e-06 94 109 105 0.26097253 
-0.184384122 -0.586555541 -0.00269325823 -2.70565506e-05 129 140 135 0.501532793 
-0.430386513 0.445334136 0.181610197 3.51915369e-05 139 147 142 0.396642566 
0.0851489007 -0.178537801 -0.111248136 -5.65123046e-05 104 112 108 0.563313246 
0.412623525 0.271133065 0.182204768 -6.6008979e-05 115 126 121 0.39630419 
-0.417354524 -0.279748797 0.348669946 0.000207245175 120 130 125 0.301566005 
-0.312379718 -0.179195821 0.214175656 0.000120001321 94 104 100 0.378109008 
-0.569221973 0.350517958 0.294357449 -4.59213479e-05 119 128 123 0.332476169 
0.534842193 0.0171966702 -0.207160249 2.67077412e-05 112 122 117 0.617898405 
-0.302774221 -0.00894277543 -0.0938326269 -3.32320342e-05 108 118 114 0.553401768 
-0.134803772 -0.462299436 0.301135153 2.94219935e-05 129 141 135 0.328618854 
0.145003974 0.130605116 0.43242386 -4.67994832e-05 148 157 151 0.25390023 
0.392228633 0.0710395798 -0.1534594 3.84895829e-05 110 117 113 0.587336361 
0.566693068 0.312129885 0.237308353 1.05572399e-05 146 151 145 0.364943773 
-0.0906621069 -0.291662395 -0.233333573 -4.59681032e-05 143 155 149 0.632794142 
-0.30624193 -0.0248810984 0.0796366632 4.19304706e-06 121 130 125 0.454677403 
-0.383402795 0.026775673 -0.0558824725 -0.000138724427 132 137 132 0.531803668 
0.651667535 0.0806900561 -0.223966315 5.86753013e-05 112 121 117 0.627463043 
0.0178584754 0.257480353 -0.0592825972 -6.54409814e-05 128 138 133 0.533738732 
-0.450792611 0.412623465 -0.364272088 7.40861287e-06 132 138 133 0.707313478 
0.320420921 -0.299381971 -0.152830377 -8.97836726e-05 105 114 110 0.586978376 
-0.67814827 -0.0093486663 -0.23687987 -6.08975097e-05 131 143 137 0.634812355 
0.0841346979 0.321611196 -0.0442408137 -2.73240439e-05 135 144 138 0.525178194 
0.188920885 0.0109382784 0.486048251 1.76346075e-05 95 106 102 0.223381668 
-0.04152897 -0.11572811 0.0698783845 -0.000133801557 101 109 105 0.460231006 
0.000892408192 0.405346572 -0.00505687669 0.000146985185 108 116 112 0.502877951 
-0.220684275 -0.0346374176 -0.0474398471 -3.85461826e-05 112 126 121 0.526998818 
-0.0432018563 -0.594767451 0.0450256094 6.52068993e-05 123 132 127 0.474375159 
-0.279526472 0.255498558 0.0951459333 -1.22775091e-05 117 127 122 0.445850819 
-0.0409384929 -0.00723973475 0.41969651 -6.58890349e-05 100 109 105 0.261143565 
-0.767765999 0.232827276 -0.419774592 1.74573506e-05 124 136 131 0.7389009 
-0.283929199 -0.420952797 0.250517756 -8.81333181e-05 110 119 114 0.357426107 
-0.135998264 -0.141561329 -0.101782724 2.23948155e-06 119 130 125 0.557926238 
0.159696817 0.257805377 -0.764114916 6.31813891e-05 112 122 117 0.93487078 
-0.567466378 -0.0458525009 -0.129396215 -2.1081185e-05 88 100 96 0.573641598 
-0.087832652 -0.0645938069 -0.141507298 3.83908628e-05 126 136 131 0.58053422 
-0.4372513 -0.0542091317 -0.0660701245 -2.52930331e-05 114 125 120 0.53760159 
-0.100721769 0.0896732658 0.0919663608 -6.08332921e-05 139 148 143 0.447660357 
-0.602461159 0.129284143 0.384269804 -2.90950411e-05 119 128 123 0.281305522 
0.747772038 0.140986547 0.328329295 1.40453922e-05 117 126 121 0.31314221 
0.544469118 0.180286393 -0.18709372 2.21733353e-06 144 152 146 0.606478214 
-0.065082714 0.399631888 0.13537319 4.26213956e-05 102 111 107 0.422956795 
0.0732339174 0.0166674089 0.32008937 2.10981816e-05 102 110 106 0.317831695 
-0.0699452534 -0.256292492 0.139207527 -0.000106553925 83 95 91 0.420774609 
0.161045015 0.111443639 -0.109825552 9.18905425e-06 105 116 111 0.562503636 
0.395445019 0.0563360229 -0.155462354 1.07373344e-05 128 137 132 0.588476241 
-0.263137281 -0.314973414 0.114227653 -9.25996574e-06 134 143 138 0.434991091 
-0.0688283965 -0.314493597 0.12862362 3.03189736e-05 130 140 135 0.426798075 
-0.475092858 0.0898493081 -0.180641502 3.17220693e-05 126 134 129 0.602806151 
0.488790333 0.018512154 -0.163912103 -7.2691706e-05 103 115 111 0.593285203 
-0.116635904 -0.202080935 0.090147227 5.59461769e-05 145 155 149 0.44869566 
0.0729885697 0.0951635987 -0.104521468 3.74310184e-06 129 137 131 0.559484959 
-0.410041004 0.304139674 0.175775185 -4.28959029e-05 134 146 140 0.399963319 
-0.283802569 -0.0775077194 -0.0495544337 -1.53583824e-06 134 142 137 0.528202295 
0.228363454 -0.0175866112 0.571845233 -3.37406527e-05 102 115 110 0.174553126 
-0.0466323607 0.277098447 0.0560411513 -0.000410287001 128 136 131 0.468106002 
-0.183652043 -0.592011809 0.199645087 2.77846048e-05 116 124 119 0.386378586 
0.00375366956 0.378082573 0.394123465 2.05092365e-05 109 121 117 0.275697619 
0.432469904 0.338052601 0.19818911 2.10537401e-05 118 129 124 0.38720721 
0.751152515 0.144407108 0.300572246 -6.94923801e-06 113 122 117 0.328939229 
-0.158035696 0.0297565199 -0.0598919354 -0.000100838079 125 134 129 0.534085512 
-0.269892275 -0.40122965 0.132229805 -3.4261262e-05 137 144 139 0.424745739 
0.190006942 0.413002044 0.529310882 -8.07850738e-05 119 128 124 0.198760152 
-0.0338989086 0.115389988 -0.174303249 3.59512633e-05 89 101 97 0.599198937 
0.186367244 0.373811096 0.0788827538 -0.000148184175 125 138 133 0.455106497 
0.0244568586 -0.109012052 -0.512062669 -8.65233596e-06 115 127 123 0.791423619 
0.587906659 -0.0896548182 -0.233494744 -0.000181217329 129 137 132 0.632885814 
0.200080782 0.423716187 -0.0894266963 -1.49224652e-05 90 99 95 0.55089426 
-0.0915956125 -0.336305261 0.00884685665 -0.00013173226 128 138 133 0.494965076 
0.00319267064 0.0481742173 0.169796333 -0.0017128333 95 108 104 0.403365999 
0.0324284136 -0.457445979 0.0338312425 -3.59636615e-05 136 144 139 0.480746061 
-0.362706482 0.350565553 -0.27628392 -4.54226974e-05 108 119 114 0.657237887 
-0.4873676 0.274882346 -0.343774706 8.96847341e-05 106 116 111 0.695648074 
0.184592158 -0.0774121284 -0.130631462 -2.2987515e-05 118 127 122 0.574344575 
-0.608397126 0.00127305463 -0.206512824 -4.6310015e-07 123 136 131 0.617529988 
-0.524079442 0.175337002 0.328019261 -9.01638705e-05 138 146 140 0.31331867 
-0.462459236 -0.181151912 0.371173292 2.28022109e-05 104 118 114 0.288758963 
-0.0871293768 -0.308462411 0.299188823 9.21357423e-06 116 127 122 0.329726547 
-0.262858093 -0.428204179 0.0853287727 5.62844798e-06 141 149 143 0.45143795 
0.0176763535 0.37457642 -0.101972193 1.19826291e-06 121 128 123 0.558034122 
-0.295808971 -0.260671407 0.170636103 -4.9440423e-06 154 161 155 0.40288806 
-0.0800120309 -0.289030313 0.150914177 1.12921698e-05 119 126 121 0.41411218 
-0.102582946 -0.266590565 -0.137305483 6.50930451e-05 168 176 170 0.578142881 
-0.270758629 -0.131646693 0.0780676678 6.1767525e-05 108 115 111 0.45557034 
-0.34483999 -0.525143206 0.0728807449 -6.74551993e-05 90 105 101 0.45852235 
0.0469284952 0.0464004502 0.259797603 -2.62777321e-05 99 113 108 0.352144778 
-0.20166491 -0.537267625 0.036571607 -8.42174195e-05 138 146 141 0.479186505 
0.010887675 -0.296068549 0.289991081 -2.61598034e-05 122 135 130 0.334961146 
-0.637297928 0.162120417 0.382598758 7.48388702e-05 127 137 132 0.282256514 
0.442813456 0.222204491 -0.151472092 -0.000116361 145 154 149 0.586205363 
-0.109759867 0.417160213 -0.0751647204 1.04979263e-05 110 119 115 0.542777538 
-0.0395863205 -0.179772735 0.309574425 2.77945073e-05 121 132 127 0.323815912 
0.0109130666 0.47797817 -0.0707859099 -6.05387613e-05 108 118 113 0.540285468 
-0.0464989319 0.428387672 -0.0800985992 -1.20293116e-05 136 146 140 0.545585454 
-0.0238002352 0.293771178 -0.0527375005 -5.42947091e-05 124 132 127 0.5300138 
-0.0194246769 -0.23343122 -0.0536071546 -1.25288898e-06 111 124 119 0.530508757 
-0.121593527 -0.0671611279 -0.113457665 -1.71523716e-05 93 102 98 0.564570665 
-0.0403816886 0.198324218 -0.0111697949 -1.78636983e-05 138 148 142 0.506356955 
-0.143128648 0.277164906 -0.0341735519 -2.94018537e-06 103 116 112 0.519448757 
-0.107836142 0.376242399 -0.0480871014 3.67793546e-05 134 143 138 0.527367175 
-0.240770519 -0.272751749 0.084774144 -3.34852375e-05 101 109 105 0.451753587 
0.00689792633 0.505803645 -0.0173291527 -5.4000353e-05 108 118 114 0.509862304 
-0.139555201 -0.0220503882 0.0289540309 -8.41612928e-06 131 141 135 0.483521789 
0.447955906 -0.0758995563 -0.195319086 -3.10964606e-06 101 108 104 0.611159384 
0.190720916 -0.133636743 0.537112713 1.01790065e-05 105 115 110 0.194319993 
-0.262956619 -0.332550228 0.117299497 -3.40072438e-06 124 133 128 0.433242857 
0.0436340272 0.325062305 0.672383487 8.69022915e-05 111 123 119 0.117335103 
-0.0684945956 0.222984269 0.186238632 1.85717363e-06 135 145 140 0.394008428 
-0.06641265 -0.217632726 -0.0388348587 2.17360648e-05 130 139 133 0.522101581 
-0.23591277 -0.250699192 0.119135559 -0.000218971691 104 112 108 0.432197899 
-0.274218202 -0.102036849 0.0699119642 -6.26028632e-05 105 115 111 0.460211903 
-0.111818656 0.0227768812 -0.0691094398 -6.23688102e-05 127 136 131 0.539331377 
0.272361755 -0.300112188 -0.140746862 -4.32311936e-06 124 135 130 0.58010143 
-0.574285269 0.437511861 0.292261422 0.000121556863 101 113 109 0.333669037 
-0.0810096189 -0.150608763 0.282431811 -1.91912986e-05 115 122 118 0.33926326 
0.0163241923 0.393365383 0.270530879 4.44853795e-05 127 135 130 0.346036255 
-0.187444031 0.518131316 -0.195253283 2.78329244e-05 119 129 124 0.611121953 
-0.56191361 0.158453375 -0.363274753 -0.000179189898 127 135 130 0.706745863 
0.0906693339 -0.137686864 0.300599247 -8.17934051e-07 121 129 124 0.328923851 
-0.153578967 0.237796128 -0.0265980028 -4.93205589e-05 95 105 101 0.515137374 
0.120002404 -0.12645103 0.428590745 3.05674039e-05 152 162 156 0.2560817 
-0.0235436112 0.283228517 0.337676615 -3.8756174e-05 131 140 135 0.307822496 
-0.548654199 0.115937546 -0.24684231 -8.94728e-05 139 149 143 0.640482187 
0.265581101 -0.263317645 -0.116814703 -8.02190771e-05 129 135 130 0.566481233 
0.502373219 0.245158896 -0.172680542 3.29647228e-05 120 131 126 0.598275423 
-0.738133848 0.252592444 -0.448500603 -1.96097826e-05 109 117 112 0.755249381 
0.182693571 0.389936984 -0.0780468434 -1.14362192e-05 146 154 148 0.544417799 
0.415502846 -0.139736176 0.269358933 2.95827631e-05 133 142 137 0.346703261 
-0.0425229892 -0.0889464319 0.29869476 -7.13436166e-05 130 140 135 0.330007732 
-0.419272393 -0.000313995406 -0.0770764649 -4.11321744e-05 121 128 123 0.543865561 
-0.00202266127 -0.254164994 0.175505608 2.50845333e-05 110 122 117 0.400116771 
-0.47455126 0.414366335 0.206051782 -6.45454274e-05 98 109 105 0.382732421 
-0.22417447 -0.0789045841 -0.0261242203 1.62327451e-05 91 101 98 0.514867723 
-0.546206713 -0.190931275 -0.0794675797 9.24273627e-06 147 157 151 0.545226336 
0.145593897 0.362728447 -0.0893083513 -7.37104856e-05 130 139 134 0.550826907 
-0.30095917 -0.247076094 0.0952124745 -7.28661471e-05 120 129 124 0.44581297 
-0.499114513 -0.0193562731 -0.208476976 0.000104574501 141 149 143 0.618647754 
0.12898989 -0.0296585411 -0.12276113 3.43385e-05 125 136 131 0.569865465 
-0.588501096 0.145046473 0.350195765 0.000106605847 127 137 132 0.300697625 
-0.079819873 0.415338665 0.0199968033 0.00018196716 145 152 146 0.488619477 
-0.165448949 -0.614042461 0.0126394145 4.62049502e-05 108 116 112 0.492806703 
-0.0473976061 0.257217199 0.00665621832 -0.0204906259 123 132 127 0.496211857 
-0.0663351789 -0.339139163 0.312963963 -0.000101743441 143 150 144 0.321886897 
-0.468984783 0.17946133 0.24422875 -8.79394356e-05 92 103 99 0.361005276 
-0.354169995 -0.291411698 0.268383086 -8.17992259e-06 123 131 126 0.347258598 
0.06789276 0.383026123 -0.0354353525 -2.24717369e-05 112 120 116 0.520166874 
-0.428346157 0.435825378 0.171847448 -4.19246935e-05 107 120 115 0.402198672 
-0.152970672 -0.393215179 0.2335352 -0.000112087524 102 114 110 0.367091119 
-0.641676545 0.359440088 0.335808903 -2.06325785e-05 105 114 109 0.308885425 
-0.776036382 0.26594758 -0.44026494 -0.000126429513 117 126 122 0.75056231 
-0.113670938 -0.0532596447 0.0826074481 -3.26189911e-05 132 140 134 0.452986717 
-0.325327575 -0.155026421 0.22706084 -7.83188152e-05 156 165 159 0.370775789 
-0.0498768352 0.00559920724 -0.079796195 -8.70183285e-05 111 123 118 0.545413375 
-0.693797529 0.268596649 -0.406610012 5.56868326e-06 117 123 119 0.731408656 
-0.474494725 -0.140883833 -0.016023051 2.11101142e-05 104 114 110 0.509118974 
0.267937481 -0.0482280888 0.208779886 9.18902515e-06 125 134 129 0.38117981 
-0.117823601 0.168612465 0.0327921212 3.18415696e-05 123 130 125 0.481337428 
0.43341279 -0.0393816829 0.247853577 7.16318027e-06 97 106 102 0.3589423 
-0.244716778 -0.265572876 0.0559039563 7.92690262e-05 156 164 158 0.468184114 
0.104833513 0.37987566 -0.074999705 -3.85425519e-05 117 127 123 0.542683601 
0.387098402 0.215827271 -0.13772957 -2.34825711e-06 129 137 132 0.578384221 
-0.266541988 0.00229639001 0.0872662216 -1.61162461e-05 113 121 116 0.450335294 
-0.517703176 0.0988870263 -0.291953564 -1.98535854e-05 140 150 145 0.666155756 
-0.45665139 0.111359686 0.233173802 8.98293802e-05 126 136 131 0.367296815 
0.0586330146 0.466417283 0.00761121884 6.35761535e-05 134 147 141 0.495668322 
-0.617347062 -0.116582289 -0.122841686 -2.95042919e-05 157 163 156 0.569911301 
0.423709571 0.317829847 -0.120276496 -5.29437093e-05 120 130 125 0.568451405 
0.525895894 -0.0138142072 0.295665026 -1.82799995e-05 134 141 135 0.331731975 
0.441811264 -0.059860792 -0.189398095 4.09650384e-05 127 137 132 0.607789695 
-0.137573123 -0.33553943 -0.0745802373 -8.34148086e-05 117 126 121 0.542444885 
-0.0969264433 -0.357926846 0.286698967 -0.00011005532 145 156 150 0.336834729 
0.0786515623 0.459314495 -0.332271457 1.28623797e-05 161 169 163 0.689101338 
0.391795695 0.185575485 0.195301414 1.26273662e-05 135 142 137 0.388850629 
-0.0245250389 0.232715204 0.120490044 9.60374018e-06 119 130 125 0.431427062 
-0.466179252 0.0701359212 0.249871418 3.55957309e-06 100 109 105 0.357793897 
-0.119120464 0.50689292 -0.154532507 -1.29378168e-05 114 126 121 0.587947071 
0.208605319 -0.156865761 0.529361188 0.000172745902 117 127 122 0.198731512 
-0.0206591263 -0.296969771 0.178708777 -4.89572994e-06 98 109 105 0.398293763 
0.0133614987 0.379583478 0.612689197 -1.42599456e-05 125 131 126 0.151308119 
-0.15753296 -0.301641405 0.0481024235 -0.00114250719 96 107 103 0.472624093 
-0.401435405 0.119122356 -0.131749779 -0.000122546684 134 146 141 0.574981034 
-0.000757552683 -0.167028457 0.610463321 6.80088997e-05 131 139 133 0.152574927 
-0.0714128837 -0.371255189 0.159940779 -0.000132758898 96 106 102 0.408974975 
0.0647910088 -0.0632099956 0.19076778 7.56550435e-05 139 146 141 0.391430795 
-0.567874134 0.239223883 0.320485651 7.18748197e-06 109 118 113 0.317606151 
-0.0722019598 0.0930397362 0.349043906 -9.1023976e-06 123 134 129 0.301353186 
-0.514676392 -0.244066387 0.00225257501 -2.83720146e-05 102 113 109 0.498718023 
-0.226405159 -0.259192914 0.174732566 5.83567162e-05 137 144 139 0.400556713 
0.159174442 0.160598353 -0.642180085 0.000107203145 111 119 114 0.865475595 
-0.362945586 -0.085576728 0.201076314 1.34378206e-05 101 109 105 0.385564029 
-0.0336476006 0.336302102 0.281531453 2.99365493e-05 117 127 122 0.339775652 
-0.100445986 -0.410388172 -0.073285684 -8.3707273e-05 112 125 120 0.541708112 
0.036543414 0.34240061 -0.223930612 -0.000109500834 122 132 127 0.627442718 
0.0590043217 0.528636873 -0.129807144 -3.77666438e-05 118 130 125 0.573875427 
-0.0287764184 -0.121308684 0.213121325 -3.32845084e-05 114 123 118 0.378709018 
-0.540407062 -0.217022732 -0.0319359563 -0.000196616951 115 129 124 0.518175304 
-0.0130223185 0.0715450048 -0.341041625 -2.02996071e-05 133 141 135 0.694092631 
-0.318689942 -0.249732524 0.120440885 -1.73324952e-05 143 150 144 0.431455046 
-0.145241067 0.407574177 -0.0905945748 -9.05745546e-05 114 125 121 0.551558912 
0.0385025665 -0.152816862 0.18924126 -0.000112740367 123 130 125 0.392299592 
-0.0720255673 0.46002686 0.12164399 -1.56322494e-05 143 150 145 0.430770338 
0.266886592 0.140481666 -0.121361732 0.000108883803 117 127 123 0.569069028 
-0.0936926901 0.00498131104 0.0207089111 1.3671699e-05 131 141 135 0.488214195 
-0.266114414 0.124494195 -0.010204535 -0.000109403045 123 131 126 0.505807579 
-0.0934309438 0.190110266 0.221876368 -7.20573589e-05 108 122 117 0.373726368 
0.0225697309 0.450322121 0.0755556971 9.60761099e-06 137 148 143 0.456999958 
-0.0229365118 0.138394892 0.54879725 -0.000357737532 154 162 156 0.187670112 
0.037243031 0.278985262 -0.0368909948 -6.07965048e-05 125 134 129 0.520995319 
-0.565957785 0.239868894 -0.316792548 -6.59970683e-05 111 120 116 0.68029207 
-0.081060499 -0.338621765 0.25970161 -0.000189255225 130 140 135 0.352199376 
0.415391535 0.0122567443 -0.143853322 3.86317843e-05 139 149 144 0.581869364 
-0.211954087 -0.104867771 0.120839432 2.46970449e-05 130 137 132 0.431228191 
0.13946715 -0.344145656 -0.103002712 -6.43564272e-06 107 117 113 0.558620572 
-0.53129369 0.176185936 -0.338225961 5.90733544e-05 140 147 142 0.69249016 
-0.102637887 0.179727942 0.0117542483 -0.0197867323 121 128 123 0.493310481 
-0.0695218965 -0.471030027 -0.0537460037 -2.67493742e-05 106 114 110 0.530587792 
-0.313085735 0.100985929 -0.0056088455 -1.02129707e-05 126 137 132 0.503192067 
0.365259737 0.0964352489 -0.145010695 7.83338328e-06 132 141 135 0.582528055 
-0.255016714 -0.50192219 0.0733638778 -2.00984068e-05 120 130 125 0.458247364 
-0.754649341 0.157814413 -0.364000916 5.41703776e-06 114 121 116 0.707159102 
-0.34386462 -0.0965524018 0.22328715 2.57303473e-05 97 108 104 0.372923464 
-0.0376374461 -0.0521291457 -0.358779699 -1.62887736e-05 99 107 103 0.704187691 
0.0214013755 -0.0426415242 -0.106105715 -4.85522905e-05 129 137 132 0.560386598 
0.204362631 0.114891008 0.514785647 3.84323066e-05 118 131 126 0.20702672 
-0.166643873 -0.590177834 0.0929478332 9.9769486e-06 141 150 144 0.447101802 
0.00969228894 0.255283952 0.495855421 7.25869904e-05 125 135 130 0.217800245 
0.142916098 -0.0102358721 0.460687786 -0.000112762558 133 144 139 0.237814739 
-0.197690591 -0.487720221 0.25678879 2.72009056e-05 103 114 110 0.35385713 
-0.0913575739 0.00338371098 0.151638627 8.66816845e-06 110 119 115 0.413699865 
-0.0354298465 -0.489622325 0.289857119 3.98314987e-05 115 125 120 0.33503738 
-0.160773113 -0.544724107 -0.121945187 -1.8775143e-05 102 111 107 0.569401085 
0.155717269 0.22653088 -0.720132291 -8.29331111e-06 140 149 143 0.909839571 
-0.544815421 0.143894628 -0.337360889 -0.000158594805 124 130 125 0.691997826 
-0.00651584566 -0.23532629 0.160589799 -0.000167753271 150 161 155 0.408605605 
-0.585056841 0.368379712 -0.389177531 -7.11125904e-06 109 119 115 0.721487582 
-0.349215329 -0.126942247 -0.0492774211 1.78340124e-05 143 152 146 0.528044641 
-0.692202151 -0.106878117 -0.188814625 -1.03206839e-05 110 121 117 0.607457638 
0.192128062 0.228846371 -0.0895562768 -4.04525781e-06 108 117 112 0.550967991 
-0.0345156714 -0.531502843 -0.045531828 8.29691999e-06 112 119 114 0.525912941 
-0.426050097 0.232262343 -0.260408342 2.92456243e-05 143 150 144 0.648202837 
-0.0542189255 -0.276244879 -0.462366849 2.97472579e-05 108 118 113 0.763140798 
0.0278999582 -0.312763631 0.275471538 -2.24506948e-06 119 131 126 0.343224436 
0.688697338 0.13195084 0.278233081 -2.19680951e-05 120 127 123 0.341652811 
-0.294941664 -0.38072294 0.211352423 8.34721141e-05 146 152 147 0.37971577 
0.0659796894 0.224303186 0.298930079 -0.000145773403 172 177 171 0.32987383 
-0.537687182 0.21333532 -0.320210963 -0.000783390657 115 126 122 0.682237566 
-0.350591153 0.160894081 0.117115766 0.000157324306 129 140 134 0.433347404 
-0.324965984 -0.214609995 0.0742570683 3.39238322e-05 115 126 121 0.457739055 
0.10348773 0.120440975 0.206354067 2.33296305e-06 127 138 132 0.382560402 
0.19180727 -0.0430210121 0.486002952 9.16033168e-05 140 150 144 0.223407432 
0.0523181707 0.258638918 -0.286734402 -8.97160498e-06 109 118 114 0.663185477 
-0.0823159888 -0.306687355 -0.368343681 3.73792136e-05 125 135 130 0.709630668 
-0.42482084 0.443504512 -0.332940668 3.43204301e-05 104 115 111 0.689482212 
-0.0680082589 -0.357191235 0.0145822801 1.83822704e-06 97 107 103 0.491700977 
-0.0920909718 -0.119951725 0.170243025 -0.00019173231 110 119 114 0.403111756 
-0.235171661 0.0428753793 0.0302551333 -1.45201338e-05 99 108 104 0.482781291 
0.0115702599 0.052096732 0.200784981 6.99609518e-06 138 147 141 0.385729849 
-0.0324235149 0.179088682 -0.0786656141 2.5004847e-05 113 122 117 0.544769943 
-0.128610924 0.0529055744 0.0826714635 -1.39316544e-05 120 130 125 0.452950269 
-0.495360404 0.13754566 -0.226347521 2.65616982e-05 117 124 120 0.628818214 
0.0821192861 0.165950209 0.30945608 2.87791481e-05 120 132 127 0.323883265 
-0.46665439 0.142955348 -0.169299379 2.09908467e-06 137 144 139 0.596351147 
-0.415512502 0.115092903 0.187166989 -3.05717695e-05 124 134 129 0.393480092 
-0.563354731 0.0775646716 -0.230601534 -0.000186016608 128 137 132 0.631239235 
-0.0265733525 0.138587713 -0.0680564046 9.57510201e-06 133 144 139 0.538732052 
-0.269488275 -0.446022809 0.258334935 -2.77057297e-05 132 141 136 0.352977186 
0.0775251687 0.187522262 -0.0645638555 6.63948595e-06 122 133 128 0.536744356 
-0.121129103 -0.167048573 0.0720784664 -6.71728048e-06 119 132 127 0.458978921 
0.450076282 0.109603301 0.249340713 -8.68653296e-06 113 119 115 0.358095944 
-0.203168869 5.59743494e-05 -0.021137204 -0.000190618273 152 159 153 0.512029588 
-0.198017627 -0.297351688 0.0408883616 -5.26046497e-05 134 143 138 0.476729721 
0.032361351 -0.530022919 -0.0331702046 4.72253305e-07 111 119 115 0.518877685 
-0.0677307323 0.177453473 -0.0676064193 4.67859209e-05 131 138 133 0.53847599 
-0.691067159 -0.212558389 -0.143447593 -0.000102809208 85 96 92 0.581638455 
0.413707197 0.0924107879 0.24960959 1.3953053e-05 119 127 123 0.357942909 
0.374527425 0.34538722 0.18502593 3.41555569e-05 120 127 123 0.39469859 
0.178571939 0.412463427 0.0275521614 -4.1459105e-05 135 144 139 0.484319568 
-0.0702646971 0.0538642332 -0.107782796 -7.99618429e-05 141 151 145 0.561341047 
-0.759627223 -0.00373797305 -0.251247853 -0.000370203139 154 160 154 0.642989457 
-0.167872846 0.399440467 0.0463188775 3.33003118e-05 124 132 127 0.473639131 
0.284515798 0.12333259 0.227540478 1.48182153e-06 118 129 124 0.37050283 
-0.129980624 0.128761336 0.0118075199 -4.84570628e-05 114 123 118 0.493280113 
