ply
format ascii 1.0
comment created by gply, a Houdini tool.
comment converted from .[b]geo
comment for more information about Houdini, try:
comment www.sidefx.com
element vertex 631
property float x
property float y
property float z
property float depth
property uchar red
property uchar green
property uchar blue
property float length
element face 0
property list uchar int vertex_indices
end_header
-0.231253251 -0.283450663 -1.02934933 0.237117514 220 205 192 0.766782284 
-0.225259393 -0.27114445 -0.999027014 0.272778809 227 212 194 0.758922458 
-0.225518376 -0.227571756 -1.03693867 0.330913901 229 200 185 0.768749535 
-0.215669811 -0.215790913 -1.01139259 0.393068105 225 202 185 0.762127697 
-0.259545445 -0.279422045 -1.02164257 0.148397103 209 193 180 0.764784575 
-0.248867258 -0.22594215 -1.01775515 0.258240432 225 202 185 0.763776898 
-0.205501273 -0.271183044 -1.02170086 0.34656018 220 205 192 0.764799714 
-0.198479742 -0.199684963 -1.0319066 0.450351447 233 195 178 0.767445147 
-0.238297611 -0.209507868 -1.4499433 0.0290339161 190 172 168 0.875804186 
-0.229253665 -0.178942814 -1.44817209 0.0289565492 169 145 128 0.875345051 
-0.229346141 -0.189363331 -1.36556125 0.0285971742 225 205 193 0.853931546 
-0.229859456 -0.22219342 -1.41220808 0.0609767511 225 211 190 0.866022885 
-0.217376426 -0.208106399 -1.34598279 0.0872283354 225 206 195 0.848856628 
-0.232500702 -0.195984453 -1.39463341 0.0291188229 222 199 180 0.861467302 
-0.221390262 -0.168311596 -1.38593972 0.0338999778 160 132 0 0.859213829 
-0.233388036 -0.203985468 -1.26162732 0.0290783253 219 210 185 0.826990902 
-0.219986185 -0.174113601 -1.26954937 0.0286906809 214 201 178 0.829044402 
-0.23029235 -0.202348351 -1.32058227 0.0299732648 221 204 193 0.84227258 
-0.214954272 -0.1807587 -1.33443785 0.0655213371 225 202 197 0.845864058 
-0.217249915 -0.189854354 -1.24088061 0.0858877823 224 209 188 0.821613133 
-0.194772243 -0.173085362 -1.28484154 0.109312028 213 203 194 0.833008289 
-0.253787577 -0.202851892 -1.19546521 0.0289843045 226 212 195 0.809841037 
-0.209886134 -0.195073292 -1.19877172 0.171917781 226 213 192 0.810698152 
-0.242196247 -0.196601972 -1.22251523 0.0291079264 231 219 199 0.816852689 
-0.231492341 -0.16943033 -1.22644162 0.0284143016 225 212 190 0.817870438 
-0.236387268 -0.17937617 -1.19867098 0.0680395737 224 211 191 0.810672045 
-0.20978196 -0.166603535 -1.20689535 0.126306966 214 199 179 0.812803864 
-0.192449942 -0.173205853 -1.17741644 0.239421427 233 214 189 0.805162668 
-0.227027833 -0.192402437 -1.14298952 0.196402386 230 215 196 0.796238899 
-0.226940647 -0.21624431 -1.12488306 0.23243691 231 215 197 0.791545451 
-0.256236374 -0.192817241 -1.13721836 0.103217773 230 215 196 0.794742882 
-0.24219358 -0.195728555 -1.16901743 0.105175227 229 213 195 0.802985549 
-0.249988958 -0.189501747 -1.10861814 0.166363701 241 200 187 0.787329495 
-0.264974207 -0.17810294 -1.16130459 0.0291206855 228 215 195 0.80098629 
-0.238479093 -0.167417586 -1.15426838 0.125373244 226 211 193 0.799162447 
-0.220048249 -0.162602887 -1.11657393 0.247103751 232 216 193 0.789391696 
-0.262292683 -0.208628938 -1.09013903 0.150580958 234 201 189 0.782539546 
-0.227480352 -0.204721138 -1.09782875 0.266006172 234 209 192 0.784532785 
-0.254031241 -0.19299905 -1.05741692 0.218164921 236 188 170 0.774057686 
-0.267574668 -0.163684964 -1.10550177 0.0963356048 233 208 187 0.786521673 
-0.226749837 -0.184012383 -1.07205427 0.297096014 248 201 185 0.77785176 
-0.242249086 -0.167275757 -1.08948016 0.210802406 235 204 183 0.78236872 
-0.214616522 -0.157898143 -1.0876621 0.306314677 235 204 183 0.781897485 
-0.252647817 -0.221034586 -1.04726791 0.225889832 229 200 185 0.771426916 
-0.225870088 -0.200526044 -1.04692483 0.333340704 233 195 178 0.771337986 
-0.250696748 -0.198157921 -1.02790272 0.257483929 234 184 164 0.766407311 
-0.240151435 -0.203294367 -1.00066054 0.309907854 222 179 159 0.759345829 
-0.285907626 -0.158158585 -1.02280402 0.120396771 231 171 158 0.765085638 
-0.237564802 -0.173351228 -1.04111576 0.290587515 238 190 180 0.769832253 
-0.236036897 -0.173657805 -0.998106539 0.329045475 224 172 152 0.758683801 
-0.257594258 -0.155112579 -1.02911913 0.220091313 240 181 171 0.76672262 
-0.224034131 -0.188121155 -1.0199424 0.365248621 234 184 164 0.764343858 
-0.215726659 -0.129905075 -1.46702194 0.0249672681 78 71 55 0.880231142 
-0.240363285 -0.0989121497 -1.42991912 0.0287909992 73 73 67 0.870613694 
-0.230565622 -0.122810408 -1.414253 0.0288105998 74 78 66 0.866552889 
-0.217099577 -0.108372182 -1.44587231 0.0644345805 73 73 67 0.874748945 
-0.252581835 -0.0905658603 -1.40383708 0.0291265082 77 77 71 0.863853037 
-0.239034474 -0.113442972 -1.33103764 0.0298225433 105 97 0 0.844982743 
-0.216478959 -0.146101132 -1.40614951 0.0392777026 83 72 60 0.864452422 
-0.230641976 -0.133469179 -1.35051942 0.0307966676 101 89 48 0.850032568 
-0.205052674 -0.0779447705 -1.35253561 0.221086577 90 94 47 0.850555182 
-0.228270307 -0.138529465 -1.38003862 0.0247061215 88 75 69 0.857684255 
-0.2222175 -0.095330894 -1.40571272 0.119326249 76 76 70 0.864339173 
-0.222298354 -0.100877807 -1.3591547 0.122994058 89 92 67 0.852270901 
-0.242380857 -0.113572001 -1.3880955 0.0298613124 79 76 70 0.859772623 
-0.20074895 -0.143791884 -1.37302172 0.117046691 100 69 0 0.855865359 
-0.210854739 -0.148547709 -1.28992081 0.0309085678 215 199 188 0.834324837 
-0.220700771 -0.151890293 -1.32852983 0.0265537389 228 194 131 0.844332695 
-0.253233284 -0.08731848 -1.33675516 0.0287388023 88 87 56 0.846464753 
-0.22269249 -0.112005718 -1.30648911 0.0624303296 120 81 0 0.83861953 
-0.251341075 -0.0991347134 -1.36428916 0.029491609 83 82 61 0.853601813 
-0.211647272 -0.11525479 -1.33636439 0.121251039 115 89 0 0.846363485 
-0.217865631 -0.117084511 -1.27750194 0.0283250082 221 191 130 0.831105769 
-0.251494706 -0.160317019 -1.1810168 0.0289215352 212 196 179 0.806095898 
-0.235120386 -0.149576902 -1.20370328 0.0279309656 233 214 189 0.811976433 
-0.204846054 -0.115697011 -1.18547809 0.115560651 202 179 151 0.807252347 
-0.224725083 -0.0945622176 -1.18799818 0.0280727036 213 192 169 0.807905495 
-0.233510241 -0.123212114 -1.19027567 0.0287618451 211 193 170 0.808495879 
-0.220594212 -0.164671421 -1.17819762 0.139191002 228 212 193 0.805365086 
-0.242267087 -0.137644902 -1.13385415 0.127891794 225 209 191 0.793870866 
-0.2430861 -0.088265948 -1.16268039 0.0291786119 208 192 175 0.801342905 
-0.213984966 -0.144120753 -1.13922167 0.216330156 219 201 184 0.795262218 
-0.227368325 -0.0851728618 -1.1355139 0.13706927 204 181 161 0.794301093 
-0.273983985 -0.142424658 -1.1288296 0.0292251315 232 211 189 0.792568505 
-0.264016062 -0.0662918389 -1.12583506 0.0293819848 213 195 172 0.791792274 
-0.234859437 -0.139724359 -1.16570091 0.0927216783 207 190 178 0.802125871 
-0.247400448 -0.165564254 -1.12755322 0.136520505 232 216 193 0.79223758 
-0.256118745 -0.0932409465 -1.13644934 0.0501339138 209 181 160 0.794543624 
-0.262320042 -0.148821652 -1.15584934 0.0290983841 226 211 193 0.799572289 
-0.233502179 -0.113860004 -1.15110898 0.105103984 210 189 174 0.79834348 
-0.261992455 -0.120322675 -1.14598691 0.0293813292 218 191 175 0.797015846 
-0.215303361 -0.115574896 -1.12835908 0.211710632 210 189 174 0.792446494 
-0.237990275 -0.140351176 -1.08119273 0.221472844 233 198 178 0.780220568 
-0.221459523 -0.0972744897 -1.10376537 0.225863904 219 199 181 0.786071599 
-0.226519018 -0.134628654 -1.10834455 0.2218135 223 208 186 0.787258565 
-0.223645508 -0.0779169574 -1.08273816 0.229853928 215 205 182 0.780621171 
-0.252569854 -0.15926823 -1.06305063 0.203307196 246 210 190 0.775517941 
-0.268415242 -0.100118957 -1.06354606 0.0972625315 246 217 196 0.775646329 
-0.238996014 -0.0987925157 -1.05723786 0.20792155 246 217 196 0.774011195 
-0.266530246 -0.11143516 -1.09063065 0.0870192796 240 216 198 0.782666981 
-0.244191706 -0.110596597 -1.11582875 0.135648593 222 194 177 0.789198518 
-0.237536982 -0.110426947 -1.08402908 0.198858768 240 216 198 0.780955791 
-0.206885636 -0.100431785 -1.07438397 0.314298779 239 216 198 0.778455675 
-0.223458603 -0.154846996 -1.05939233 0.309950113 246 210 190 0.77456969 
-0.237273753 -0.134137794 -1.03421521 0.273467034 244 211 196 0.768043518 
-0.208215833 -0.140325397 -1.03791463 0.379232645 248 218 198 0.769002497 
-0.222431809 -0.108216323 -1.03500593 0.299868912 242 221 197 0.768248498 
-0.233548254 -0.145009011 -0.985393345 0.331278354 224 166 141 0.755388439 
-0.248548239 -0.110903487 -1.02136803 0.222173274 241 199 183 0.764713466 
-0.225355074 -0.158315465 -1.0196476 0.348886877 240 181 171 0.764267504 
-0.22921358 -0.0945324972 -1.00501096 0.286768585 235 209 188 0.76047349 
-0.253263414 -0.124426104 -1.05615091 0.183008507 248 218 198 0.773729503 
-0.265167594 -0.111432634 -0.995818019 0.180603921 232 192 169 0.758090615 
-0.223904535 -0.124437004 -1.05887175 0.284608424 248 218 198 0.774434805 
-0.238278896 -0.115712449 -0.985349298 0.290269464 229 176 156 0.755376995 
-0.252103984 -0.136158973 -1.00645494 0.243542418 230 175 162 0.760847867 
-0.223706484 -0.123763204 -1.0099951 0.334457546 231 188 173 0.76176548 
-0.244825095 -0.0558049679 -1.46043432 0.0301431231 52 52 49 0.878523529 
-0.214453444 -0.0550782233 -1.45894861 0.13082248 74 74 68 0.878138483 
-0.256405145 -0.0380486734 -1.43932211 0.0382416509 34 36 39 0.873051107 
-0.252399415 -0.069471471 -1.43429089 0.0302328505 58 58 51 0.871746898 
-0.237196594 -0.084432967 -1.45471311 0.0299156178 75 75 70 0.877040565 
-0.233855575 -0.0687838569 -1.40903568 0.122400574 74 74 68 0.86520052 
-0.229286656 -0.0504904948 -1.43467307 0.12973544 50 50 42 0.871845961 
-0.199877247 -0.0562578514 -1.43190634 0.225237623 76 76 70 0.871128857 
-0.263747275 -0.0511213019 -1.41371858 0.0341102704 43 43 34 0.866414368 
-0.263475835 -0.0720456392 -1.35977387 0.0295754299 79 77 65 0.852431357 
-0.236699641 -0.0388239697 -1.40756428 0.148883075 38 38 38 0.864819169 
-0.213346288 -0.0486984961 -1.35088551 0.235515773 82 72 76 0.850127459 
-0.251055002 -0.0477385372 -1.3705411 0.109641723 80 77 71 0.855222404 
-0.222681209 -0.0537796095 -1.37976968 0.203175604 76 73 67 0.857614517 
-0.233913958 -0.0717799664 -1.3531661 0.13128686 82 82 60 0.850718677 
-0.264765888 -0.0678165406 -1.38892412 0.0303637311 76 73 67 0.859987378 
-0.238743469 -0.0790068209 -1.38174212 0.108376242 79 77 71 0.858125806 
-0.248809844 -0.0641096979 -1.2972796 0.029649321 87 81 55 0.836232245 
-0.214342505 -0.0487522557 -1.29724288 0.160073236 83 91 0 0.836222768 
-0.260464787 -0.0367634967 -1.30840242 0.0306397751 68 74 65 0.839115441 
-0.241577029 -0.0456245057 -1.34156811 0.130167663 60 60 83 0.847712338 
-0.243187129 -0.0911307782 -1.30906522 0.030045202 109 89 15 0.839287221 
-0.260179728 -0.061888013 -1.32488322 0.0286399871 78 75 71 0.843387425 
-0.223247156 -0.0884802118 -1.33168972 0.125750899 113 97 48 0.845151782 
-0.227192461 -0.0363171212 -1.24521732 0.0291379672 205 159 0 0.822737217 
-0.236067846 -0.0630697459 -1.27075386 0.029733723 114 80 0 0.829356611 
-0.222144172 -0.07718499 -1.29341161 0.096232146 125 112 0 0.835229695 
-0.212170929 -0.0536186099 -1.22206593 0.0261852741 223 212 186 0.816736221 
-0.210569039 -0.0963318646 -1.24045813 0.0266445372 221 206 183 0.82150358 
-0.219798356 -0.0655379593 -1.18541312 0.0274673831 207 174 158 0.807235479 
-0.247404501 -0.0616519563 -1.15035641 0.0296133254 216 197 179 0.798148394 
-0.214458242 -0.0242121592 -1.14716899 0.117338434 214 194 163 0.797322214 
-0.243538156 -0.030786721 -1.14911556 0.0286770333 216 201 173 0.797826767 
-0.228347778 -0.0492357053 -1.13338745 0.121277072 217 197 170 0.793749928 
-0.218298256 -0.0643808246 -1.15550244 0.102067418 214 199 182 0.799482346 
-0.226921633 -0.0690055639 -1.11036253 0.184162736 213 195 172 0.787781656 
-0.228378892 -0.0267867595 -1.07136011 0.192270264 225 213 194 0.777671874 
-0.25203523 -0.0349985398 -1.05335414 0.110398062 225 215 194 0.773004591 
-0.214450613 -0.0491763912 -1.08607984 0.248280451 213 200 179 0.781487346 
-0.243190899 -0.0480556153 -1.09661996 0.131594539 213 200 179 0.784219384 
-0.252271861 -0.0846240893 -1.08595252 0.125269249 225 212 190 0.781454325 
-0.238465488 -0.0554885939 -1.06764185 0.169073105 216 204 182 0.776708007 
-0.212489903 -0.0467348956 -1.05495071 0.266734391 225 215 194 0.773418427 
-0.261770308 -0.0638671592 -1.02746046 0.116507366 238 215 193 0.766292632 
-0.235134438 -0.0540915653 -1.0373683 0.195519298 227 220 198 0.768860817 
-0.255616903 -0.0737663582 -1.05526912 0.125980616 244 222 199 0.77350086 
-0.257879317 -0.084583886 -1.00768733 0.17030628 235 209 188 0.761167288 
-0.22105597 -0.0750966594 -1.05263293 0.256159544 233 216 193 0.772817552 
-0.230134323 -0.0653168559 -1.00997984 0.245755345 232 211 195 0.761761487 
-0.239404827 -0.0835381895 -1.03120542 0.215134203 238 215 193 0.767263412 
-0.208083555 -0.0627472997 -1.02998126 0.308107108 227 220 198 0.766946077 
-0.160224661 -0.415282756 -1.46953666 0.0293797366 194 185 173 0.880882978 
-0.145661578 -0.388638228 -1.42561114 0.156494886 209 197 189 0.869497061 
-0.151001528 -0.416909426 -1.43851447 0.0648436546 202 195 183 0.872841656 
-0.182948709 -0.400406122 -1.35219526 0.0298612174 220 202 180 0.850466967 
-0.147377566 -0.435944378 -1.35996282 0.0293491092 217 213 204 0.852480352 
-0.164974362 -0.377691418 -1.38049984 0.133622125 186 158 115 0.857803762 
-0.160520852 -0.410568714 -1.3688345 0.0665871873 215 204 196 0.854780018 
-0.160786495 -0.4234671 -1.39579642 0.0290896799 211 206 195 0.861768842 
-0.196433991 -0.384808511 -1.30482888 0.0288599208 214 194 170 0.838189125 
-0.131358385 -0.410890907 -1.30143273 0.131997466 213 212 201 0.837308824 
-0.164177105 -0.420265287 -1.34077871 0.0288537182 219 216 203 0.847507715 
-0.169111907 -0.410338134 -1.29668474 0.0394442305 214 208 191 0.836078107 
-0.181244642 -0.402747333 -1.32311249 0.0291300938 209 208 195 0.84292841 
-0.184831351 -0.400199145 -1.2496835 0.0280735679 220 211 198 0.823894978 
-0.158253714 -0.375382304 -1.23496902 0.171760738 222 208 193 0.820080757 
-0.161837175 -0.386949331 -1.26250648 0.125570431 215 208 192 0.827218771 
-0.16607739 -0.416494578 -1.2676363 0.0280141626 221 216 209 0.828548431 
-0.149099886 -0.430571318 -1.28760016 0.0290507451 213 212 201 0.833723247 
-0.1949642 -0.396942586 -1.19523251 0.0289593805 221 209 194 0.809780717 
-0.154759735 -0.429812789 -1.22434545 0.0289139785 223 214 204 0.817327082 
-0.166073456 -0.391777545 -1.18943954 0.123173997 224 212 196 0.808279097 
-0.172892094 -0.416959107 -1.2041018 0.028872747 227 214 198 0.812079787 
-0.180830985 -0.41420117 -1.17566466 0.0290212743 224 212 197 0.80470854 
-0.139332384 -0.439420104 -1.24806452 0.0290818624 199 200 197 0.823475301 
-0.163757101 -0.43096 -1.15937769 0.0288678836 222 213 200 0.800486863 
-0.180117756 -0.391077459 -1.13854516 0.113017708 222 203 188 0.795086861 
-0.142344519 -0.448174655 -1.14594078 0.0292051546 192 184 181 0.797003806 
-0.139425144 -0.398975611 -1.13994849 0.190989822 205 200 190 0.795450568 
-0.213147432 -0.380010724 -1.17929888 0.0295956209 220 199 181 0.805650592 
-0.196482003 -0.409211755 -1.11520231 0.0291538108 223 203 188 0.789036155 
-0.156391367 -0.441428423 -1.11976314 0.0292346552 197 188 177 0.790218413 
-0.151669621 -0.417320073 -1.18305635 0.0895659775 227 217 204 0.806624532 
-0.170317531 -0.385560364 -1.1115253 0.165460601 218 202 190 0.788083017 
-0.180406153 -0.420610726 -1.13739514 0.0287382025 216 203 189 0.794788778 
-0.133376405 -0.425544918 -1.12861919 0.12552613 192 184 177 0.792513907 
-0.199249297 -0.380328715 -1.10703421 0.10117425 230 200 185 0.786918879 
-0.133162066 -0.402042836 -1.10727596 0.208597869 198 187 177 0.786981583 
-0.202719912 -0.395658821 -1.05802572 0.0631305873 236 217 202 0.7742154 
-0.169152051 -0.436932623 -1.07728267 0.0294205118 214 201 188 0.779207051 
-0.173989743 -0.391496867 -1.06423688 0.151592299 225 210 197 0.775825441 
-0.17724596 -0.427524835 -1.10438025 0.0290652998 211 198 187 0.786230922 
-0.158806548 -0.411049664 -1.12015009 0.116461359 212 200 189 0.790318668 
-0.187206656 -0.413052648 -1.07975793 0.0542971566 223 209 196 0.779848635 
-0.141384929 -0.438833326 -1.06962323 0.0856101215 210 206 196 0.77722162 
-0.190060183 -0.374356389 -1.04198825 0.156242549 224 201 182 0.770058393 
-0.15908055 -0.444038153 -1.04566789 0.0295603741 219 208 194 0.771012187 
-0.171924308 -0.396474689 -1.03466809 0.139345407 235 213 195 0.768160939 
-0.227333575 -0.382134259 -1.03710878 0.0294606686 218 199 188 0.768793523 
-0.173875153 -0.430240601 -1.02405274 0.0291600097 227 209 192 0.765409291 
-0.159980774 -0.40314278 -1.00901437 0.130874097 232 213 194 0.761511207 
-0.196367547 -0.413413495 -1.03621006 0.0290094744 235 213 195 0.768560588 
-0.173333958 -0.420103669 -1.05409813 0.0703126192 213 198 185 0.773197353 
-0.166057274 -0.427777678 -0.995193839 0.0299411826 231 217 197 0.757928789 
-0.190839604 -0.412482411 -1.00653279 0.0290741846 228 209 189 0.760868013 
-0.148078695 -0.420036793 -1.03126812 0.122483194 220 207 190 0.767279625 
-0.20609127 -0.35615918 -1.44923711 0.0293276254 213 213 203 0.87562114 
-0.165084466 -0.336751461 -1.46584284 0.195382833 207 201 179 0.879925489 
-0.19056417 -0.331174433 -1.45288324 0.127753705 214 216 208 0.876566231 
-0.187233597 -0.345934838 -1.42785954 0.117440827 207 210 204 0.870079875 
-0.186454609 -0.386504084 -1.44630885 0.0289551578 180 180 177 0.874862075 
-0.197651953 -0.373457104 -1.4230293 0.0287394021 170 171 161 0.86882782 
-0.176386312 -0.3594338 -1.45271409 0.117606454 211 211 198 0.876522422 
-0.176721931 -0.395231456 -1.41853452 0.0504633673 173 154 114 0.867662787 
-0.166474849 -0.368029535 -1.42525494 0.14032872 145 139 132 0.869404733 
-0.158091351 -0.391491711 -1.45202351 0.1019134 198 184 169 0.876343369 
-0.193637103 -0.335615277 -1.39377272 0.121391155 196 198 189 0.861244261 
-0.150488392 -0.364927441 -1.35872817 0.211748958 215 196 162 0.852160335 
-0.134484872 -0.342353582 -1.3890053 0.306216568 141 131 109 0.860008478 
-0.158293024 -0.338455349 -1.37182426 0.240815371 183 179 170 0.855554938 
-0.188932985 -0.328094572 -1.36393213 0.155302405 210 211 202 0.853509247 
-0.170514256 -0.35263294 -1.39960086 0.16512464 156 154 141 0.862754941 
-0.198265612 -0.378994435 -1.36646533 0.0277854167 156 134 109 0.854165852 
-0.182360858 -0.355571747 -1.37258112 0.128065363 183 179 170 0.855751157 
-0.190466344 -0.374328464 -1.39441347 0.0574618317 141 131 109 0.86141032 
-0.180431172 -0.401637673 -1.38961172 0.0291632265 219 197 179 0.860165656 
-0.202200204 -0.336877674 -1.29753053 0.110794954 194 192 186 0.836297393 
-0.155739382 -0.354871154 -1.3006916 0.223600283 203 196 186 0.837116718 
-0.187312797 -0.357629031 -1.31280422 0.11875581 208 186 165 0.840256453 
-0.164737493 -0.344043851 -1.34249353 0.214834541 164 148 123 0.847952187 
-0.202634647 -0.375210226 -1.3327024 0.0288941916 212 186 141 0.845414221 
-0.165257826 -0.375201464 -1.32061803 0.145473719 212 201 176 0.842281818 
-0.176819265 -0.370758414 -1.34717834 0.118798852 213 189 133 0.849166512 
-0.197569311 -0.345030427 -1.24330866 0.127013803 203 183 170 0.822242498 
-0.168622747 -0.347993791 -1.24695373 0.212545693 212 196 175 0.823187351 
-0.183743134 -0.358426392 -1.28130746 0.132238179 203 199 187 0.832092166 
-0.149374604 -0.36373651 -1.27246892 0.221509069 215 208 192 0.829801142 
-0.213870779 -0.364526927 -1.2600714 0.0292021688 188 171 157 0.826587617 
-0.185578868 -0.370447993 -1.25315917 0.105410226 195 180 162 0.824795842 
-0.194407284 -0.388311058 -1.27587831 0.0288667735 199 197 186 0.8306849 
-0.166939765 -0.381047457 -1.29106927 0.124741904 205 196 183 0.834622502 
-0.189351395 -0.342041403 -1.20410323 0.17595768 212 195 181 0.812080085 
-0.16855298 -0.348684311 -1.17975962 0.235373095 215 203 186 0.80577004 
-0.212328866 -0.333526164 -1.21949458 0.107491739 200 190 176 0.816069663 
-0.166673005 -0.329817176 -1.21915257 0.267051041 203 192 181 0.81598109 
-0.186086312 -0.369901359 -1.19230771 0.125069559 215 203 186 0.809022605 
-0.182286575 -0.394002408 -1.22158694 0.0612944737 222 208 193 0.816612065 
-0.191917762 -0.366314024 -1.22232652 0.104273364 211 198 183 0.816803753 
-0.2005146 -0.398281723 -1.15959668 0.0295458883 226 200 187 0.800543547 
-0.164769232 -0.35901168 -1.21085453 0.205506012 224 211 196 0.813830137 
-0.151595205 -0.372151434 -1.1724788 0.224814579 220 208 192 0.803882718 
-0.183793172 -0.348339945 -1.15417469 0.205024078 227 207 188 0.799138129 
-0.154722661 -0.349890649 -1.15108681 0.288138688 226 200 187 0.798337698 
-0.18875353 -0.364741117 -1.12913001 0.161507457 226 199 185 0.792646408 
-0.206504226 -0.36941281 -1.15297866 0.0876432806 228 198 184 0.798828125 
-0.179997191 -0.375846475 -1.16443503 0.142851025 223 204 189 0.801797748 
-0.211834863 -0.390521944 -1.1331079 0.0283070896 226 199 185 0.793677509 
-0.155466869 -0.3745974 -1.13405585 0.2252222 216 203 189 0.793923199 
-0.194091886 -0.311752111 -1.10256362 0.276285291 232 210 195 0.785760045 
-0.165307298 -0.352430791 -1.1159513 0.266069174 230 200 185 0.789230347 
-0.194355071 -0.340523154 -1.06835616 0.225801915 228 185 172 0.776893198 
-0.169539914 -0.358427882 -1.05889654 0.254537642 234 209 189 0.774441183 
-0.189740434 -0.354262799 -1.09812284 0.196939468 237 202 187 0.78460902 
-0.166834652 -0.371907413 -1.08448577 0.221300334 225 210 196 0.781074107 
-0.193285257 -0.370416135 -1.07105076 0.154907405 238 213 195 0.777591646 
-0.15948908 -0.401097894 -1.08811104 0.156854376 216 203 190 0.782013834 
-0.187754899 -0.344320327 -1.03910804 0.23995693 218 199 188 0.769311786 
-0.149779215 -0.34127 -1.02979815 0.349580884 227 210 190 0.766898572 
-0.205799058 -0.359538615 -1.02073801 0.143198743 214 197 184 0.764550149 
-0.173411638 -0.34964186 -1.01290667 0.254159123 222 204 186 0.762520194 
-0.214045972 -0.357436925 -1.05329788 0.128719136 227 197 183 0.772989929 
-0.22335951 -0.371641725 -0.978038371 0.029408088 217 207 197 0.753481984 
-0.158358201 -0.373861432 -1.00345492 0.215849236 230 214 192 0.760070145 
-0.203694448 -0.389847189 -1.02069306 0.0692238584 227 210 190 0.764538407 
-0.161688834 -0.369435906 -1.03212583 0.241104037 235 213 195 0.767501891 
-0.184095189 -0.288586289 -1.46413362 0.217013836 228 224 215 0.879482448 
-0.154380009 -0.294027656 -1.46417558 0.314272434 219 207 196 0.879493296 
-0.217096567 -0.277815819 -1.41862798 0.105472825 228 224 214 0.867686987 
-0.176447853 -0.307694346 -1.44210637 0.218712121 211 214 208 0.8737728 
-0.202207372 -0.312089801 -1.47287607 0.11702656 219 207 196 0.881748557 
-0.204679012 -0.302420914 -1.41134322 0.130473346 217 214 205 0.865798652 
-0.159585983 -0.339339375 -1.43529403 0.219353288 207 210 204 0.872006953 
-0.181631729 -0.321252912 -1.41591489 0.183554336 197 198 190 0.866983712 
-0.146826684 -0.31322822 -1.44254267 0.311243176 213 213 203 0.87388587 
-0.183649331 -0.290390104 -1.39354312 0.223476231 220 219 212 0.861184716 
-0.182382658 -0.306755781 -1.34404492 0.210922256 224 225 216 0.84835434 
-0.16055049 -0.30017516 -1.41038692 0.292013049 197 199 190 0.865550756 
-0.171801686 -0.272122443 -1.35179675 0.277289152 231 226 216 0.850363612 
-0.235520512 -0.282770991 -1.35741043 0.0296273157 234 229 220 0.85181874 
-0.164230525 -0.294947535 -1.3690033 0.290920973 223 224 218 0.854823768 
-0.203127801 -0.310572892 -1.38222718 0.128825411 218 218 215 0.858251512 
-0.155257851 -0.316840053 -1.35093462 0.294608265 212 214 205 0.850140214 
-0.224202871 -0.326742649 -1.39726126 0.0287060849 208 209 199 0.862148464 
-0.171721771 -0.317625105 -1.38730752 0.229612797 201 202 192 0.859568417 
-0.193078533 -0.30969733 -1.3164984 0.173933223 209 211 200 0.841214001 
-0.16269736 -0.294501066 -1.29649961 0.306790262 206 201 192 0.836030126 
-0.209883034 -0.285391599 -1.31270981 0.130457014 218 217 209 0.840231955 
-0.161915854 -0.306738168 -1.32390618 0.289398372 215 216 206 0.843134165 
-0.227162838 -0.326575756 -1.30989516 0.031544935 206 204 196 0.839502394 
-0.171603635 -0.333992273 -1.31520545 0.21650362 185 168 153 0.840878904 
-0.193331137 -0.333039254 -1.33438599 0.137578845 210 212 203 0.845850646 
-0.143493369 -0.330135167 -1.32562268 0.314467818 183 157 115 0.843579113 
-0.209369883 -0.309135467 -1.26065147 0.135987908 205 196 189 0.82673794 
-0.16183418 -0.283778518 -1.2551496 0.335464805 217 209 199 0.82531184 
-0.207271829 -0.277441472 -1.27027094 0.158195928 220 212 201 0.829231381 
-0.156770915 -0.308596432 -1.27124488 0.321852982 187 181 175 0.829483867 
-0.193049312 -0.332555234 -1.26884103 0.158183545 187 182 176 0.82886076 
-0.146810547 -0.327148199 -1.25072336 0.325502604 200 184 168 0.82416445 
-0.17905885 -0.318003356 -1.29113984 0.222241104 206 207 199 0.834640801 
-0.163875714 -0.337072164 -1.27435338 0.24395074 203 199 187 0.830289602 
-0.147410929 -0.275006145 -1.20168698 0.426514626 221 220 209 0.811453819 
-0.211845815 -0.305843383 -1.23161423 0.142282367 216 215 206 0.819211245 
-0.194934711 -0.284719348 -1.21876955 0.231634244 226 221 208 0.815881789 
-0.190997258 -0.313494772 -1.21098518 0.218627363 196 198 192 0.813863993 
-0.16470471 -0.300685138 -1.2054857 0.33320421 196 198 192 0.812438488 
-0.181199774 -0.321409613 -1.24393094 0.225234613 177 174 170 0.822403789 
-0.181286767 -0.322274178 -1.18477809 0.251675189 200 185 170 0.807070851 
-0.138218716 -0.320581079 -1.21831286 0.376265466 211 198 183 0.815763354 
-0.157253847 -0.29863134 -1.14621592 0.400507629 226 210 193 0.797075212 
-0.198632017 -0.297448784 -1.18390024 0.233183369 217 218 208 0.80684334 
-0.180763423 -0.308415294 -1.12898183 0.314554393 234 211 197 0.792607903 
-0.162803695 -0.300438374 -1.17614865 0.359030008 211 198 181 0.804834008 
-0.155037746 -0.298997551 -1.11642611 0.42254439 234 211 197 0.789353371 
-0.201913625 -0.323914438 -1.1628468 0.194940269 226 210 193 0.801386058 
-0.167810142 -0.32455793 -1.15761435 0.305559337 229 212 192 0.800029755 
-0.189335957 -0.33542484 -1.12137961 0.23400183 236 201 187 0.790637374 
-0.153776482 -0.327819675 -1.1315341 0.354851514 231 195 182 0.793269575 
-0.209359154 -0.288758844 -1.11464036 0.262728512 220 212 199 0.788890541 
-0.149713621 -0.318026155 -1.0818007 0.409772515 241 204 186 0.780378163 
-0.208353803 -0.314487487 -1.07182145 0.239946127 228 205 190 0.777791381 
-0.167098567 -0.290170759 -1.0837096 0.4176175 229 208 191 0.780872941 
-0.213385418 -0.336568862 -1.10318875 0.163762853 232 210 195 0.78592211 
-0.16767922 -0.323851377 -1.10590637 0.332912296 233 196 182 0.786626577 
-0.179637149 -0.315473527 -1.07685113 0.325584799 231 189 178 0.779095173 
-0.167912319 -0.342832655 -1.08211124 0.295324504 241 204 186 0.780458629 
-0.182965115 -0.292778164 -1.05868959 0.371299565 223 206 192 0.774387538 
-0.157375827 -0.313559771 -1.03025627 0.402644843 214 197 184 0.767017305 
-0.210910857 -0.304939091 -1.02470791 0.260098904 200 202 194 0.765579104 
-0.18188177 -0.297249883 -1.02575898 0.367701441 201 194 185 0.765851557 
-0.194065675 -0.316829175 -1.04562664 0.286905646 218 191 177 0.771001518 
-0.21430847 -0.321664482 -0.999859869 0.197725222 199 198 188 0.759138346 
-0.164886549 -0.329310089 -1.05435562 0.343279153 227 197 183 0.77326411 
-0.1873492 -0.315224141 -0.988062441 0.277682811 225 220 209 0.756080329 
-0.189417422 -0.325229317 -1.01733887 0.273494542 209 194 183 0.763669014 
-0.16300796 -0.323899746 -1.00348043 0.339704216 213 199 188 0.760076821 
-0.192866355 -0.237142757 -1.45224452 0.212133199 220 202 186 0.87640065 
-0.149948716 -0.2584728 -1.4281075 0.371712118 230 225 214 0.870144129 
-0.178986356 -0.218115851 -1.43507242 0.256364048 194 181 175 0.871949494 
-0.155043423 -0.229564801 -1.42048144 0.350750983 226 212 192 0.8681674 
-0.193037942 -0.261804551 -1.47019291 0.207446396 220 212 205 0.88105303 
-0.187277168 -0.284051299 -1.42712271 0.212850556 220 216 204 0.869888902 
-0.185237184 -0.211182818 -1.48224676 0.232789084 140 151 147 0.884177566 
-0.200721905 -0.227674574 -1.40784979 0.174129725 225 211 190 0.864893138 
-0.175434262 -0.264853865 -1.44693959 0.272874445 231 226 213 0.87502563 
-0.169320285 -0.268882513 -1.40828419 0.291729808 228 223 214 0.865005732 
-0.156900227 -0.238070771 -1.4495765 0.350592554 220 202 186 0.875709116 
-0.17469193 -0.212688565 -1.40546191 0.261727959 210 193 173 0.864274144 
-0.184220165 -0.246287838 -1.42581356 0.242342293 230 224 207 0.869549513 
-0.195938975 -0.198975399 -1.44967282 0.176953018 195 176 166 0.875734031 
-0.157014087 -0.285541207 -1.43524265 0.322392076 217 216 203 0.871993661 
-0.164393574 -0.212303177 -1.4603852 0.311209798 167 164 164 0.878510833 
-0.198391706 -0.261400342 -1.4034375 0.18234244 228 223 214 0.863749444 
-0.148349449 -0.250109553 -1.3999933 0.375413954 230 225 212 0.862856686 
-0.172282651 -0.239586577 -1.36717856 0.278462261 231 220 205 0.854350805 
-0.199572906 -0.238715693 -1.37940526 0.174395576 232 222 207 0.857520044 
-0.210241288 -0.282304317 -1.34157503 0.126082033 231 227 218 0.847714067 
-0.194968686 -0.226368412 -1.3540231 0.184689656 227 214 200 0.850940764 
-0.193072528 -0.288296878 -1.36558568 0.187265337 230 228 222 0.853937924 
-0.175716832 -0.241381422 -1.3974067 0.270105988 230 225 212 0.862186193 
-0.180726752 -0.265405476 -1.37941492 0.246073574 232 226 218 0.857522547 
-0.181235015 -0.213830635 -1.377267 0.231989413 230 215 201 0.85696578 
-0.149674833 -0.272112519 -1.38017392 0.36235404 232 226 218 0.857719302 
-0.155208409 -0.224978223 -1.38612354 0.340672284 230 216 203 0.859261513 
-0.203885198 -0.251979113 -1.3134619 0.155790672 218 212 197 0.840426862 
-0.174392566 -0.256799012 -1.31594729 0.269613683 215 215 207 0.841071129 
-0.190816075 -0.252129287 -1.340168 0.206141487 223 216 201 0.847349405 
-0.161296487 -0.245942697 -1.34003782 0.318772882 223 216 201 0.847315669 
-0.221987993 -0.266609311 -1.2928592 0.0932449847 211 205 198 0.835086524 
-0.197266072 -0.21594356 -1.29597342 0.164336726 208 198 184 0.83589375 
-0.189322218 -0.273318976 -1.29543352 0.217085913 214 209 201 0.835753739 
-0.173847899 -0.228036061 -1.30928087 0.262491375 212 198 185 0.839343131 
-0.184676453 -0.283105105 -1.32659733 0.224782854 224 222 214 0.843831718 
-0.171719119 -0.218060568 -1.33671272 0.265797228 222 204 193 0.846453786 
-0.154872432 -0.277814388 -1.32575905 0.341022164 224 222 214 0.843614459 
-0.145437777 -0.225511849 -1.32510567 0.368732512 221 204 193 0.843445063 
-0.170488477 -0.253979921 -1.24246264 0.31331411 214 213 200 0.822023273 
-0.159851581 -0.229050726 -1.2567755 0.327503622 214 208 193 0.825733244 
-0.199997798 -0.248022258 -1.28421676 0.177280203 207 204 190 0.832846344 
-0.171829298 -0.239621326 -1.28141487 0.28172645 206 202 188 0.832120061 
-0.189237475 -0.292442173 -1.24575377 0.231397063 216 211 202 0.822876334 
-0.194338858 -0.23370862 -1.25811553 0.202525377 210 206 195 0.826080561 
-0.182390019 -0.294111669 -1.27526057 0.241866171 203 195 188 0.830524802 
-0.178514212 -0.2125431 -1.27236271 0.231889352 211 201 182 0.829773605 
-0.180375695 -0.264339298 -1.26843131 0.263076901 216 208 197 0.828754544 
-0.217522487 -0.225422293 -1.27524281 0.101187289 206 202 188 0.830520153 
-0.160651907 -0.266069055 -1.29076898 0.329286337 211 208 200 0.834544659 
-0.148075476 -0.241188332 -1.30082977 0.36944145 205 199 182 0.837152541 
-0.189067334 -0.249197364 -1.18731654 0.289631993 223 219 197 0.807728827 
-0.158451781 -0.248725399 -1.18971765 0.400100768 223 219 197 0.808351219 
-0.187223613 -0.25520429 -1.21700668 0.269033402 222 219 199 0.81542486 
-0.152952895 -0.251273721 -1.21974325 0.395201474 220 216 203 0.816134155 
-0.206903413 -0.270993859 -1.19528282 0.212425008 233 219 206 0.80979383 
-0.210914314 -0.237387061 -1.20387554 0.18903169 223 219 197 0.812021136 
-0.176845297 -0.274893403 -1.19686973 0.321463317 231 224 211 0.810205162 
-0.175433546 -0.229733214 -1.20581722 0.314889759 224 213 203 0.812524378 
-0.19795756 -0.264966756 -1.24315012 0.211293504 222 216 200 0.822201431 
-0.21561721 -0.271369457 -1.16684341 0.209275037 240 228 213 0.802422047 
-0.17908904 -0.226542905 -1.23350871 0.271585524 221 213 195 0.819702327 
-0.194627568 -0.220121473 -1.18645942 0.259803027 220 209 195 0.80750668 
-0.166660592 -0.277878106 -1.2252264 0.33745724 225 220 208 0.817555428 
-0.15640083 -0.271841645 -1.17365408 0.419388175 231 224 211 0.804187417 
-0.149346188 -0.225362226 -1.22875726 0.381182045 227 217 185 0.818470657 
-0.138693139 -0.228975952 -1.18095553 0.473646581 220 209 195 0.806079984 
-0.198879361 -0.253660023 -1.14888453 0.298059046 238 224 206 0.797766864 
-0.173304141 -0.234815761 -1.13653195 0.4105151 237 216 200 0.794564962 
-0.213576689 -0.24181743 -1.17215645 0.216116458 225 214 193 0.803799212 
-0.207822159 -0.258771986 -1.12096941 0.295939296 226 212 196 0.790531039 
-0.17139636 -0.247056589 -1.16339946 0.381191313 225 214 193 0.801529288 
-0.177401364 -0.25797236 -1.12180245 0.405945361 233 222 207 0.790746987 
-0.185764045 -0.299331665 -1.15657663 0.296473563 220 213 193 0.799760759 
-0.192425638 -0.227081031 -1.15744722 0.310958982 218 202 184 0.799986482 
-0.185909286 -0.272857368 -1.16862094 0.315159231 240 228 213 0.802882791 
-0.182878673 -0.199478537 -1.16787446 0.315800428 229 215 200 0.802689254 
-0.192182958 -0.280061543 -1.1363163 0.318879157 229 223 212 0.794509113 
-0.200980037 -0.230965063 -1.12897587 0.321099937 232 216 197 0.792606354 
-0.149654582 -0.250710756 -1.12875915 0.502928197 238 224 206 0.792550206 
-0.148664579 -0.221010298 -1.12487066 0.511995912 230 211 194 0.791542292 
-0.191755712 -0.254179746 -1.09539962 0.383934438 218 207 193 0.783903062 
-0.163358033 -0.2500934 -1.08729219 0.497510701 214 206 196 0.781801581 
-0.210641339 -0.257146448 -1.06708157 0.333829224 221 205 194 0.77656281 
-0.182530478 -0.265260488 -1.07109129 0.418777436 208 195 183 0.777602136 
-0.18077454 -0.285882264 -1.10916746 0.368181676 222 210 194 0.78747189 
-0.200473502 -0.215389088 -1.10335791 0.356852055 231 208 191 0.785966039 
-0.15456897 -0.270667374 -1.10712957 0.484756231 218 208 196 0.786943674 
-0.175892279 -0.231622696 -1.10749602 0.441004574 229 213 195 0.787038624 
-0.196417511 -0.287926108 -1.08477414 0.324995071 221 209 194 0.781148851 
-0.188002363 -0.234507337 -1.07557976 0.432013214 222 206 190 0.778765619 
-0.153011069 -0.27001062 -1.06732607 0.512247503 228 205 190 0.77662617 
-0.162937164 -0.236789688 -1.05964303 0.535085261 226 207 196 0.7746346 
-0.199797466 -0.241436988 -1.04400015 0.407551467 225 207 194 0.770579875 
-0.155414328 -0.25727731 -1.04001784 0.538082898 215 203 191 0.769547641 
-0.192326486 -0.233678773 -1.00914264 0.456472635 235 220 203 0.761544466 
-0.16627121 -0.249212056 -1.00020242 0.506108999 229 215 210 0.759227157 
-0.209108472 -0.281249344 -1.04942214 0.31041345 211 196 183 0.771985352 
-0.188369483 -0.269264519 -0.997166157 0.393075258 229 215 210 0.758440077 
-0.200190082 -0.194096908 -1.06133866 0.409616917 237 197 184 0.775074184 
-0.214928418 -0.220160812 -0.982522726 0.386533469 240 230 209 0.754644394 
-0.159805179 -0.287236631 -1.0422225 0.460827738 210 194 182 0.770119131 
-0.159354642 -0.208337545 -1.03355169 0.590616584 229 200 185 0.767871499 
-0.181338012 -0.230437875 -0.981698811 0.47928673 236 224 205 0.754430771 
-0.184035018 -0.266562372 -1.04089844 0.425456673 213 201 186 0.769775927 
-0.166932851 -0.27331084 -1.01853454 0.465531856 199 198 188 0.763978958 
-0.172810793 -0.236125112 -1.03196394 0.51779747 223 208 194 0.767460048 
-0.176382393 -0.185753778 -1.46862316 0.230576769 91 84 71 0.880646229 
-0.231220067 -0.196051404 -1.42390966 0.0391566157 199 187 176 0.869055986 
-0.158809587 -0.197469205 -1.42637289 0.297864348 127 103 38 0.869694471 
-0.202136353 -0.168641269 -1.45271766 0.106882885 81 70 57 0.876523316 
-0.21281971 -0.17522417 -1.41393161 0.0724025667 171 141 91 0.866469622 
-0.175290495 -0.158914715 -1.45747578 0.19200848 73 74 66 0.877756655 
-0.167287678 -0.157284304 -1.41958964 0.220985904 82 73 49 0.867936194 
-0.182231292 -0.179611862 -1.43411922 0.188080877 85 75 27 0.871702433 
-0.153535351 -0.172522455 -1.44164407 0.283505261 81 74 53 0.873652995 
-0.198027924 -0.20030722 -1.41993761 0.164557368 209 182 163 0.868026435 
-0.188236624 -0.196612701 -1.35358012 0.185508832 221 202 203 0.850825906 
-0.150315493 -0.19703345 -1.3944391 0.32755807 210 181 139 0.861416996 
-0.151661307 -0.215291455 -1.35766363 0.340933114 223 204 192 0.851884425 
-0.197389722 -0.172813654 -1.36801779 0.128965899 210 187 116 0.854568362 
-0.171683222 -0.185794681 -1.37583876 0.237330377 207 180 128 0.856595576 
-0.222757012 -0.161919802 -1.35692191 0.0268700775 218 186 111 0.8516922 
-0.149920285 -0.167623982 -1.36523032 0.307826132 174 146 0 0.853845775 
-0.199493453 -0.190195113 -1.39224291 0.14160116 210 181 139 0.860847712 
-0.174290717 -0.182492867 -1.40508866 0.221164256 120 93 0 0.864177465 
-0.157823145 -0.199311927 -1.31829476 0.287678957 221 205 187 0.841679633 
-0.199450225 -0.224278048 -1.32406783 0.163572058 216 205 191 0.843176067 
-0.18668665 -0.195670336 -1.32390153 0.181316718 220 204 194 0.843132973 
-0.20792833 -0.189218521 -1.30522716 0.0890910849 220 203 186 0.83829242 
-0.169455647 -0.172841504 -1.31592238 0.212569445 223 208 190 0.841064692 
-0.187578559 -0.170096993 -1.34014487 0.158211038 240 209 177 0.847343445 
-0.16112566 -0.186957747 -1.34534895 0.273191959 243 210 170 0.848692358 
-0.191672653 -0.20397611 -1.24675655 0.188400984 207 191 170 0.82313627 
-0.162778601 -0.200937897 -1.24129891 0.287047446 209 193 173 0.821721554 
-0.205348805 -0.19821468 -1.27292097 0.115855776 211 201 182 0.829918325 
-0.176607504 -0.193830714 -1.29583585 0.205898687 216 207 188 0.835858047 
-0.195113674 -0.17488943 -1.25390816 0.124888018 216 202 185 0.824990034 
-0.170985445 -0.166061521 -1.26969326 0.187599063 212 204 196 0.829081655 
-0.177000165 -0.151250452 -1.29436874 0.162225574 211 197 193 0.835477769 
-0.152255863 -0.174489424 -1.29267478 0.268526137 210 201 195 0.835038722 
-0.181301922 -0.201372713 -1.20388663 0.268953532 226 213 192 0.812023938 
-0.152077153 -0.211677641 -1.20158422 0.384247124 224 209 188 0.811427176 
-0.202029005 -0.21387209 -1.22033358 0.190210879 231 219 199 0.81628716 
-0.159238175 -0.183409408 -1.21525693 0.299565792 217 205 183 0.814971268 
-0.193143517 -0.183886588 -1.22499728 0.17795825 216 199 179 0.817496061 
-0.181884944 -0.166101038 -1.20399749 0.218034387 211 195 181 0.812052727 
-0.168429315 -0.171908721 -1.24021327 0.221203104 217 206 187 0.82144022 
-0.137026638 -0.170855433 -1.17251635 0.418429017 191 173 158 0.803892553 
-0.199961796 -0.201931357 -1.14259279 0.296325624 229 213 195 0.796136081 
-0.16701822 -0.20599018 -1.14418375 0.411500275 229 213 195 0.796548486 
-0.212290764 -0.19322373 -1.16862118 0.208453 231 215 197 0.802882791 
-0.182568818 -0.19876489 -1.11963952 0.39081952 230 215 196 0.790186346 
-0.165571332 -0.184759542 -1.18505752 0.328638941 214 199 179 0.807143271 
-0.160127595 -0.20761697 -1.10110915 0.501596153 230 215 196 0.785383046 
-0.208446726 -0.171248317 -1.14972913 0.236788571 212 196 179 0.797985852 
-0.180087879 -0.179747745 -1.14463663 0.346346289 212 196 179 0.796665847 
-0.190673679 -0.169769585 -1.11854851 0.349042982 226 211 193 0.789903522 
-0.155794159 -0.184770316 -1.12047029 0.474531859 212 196 179 0.790401638 
-0.202942252 -0.185445055 -1.08976519 0.35796088 233 208 187 0.782442629 
-0.159173936 -0.207833737 -1.0630554 0.559782028 234 201 189 0.775519192 
-0.182758152 -0.205686301 -1.08166015 0.449196815 234 209 192 0.780341685 
-0.183430567 -0.169646546 -1.06799769 0.450846106 235 204 183 0.776800275 
-0.211388081 -0.191354051 -1.11804891 0.289726734 231 214 192 0.789774001 
-0.174183652 -0.181000337 -1.09663391 0.447819293 230 217 198 0.78422302 
-0.155767635 -0.180294409 -1.07404518 0.545068324 233 208 187 0.778367877 
-0.184361041 -0.216453895 -1.05107784 0.478207201 230 206 189 0.772414446 
-0.142666444 -0.188328624 -1.04726529 0.634157956 248 201 185 0.77142626 
-0.188977718 -0.204321623 -1.00370753 0.503662765 222 179 159 0.760135651 
-0.164282203 -0.221087769 -1.00673747 0.572943866 235 220 203 0.760921061 
-0.208121389 -0.172659352 -1.04205334 0.396603733 238 190 180 0.770075321 
-0.209352553 -0.162976682 -0.987736881 0.432113767 224 168 147 0.75599587 
-0.174950302 -0.187804893 -1.0453707 0.519665956 248 201 185 0.770935178 
-0.162176773 -0.160308897 -0.972175658 0.616454601 224 166 141 0.751962304 
-0.169685021 -0.185680822 -1.01660621 0.570268393 238 190 180 0.763479114 
-0.146109551 -0.169024229 -1.02417886 0.640369475 246 210 190 0.765442073 
-0.196833372 -0.150988251 -1.47638571 0.112611279 77 74 65 0.882658303 
-0.194286466 -0.109825447 -1.46912658 0.114763342 72 72 67 0.880776703 
-0.136309803 -0.154857859 -1.45840931 0.338268876 74 76 62 0.87799865 
-0.145713612 -0.109762877 -1.45393836 0.306258231 73 71 65 0.876839697 
-0.19662565 -0.154133126 -1.4273839 0.10624852 81 74 53 0.869956613 
-0.20278509 -0.113488168 -1.41986644 0.128698319 77 80 55 0.868007958 
-0.157662123 -0.136017576 -1.44919217 0.252183437 76 75 59 0.875609457 
-0.192551851 -0.090780139 -1.43647289 0.18528232 73 73 67 0.872312486 
-0.191670835 -0.135686159 -1.45058775 0.121194758 76 75 59 0.875971198 
-0.218310311 -0.136981219 -1.43713105 0.0253573097 74 77 59 0.872483134 
-0.165667608 -0.112189338 -1.47597194 0.216428876 72 72 66 0.882551014 
-0.191675812 -0.130832523 -1.39773965 0.153228804 83 73 68 0.862272501 
-0.175190315 -0.112052999 -1.44671738 0.200575605 80 73 48 0.874967992 
-0.147662133 -0.120693393 -1.42577696 0.306300521 75 74 68 0.869539976 
-0.178771749 -0.129941747 -1.42492092 0.182623625 75 74 68 0.869318128 
-0.175682545 -0.152192637 -1.36036277 0.209482059 180 146 0 0.852584064 
-0.198948234 -0.0770029873 -1.41011381 0.224000439 74 74 68 0.865480006 
-0.190961882 -0.103766412 -1.3546679 0.22114405 98 87 54 0.851107836 
-0.160683498 -0.131259471 -1.40071893 0.261278272 83 72 60 0.863044739 
-0.155134365 -0.157694936 -1.33862722 0.2791242 235 210 177 0.846949995 
-0.169680849 -0.10259594 -1.41875672 0.257809609 76 78 60 0.867720306 
-0.161268353 -0.101667017 -1.35731685 0.324314684 99 72 59 0.851794541 
-0.1927315 -0.161652997 -1.39564288 0.134149939 101 72 0 0.861729026 
-0.189532474 -0.101009682 -1.39623666 0.217601195 72 78 71 0.861882925 
-0.164070711 -0.159107924 -1.39095318 0.244930848 95 72 0 0.860513389 
-0.151717052 -0.079252027 -1.37519729 0.395304203 88 75 69 0.856429338 
-0.212456062 -0.114336088 -1.38419998 0.1248096 84 80 74 0.85876292 
-0.162980974 -0.12913616 -1.34600377 0.271597505 206 161 0 0.848862052 
-0.178307131 -0.124646388 -1.3716507 0.224583879 103 66 0 0.855509996 
-0.16186069 -0.105645277 -1.38634002 0.304006457 78 75 74 0.85931766 
-0.198246017 -0.162814185 -1.31273007 0.097199589 228 212 187 0.8402372 
-0.200318471 -0.0980069861 -1.29269063 0.135687962 203 163 0 0.835042775 
-0.151184514 -0.150353909 -1.30941331 0.270648241 215 199 188 0.839377463 
-0.13110286 -0.0911773741 -1.31899786 0.407832354 221 205 163 0.841861904 
-0.197680548 -0.141210124 -1.34392691 0.130184844 206 161 0 0.848323762 
-0.195778742 -0.0899548158 -1.32297051 0.204768658 114 82 0 0.842891634 
-0.170758352 -0.0881775543 -1.30603623 0.265840143 203 163 0 0.838502109 
-0.202927172 -0.133595288 -1.31410277 0.0984771475 219 192 128 0.84059304 
-0.182444081 -0.116398148 -1.32785213 0.20805788 182 146 0 0.844156981 
-0.177500755 -0.143816769 -1.32367146 0.187528759 231 207 160 0.843073368 
-0.156419098 -0.103001282 -1.32765806 0.316393822 182 146 0 0.844106674 
-0.216254771 -0.154761493 -1.24726415 0.0272507593 216 206 184 0.823267877 
-0.194289729 -0.10422384 -1.26403666 0.103836335 219 202 168 0.82761544 
-0.170395106 -0.140632838 -1.2437799 0.174074069 216 211 193 0.822364688 
-0.145928234 -0.097383216 -1.266626 0.285117477 218 202 183 0.828286588 
-0.193602487 -0.147455737 -1.26540446 0.084728159 213 206 191 0.827969968 
-0.22328034 -0.0902514085 -1.26650178 0.0309455581 208 169 65 0.828254402 
-0.168575495 -0.133578226 -1.27275908 0.18263863 213 209 189 0.829876423 
-0.171189532 -0.105228387 -1.28117585 0.20496954 220 203 160 0.832058072 
-0.208110839 -0.126880631 -1.24986732 0.0228556339 212 208 192 0.823942602 
-0.167914167 -0.11104545 -1.2516793 0.182397366 218 202 183 0.824412286 
-0.191261664 -0.12586154 -1.28784931 0.117888004 221 205 163 0.833787918 
-0.142459974 -0.132266819 -1.28785312 0.291475058 213 202 175 0.833788872 
-0.182091877 -0.107671425 -1.20274663 0.147359803 209 197 177 0.811728477 
-0.153968111 -0.129370719 -1.19965899 0.268421143 211 211 197 0.810928166 
-0.154670328 -0.100631639 -1.19449711 0.251450121 209 197 177 0.809590161 
-0.215655893 -0.137671024 -1.22286081 0.0376075655 191 173 158 0.816942215 
-0.213332742 -0.109502658 -1.2135334 0.0253615566 197 185 165 0.814524472 
-0.19213739 -0.154710591 -1.22992432 0.127620086 208 196 187 0.81877315 
-0.160915568 -0.101535425 -1.22294068 0.205721661 212 207 191 0.816962957 
-0.181362048 -0.136909768 -1.20915651 0.16976738 206 194 179 0.813389957 
-0.178288847 -0.12961787 -1.17971218 0.223166764 188 168 143 0.805757761 
-0.187739819 -0.117530704 -1.23035812 0.103186272 212 209 193 0.818885624 
-0.202677101 -0.145356953 -1.18966281 0.149502024 205 180 145 0.808337033 
-0.147648707 -0.128276423 -1.22927809 0.258937359 215 202 200 0.818605661 
-0.14358744 -0.104670666 -1.16637826 0.336134732 209 193 169 0.802301407 
-0.193033829 -0.148371965 -1.1611737 0.241184354 211 193 170 0.800952375 
-0.189586222 -0.0991053507 -1.14698434 0.230166346 207 193 175 0.797274411 
-0.145702541 -0.1540685 -1.14671826 0.420098126 188 168 143 0.797205389 
-0.160798162 -0.0897001401 -1.14841783 0.305912554 207 178 155 0.797645926 
-0.199691057 -0.141357884 -1.11396575 0.308579206 225 209 191 0.788715601 
-0.21374692 -0.0938018039 -1.16056359 0.123002574 208 192 179 0.800794184 
-0.200056911 -0.0887997821 -1.12333 0.249855563 208 188 172 0.791142941 
-0.167265177 -0.162411094 -1.16470027 0.328576982 205 180 145 0.801866472 
-0.174355313 -0.151396319 -1.13880515 0.347488642 211 193 170 0.795154214 
-0.17499274 -0.101751313 -1.1724869 0.219346285 210 187 159 0.803884864 
-0.173526153 -0.102527104 -1.12186134 0.339554578 208 192 179 0.790762246 
-0.206020921 -0.121351145 -1.15733123 0.179750934 203 197 177 0.799956381 
-0.163597047 -0.119071558 -1.15024447 0.319145262 202 179 151 0.798119426 
-0.187344566 -0.125191584 -1.13397253 0.292084813 203 197 177 0.793901622 
-0.145246103 -0.105510287 -1.1309433 0.404331267 213 192 169 0.793116331 
-0.185012221 -0.154153675 -1.09106648 0.404132575 232 211 189 0.782779932 
-0.163714573 -0.157920122 -1.11147857 0.44320038 211 191 173 0.788070917 
-0.156880051 -0.110281184 -1.0871793 0.477875412 208 192 175 0.781772316 
-0.195924938 -0.143484667 -1.06407177 0.395214975 233 198 178 0.775782645 
-0.194154501 -0.086159125 -1.05068398 0.366056055 244 222 199 0.772312403 
-0.167999268 -0.143357784 -1.07069075 0.487187415 228 205 186 0.777498305 
-0.170011386 -0.0950663239 -1.06622994 0.452567637 229 211 191 0.776342034 
-0.195521533 -0.113291055 -1.10571659 0.319683224 209 181 160 0.786577404 
-0.171735421 -0.129577488 -1.10333169 0.411409914 210 189 174 0.785959184 
-0.210692137 -0.128405347 -1.08572996 0.306060195 228 205 186 0.781396687 
-0.183110118 -0.119027674 -1.07760549 0.409165561 227 210 191 0.779290736 
