ply
format ascii 1.0
comment created by gply, a Houdini tool.
comment converted from .[b]geo
comment for more information about Houdini, try:
comment www.sidefx.com
element vertex 623
property float x
property float y
property float z
property float depth
property uchar red
property uchar green
property uchar blue
property float length
element face 0
property list uchar int vertex_indices
end_header
-0.540219188 0.442609072 0.818936229 1.26543455e-05 106 90 43 0.780693531 
-0.592791796 0.2414359 -0.218340561 -4.26353654e-06 148 148 145 0.349188268 
-0.0122970399 0.348410159 -0.375747442 -4.87461875e-07 159 139 134 0.283707291 
0.764425039 -0.102899298 0.416292936 2.66092829e-05 97 58 10 0.613194644 
0.213271692 0.485906452 -0.178464681 2.33689207e-06 66 33 9 0.365776569 
0.316041589 -0.152523324 -1.02393496 -0.000451963162 87 77 47 0.0140624763 
-0.684797347 0.390130371 0.46084246 -8.01082933e-08 82 63 28 0.631727159 
0.176540658 -0.387162507 -0.458854079 1.12015496e-05 120 110 82 0.249135092 
-0.115894899 0.473688632 1.03869629 7.44710997e-06 119 94 27 0.872113347 
-0.927557349 -0.206427068 0.0756773278 -1.99815258e-05 68 58 35 0.471499145 
0.810691655 -0.304422647 -0.600681782 5.29151293e-07 101 81 29 0.190135017 
-0.344237 0.408810526 0.00450524827 4.32637462e-05 79 65 17 0.44189173 
0.236017317 -0.109143645 -1.01480103 -2.70578312e-07 91 74 39 0.0178621765 
-0.0453485027 0.27693668 -0.521699905 -2.15745531e-05 167 154 138 0.222991332 
0.903148413 0.082002297 0.437589735 6.56690099e-06 98 66 24 0.6220541 
-0.824808061 -0.275566012 0.437898099 -3.6830148e-05 97 76 40 0.62218231 
-1.03788888 0.00764286937 0.778873563 3.38023528e-06 54 29 9 0.764027536 
1.10165906 -0.000373401359 -0.890206754 -9.56066651e-06 85 49 9 0.069693163 
1.2943182 0.205616906 -0.0785279945 -3.13157216e-07 4 2 1 0.407350034 
0.966212034 0.436264426 0.378105521 -2.63791298e-06 89 73 40 0.597308755 
-0.578391612 0.259993374 -0.190630585 -2.6615453e-06 193 192 188 0.360715568 
-0.545618057 -0.388445616 -0.0148465149 1.65151141e-05 166 168 165 0.433841407 
0.642123401 -0.362932712 -0.0825800672 -1.44137302e-05 106 93 33 0.405664384 
-0.752630591 0.302978605 0.208615795 5.86616807e-07 97 76 44 0.526801348 
-0.118647203 0.0646753088 1.20073962 -1.06021762e-05 90 61 15 0.939522982 
0.119698405 0.424034595 -0.242837831 -6.76893978e-06 100 62 16 0.338997453 
0.0172722861 -0.281724274 -0.765715837 -1.12931193e-05 125 132 138 0.121481158 
0.320356935 -0.419152796 -0.384665787 2.83262125e-07 104 93 50 0.279997289 
-0.0639656037 0.544428289 0.433772802 -4.63407559e-06 116 86 39 0.620466232 
0.328550339 0.335644901 -0.513099194 -4.30841901e-05 113 88 38 0.22656922 
-0.0928485617 -0.399481535 0.446637511 1.27164676e-05 109 81 15 0.625817955 
0.193325117 -0.120949998 0.853905439 8.82666791e-06 121 90 34 0.795240641 
-0.142628372 0.354288459 -0.308181405 -1.28942193e-05 206 188 168 0.311814636 
0.421234995 0.439876229 0.910990357 3.32246418e-06 87 64 20 0.818987846 
-0.776638746 0.0559731089 1.20502436 -5.24328789e-06 70 53 19 0.941305459 
-0.795656145 -0.266076207 0.433921635 3.29531031e-06 85 77 38 0.620528162 
1.20387077 -0.0117677236 -0.888549149 2.26240372e-05 63 52 28 0.0703827217 
0.799212456 0.420990318 -0.318318754 -2.94609799e-06 106 76 15 0.307597548 
-0.353470653 -0.322697788 -0.626871169 4.76485366e-06 151 158 163 0.179240286 
-0.57085377 -0.375467271 0.179624036 -4.42608143e-05 165 163 158 0.514740825 
0.81757921 0.373634994 -0.425362766 4.58642353e-06 112 92 43 0.263067424 
0.0256890059 -0.244940683 0.73083663 1.5976344e-05 103 82 32 0.744044244 
0.22718583 -0.154890284 -1.00467169 2.61575478e-05 92 76 40 0.0220759604 
0.699388206 0.353972197 -0.521129131 1.8257284e-05 104 84 34 0.223228782 
-0.014907741 0.555245757 0.57499963 3.2379543e-05 98 77 29 0.679216385 
0.673449159 -0.346097082 -0.0755364075 -6.3534826e-05 110 87 23 0.408594519 
0.342512697 0.464441925 -0.184483394 3.13666169e-06 101 67 17 0.363272786 
0.858648598 -0.00144006067 0.429383039 2.30723526e-05 82 60 15 0.618640125 
0.400798678 0.0731455833 0.923087597 2.00186041e-05 100 70 21 0.824020267 
-0.54434222 -0.138518006 1.06788266 -3.95133975e-06 85 66 22 0.884254754 
0.779335976 0.486757219 0.543524206 8.1381877e-06 94 55 10 0.666122615 
-0.646860898 0.417239666 0.588036239 1.27329258e-06 75 59 22 0.684639513 
0.542670846 0.58192426 0.359153122 1.57824106e-05 95 70 17 0.58942461 
-0.0281787757 0.176541999 1.24371588 1.11215631e-05 89 62 20 0.957401037 
-0.855321527 0.0261718463 1.11947775 4.58129216e-06 78 59 26 0.905718267 
1.00493515 0.292102665 0.4024508 -9.2057744e-06 94 74 25 0.607436359 
1.35441601 0.0515136346 -0.503664136 -2.5035115e-06 90 64 22 0.230494186 
0.814844131 -0.260016412 -0.84066397 1.01639307e-06 89 68 21 0.0903028697 
-0.553089142 0.447064489 0.395875812 -1.80090428e-05 70 47 22 0.604701161 
-0.300728738 0.488135129 0.839443564 9.77376476e-06 102 76 26 0.789224505 
1.13283157 0.383886546 0.106936187 -9.55275027e-06 99 71 25 0.484502822 
0.674733043 0.244419277 -0.719724059 5.22692717e-05 90 66 31 0.14061366 
-0.16423431 0.497142076 0.174682021 7.46242586e-06 68 51 21 0.512684941 
0.381262958 0.592983961 0.440321118 2.04332682e-05 92 63 13 0.623190284 
-0.693864286 0.297878385 1.20473588 -4.81377356e-07 90 72 31 0.941185474 
0.675836265 -0.140410945 0.463122487 -4.62383905e-05 85 65 18 0.632675648 
0.0214660615 0.475539118 1.02627051 -7.06041465e-06 102 69 18 0.866944194 
0.604035914 0.401045412 -0.480319202 1.56959504e-06 92 75 34 0.240205631 
-0.394545346 -0.0581767336 -0.835716784 3.03339039e-06 122 135 148 0.0923608914 
-0.276201516 -0.382026017 -0.338471442 6.01797219e-05 197 195 188 0.299214065 
-0.559883714 0.391440302 1.08456945 1.75326095e-05 95 70 28 0.891196489 
0.401316077 0.572467089 0.156192213 1.33439826e-05 99 79 30 0.5049932 
0.226130515 -0.0798673332 -0.965414584 -2.25759868e-06 94 85 58 0.0384068452 
1.01738894 0.432701319 -0.0803406015 -2.94585479e-05 94 68 19 0.406595975 
-0.121078528 -0.0884239599 -0.942129493 2.08876445e-05 99 107 108 0.0480934009 
0.547751904 0.0889091417 -0.891331673 -1.63573004e-05 95 85 45 0.0692251995 
0.583691299 0.442169011 0.78180474 -6.93092006e-05 84 58 18 0.765246868 
1.00988638 0.365219802 0.427621424 2.44480325e-05 97 67 22 0.617907286 
0.53824389 -0.411124796 -0.264462352 4.21400182e-06 99 62 24 0.330001682 
0.443975478 -0.15267083 0.598418593 -2.34568724e-05 106 80 20 0.688958585 
-0.535619378 -0.0324027613 -0.739899099 1.57044269e-07 121 135 150 0.132220879 
0.0905217677 0.521430492 0.163163006 -9.02081956e-06 110 78 16 0.507893085 
-0.524127364 -0.373403758 0.305256248 2.64664559e-05 106 87 38 0.567003608 
-0.0394193977 -0.450919986 0.00687929709 -1.34428374e-05 126 106 48 0.442879319 
0.430189788 -0.400786459 0.216035903 8.37770494e-06 126 109 57 0.529888093 
1.11030293 -0.133993253 -0.178125665 -1.40682241e-05 83 59 18 0.365917593 
-0.855121195 0.0444956794 -0.216727376 -5.4014381e-06 131 144 158 0.349859357 
-0.09868294 -0.162182108 -0.957891524 0.000151525353 97 105 109 0.0415364243 
-0.646238983 -0.174338594 0.98642087 1.16126466e-05 95 80 41 0.850366771 
-0.857890546 -0.234492466 -0.604320645 5.77326864e-06 87 99 112 0.188621268 
-0.556071162 -0.349719197 0.302030236 5.19055175e-06 97 79 33 0.56566155 
-0.855433643 -0.256382525 0.297478378 2.63774418e-05 69 59 41 0.56376797 
0.0586446933 -0.36407882 -0.527965546 -7.50849722e-07 157 154 144 0.220384836 
0.719164848 0.211833552 0.712822855 -2.64709815e-05 98 51 12 0.73655051 
0.429093808 0.567482471 0.325623393 -1.09958637e-05 86 52 10 0.575476289 
0.686069012 0.251576662 0.793248713 1.54439476e-05 94 83 34 0.770007551 
-0.427256197 0.460050553 0.961327434 3.1435593e-06 95 69 25 0.839927971 
-0.25462082 -0.0897340104 1.12290978 -2.35927801e-05 66 35 6 0.907145917 
-0.402964234 0.345157951 -0.232162729 1.76765025e-06 202 195 189 0.343438268 
0.879878223 0.505860269 0.241122514 4.86895442e-06 95 67 22 0.540324032 
0.12011686 0.211418226 -0.706177592 -3.9133156e-06 145 143 128 0.146248952 
1.11683762 0.03668686 0.121893615 7.22834375e-06 83 58 18 0.49072507 
-0.934632003 0.224532425 0.554959953 -8.83900793e-06 70 54 23 0.670879841 
-0.39967972 -0.397728294 0.185044676 7.36651418e-06 85 55 17 0.516995788 
0.299962252 0.155273139 1.05269563 -5.26523218e-06 101 71 23 0.877937019 
0.925947785 -0.261610895 -0.849546432 -2.74102786e-06 85 58 16 0.086607784 
-0.542993724 -0.375551134 -0.0915921703 -2.83902045e-06 154 153 150 0.401915371 
-0.485861748 -0.247652382 0.779952645 -8.34311868e-05 90 76 32 0.764476418 
0.27812773 0.524004698 0.140857399 5.46264346e-07 117 84 34 0.498613924 
-0.479645193 -0.0853379145 1.15331388 -1.52263988e-06 85 65 28 0.919793963 
-0.131658733 -0.168659061 0.940478981 -7.09391315e-06 101 72 18 0.831255019 
-0.166209757 -0.380409002 -0.41355601 -3.53978248e-05 185 184 179 0.267979026 
-0.629871905 -0.159734249 1.05671501 -1.341802e-05 96 75 32 0.879609108 
1.04706085 0.434266567 0.183842391 -6.89888839e-06 88 62 20 0.516495645 
-0.890075266 0.0698321834 1.13035679 6.69783913e-06 79 54 20 0.910243928 
-0.0162982084 0.569570065 0.354903281 1.61767239e-05 100 64 16 0.587656677 
1.07672298 -0.0326436758 0.0783223286 4.25416511e-06 98 67 22 0.472599477 
0.637377083 -0.128898337 0.479260385 -5.92446886e-05 105 74 19 0.639388978 
-0.61903578 0.41139999 0.958798587 4.65897028e-06 81 62 21 0.838875949 
-0.694709539 -0.347258359 0.0368258841 7.21671677e-06 197 198 202 0.455337048 
-0.17457138 -0.434543014 0.301388025 1.49372354e-05 95 80 31 0.565394402 
-0.854935408 0.196608871 0.229011565 -1.94131171e-05 118 105 72 0.53528595 
-0.412515819 0.328593761 1.28089154 -1.9338011e-05 93 73 27 0.972866058 
0.287468046 0.3980937 1.02471399 -6.73846225e-05 98 70 24 0.866296709 
0.587821901 0.0189395826 -0.979267001 6.22093194e-06 67 48 13 0.0326442644 
1.02723515 -0.148537561 -0.922219455 -1.22606289e-05 75 45 10 0.0563759394 
-0.0304278135 -0.0733812451 1.03305256 -1.07812812e-05 92 64 14 0.86976552 
-0.570143163 -0.349435359 0.286354065 6.64082472e-06 85 62 18 0.559140325 
-0.599981427 0.431272864 0.687374651 -4.39525502e-06 97 82 36 0.725964189 
-0.909937143 0.187516049 0.394227862 1.24119106e-06 65 48 21 0.604015589 
0.512153506 -0.303505719 0.372434855 -2.91061006e-05 103 77 15 0.594949782 
1.04653704 0.444908231 0.0128597515 -2.00499198e-05 97 74 27 0.445367157 
1.0580765 0.0879759416 -0.825347245 2.29072029e-05 80 49 11 0.0966745988 
1.33773541 0.170905486 -0.267025501 4.70411032e-06 5 5 6 0.328935444 
-0.171285227 -0.408033907 -0.277864039 -2.20678776e-05 222 208 207 0.324426621 
-0.69944644 0.381049037 0.44919765 -2.12804298e-06 56 43 20 0.626882911 
-0.441209972 -0.0696790442 1.20440006 -2.22113158e-07 94 65 21 0.941045821 
-0.980457664 -0.0948323831 0.0635307431 6.89818989e-06 55 40 20 0.466446251 
-0.509261012 -0.240315571 -0.860771894 2.13348249e-05 102 117 129 0.0819380134 
0.624394357 0.0315727554 -0.942449868 -1.68063743e-05 85 55 15 0.0479601249 
-0.528317928 0.430661708 0.990347326 5.88965486e-06 93 73 31 0.852000177 
0.790770829 -0.0888786986 0.369915873 -1.76721369e-06 94 54 9 0.593901873 
-0.182466984 -0.434818387 -0.026098324 1.56205624e-06 115 105 71 0.429160655 
0.128294379 0.454829812 1.02112794 -1.69549312e-05 99 70 22 0.864804864 
-0.542726994 0.342241526 1.22817957 -6.20129867e-06 100 77 32 0.950937986 
-0.180259869 -0.358636767 -0.497800261 -1.57502654e-05 187 189 185 0.232933551 
0.148215294 -0.314582676 -0.757773161 4.56610724e-06 126 130 120 0.124785297 
-0.853951275 0.267094553 0.525349379 -1.43285724e-05 70 51 20 0.658561945 
-0.694176137 0.368412465 0.340949684 -1.49365515e-05 96 80 46 0.581851959 
0.903192461 -0.259578794 -0.173829153 1.09816319e-05 100 74 22 0.367704928 
0.182655722 0.280008942 -0.612299144 -9.08261427e-06 159 146 145 0.185302228 
-0.262705147 0.509780765 0.737069964 -1.19506149e-05 97 84 34 0.746637285 
-0.297464728 0.236109033 -0.49514699 1.40531483e-07 182 182 178 0.234037295 
0.225040495 0.2298273 1.12810743 -8.08000186e-06 93 67 22 0.909308136 
0.511233032 -0.309491813 -0.845320284 9.30040096e-06 88 74 31 0.0883658528 
0.157962754 -0.443838388 -0.157669559 -1.0622909e-05 105 93 39 0.374427289 
0.304953009 0.573204458 0.489351094 2.50951853e-05 101 65 12 0.643586695 
-0.227008432 -0.198609173 0.895450294 3.22808082e-05 95 78 28 0.812523186 
0.395633101 -0.423343599 -0.160816595 -1.13504357e-05 117 78 40 0.373118132 
-0.136614218 0.501009524 0.906749368 7.27515726e-07 83 63 19 0.817223608 
-0.60926187 -0.294169813 -0.710054219 2.40908412e-06 120 138 156 0.144636288 
0.910645008 0.446462661 -0.280450791 -6.02167711e-06 101 79 34 0.323350519 
1.20892072 -0.0172280911 -0.127327368 5.76319871e-06 73 44 5 0.387049586 
1.00001836 -0.00733001484 0.235161707 1.47478186e-05 94 70 23 0.53784436 
-0.304548889 -0.113371246 1.07106936 1.9705767e-06 104 78 23 0.88558042 
-0.933680654 -0.102811947 0.911835551 1.35325827e-05 77 61 28 0.819339454 
0.486447662 0.0486210249 0.837313592 -0.000112358131 100 69 18 0.788338423 
-0.141326323 -0.186874509 0.912911236 1.3827972e-05 108 81 25 0.819786966 
0.921713829 0.492982417 0.184003592 4.66877827e-06 97 63 17 0.5165627 
-0.2340312 -0.271826982 -0.861156166 -2.66386814e-06 116 127 144 0.0817781538 
-0.923928618 -0.261640012 -0.121815756 -2.42650276e-06 105 114 135 0.389342427 
0.871786416 -0.315121979 -0.435173243 -4.93507832e-06 108 89 31 0.258986264 
0.934453905 -0.250793248 -0.217631578 -2.47755088e-06 119 86 24 0.349483192 
-0.808824122 -0.14077951 0.99391073 1.03291532e-05 86 68 26 0.853482544 
-0.415772617 -0.303617626 -0.778388858 -7.97070243e-06 128 149 164 0.116209202 
0.771613061 0.453498423 0.555707574 -1.5890284e-05 85 48 8 0.671190858 
-0.948696911 -0.0594470985 0.906395972 -3.49979382e-05 78 61 29 0.817076623 
0.33333531 -0.423870504 -0.238896877 -6.35455945e-06 103 89 44 0.340636879 
-0.0982404649 -0.0872196406 -0.946349442 -6.53148163e-07 94 104 110 0.04633791 
0.834766924 0.142650917 -0.855553925 1.27111562e-05 108 83 29 0.0841086805 
1.02024865 0.418934435 -0.266170949 -2.64836854e-06 96 76 28 0.329290897 
0.864692152 0.0744795054 0.476029515 4.83170152e-06 84 61 18 0.638044953 
-0.0524317212 0.190914124 -0.65930891 -6.97271116e-06 156 157 150 0.165746242 
-0.353078127 0.501386702 0.313372016 -7.82381685e-05 129 104 32 0.570379734 
0.111896105 0.0139397336 -0.884187818 2.94715574e-06 104 102 79 0.0721970275 
-0.776650548 -0.295004696 -0.565069556 -3.64110747e-06 110 126 143 0.204949647 
0.0796722174 -0.434975713 -0.221767575 2.06310506e-06 101 87 47 0.347762644 
-0.217354983 0.311295092 -0.428519577 7.80411574e-06 196 190 181 0.261754185 
-0.763480246 -0.175005615 -0.670507789 1.84320379e-06 104 121 141 0.161087528 
-0.560649395 -0.041268602 1.21066177 -1.83997327e-06 81 59 22 0.943650603 
0.557452261 -0.245545059 0.376663476 -0.000125847058 98 72 16 0.596708834 
1.14140487 0.173436671 -0.714868963 -4.87282523e-06 97 70 18 0.142633364 
-0.638450563 0.420873135 0.809374988 -2.9868097e-06 87 72 35 0.776716053 
0.361694217 0.562278211 0.63957721 -5.32343984e-06 98 70 15 0.706080496 
-0.292719752 -0.359713048 0.475684524 7.9991878e-05 84 75 24 0.637901425 
0.478896141 0.248293355 -0.691800892 3.34673678e-06 108 92 52 0.152229637 
0.658110678 0.553928196 0.451264918 3.51149356e-06 101 72 18 0.627742946 
0.106859505 0.335132092 1.15733266 2.44280091e-06 91 65 22 0.921465755 
-0.875937879 0.0724763945 -0.0349058956 1.68179395e-05 129 143 157 0.425496757 
-0.915306091 0.228328109 0.944394231 -9.28388909e-06 94 67 30 0.832883835 
-0.862202168 -0.252055377 0.504469573 1.70635394e-05 79 60 26 0.649875939 
1.20215893 -0.117154904 -0.334621131 3.35159712e-06 96 70 25 0.300815761 
-0.339506865 0.508708119 0.604765713 -4.48539868e-05 101 81 33 0.691599011 
1.19843256 0.122124255 0.0176187269 -1.11857662e-06 86 59 19 0.447346926 
-0.0367454179 0.544346154 0.807765126 5.08541052e-06 84 60 11 0.776046336 
-0.641771734 0.0146935629 1.26528192 -5.72645513e-06 87 69 30 0.96637243 
1.24444628 -0.0819568411 -0.33591187 5.01051545e-06 97 65 21 0.300278813 
-0.462173462 0.259744644 1.31451154 2.86873801e-05 92 72 30 0.986851871 
1.14397991 -0.0538400002 -0.135709256 -5.42611815e-07 85 64 21 0.383562714 
-0.334977239 0.392295212 -0.0627883077 -2.8021077e-08 135 115 101 0.413897723 
-0.435246527 0.355208367 -0.175570801 3.07179289e-06 173 171 168 0.366980404 
-0.418157309 -0.382287532 -0.289254457 -1.44883379e-05 198 196 193 0.319688231 
-0.793582797 0.275812358 1.13337398 7.5843418e-06 83 60 24 0.911498964 
0.511781633 0.404723287 -0.468976617 1.43254401e-05 76 50 13 0.244924128 
-0.0251134094 0.305186361 -0.469647944 -8.26391624e-06 140 127 114 0.244644865 
-0.990997553 -0.0530512668 0.793704033 -2.3839646e-05 71 47 16 0.770196974 
-0.070650354 0.392150819 -0.310126543 5.52157871e-06 205 184 186 0.311005473 
-0.19613339 -0.388663024 -0.365409613 -1.62921933e-05 197 195 189 0.288007826 
0.17575866 0.548157752 0.767865479 -9.17075158e-06 117 87 24 0.759448171 
-0.106099792 -0.442091346 0.133029908 -3.0056457e-05 109 91 56 0.495357752 
0.22942242 0.360101998 1.09340906 0.000957955897 94 68 23 0.894873738 
0.841511905 0.264595777 -0.666137338 4.79466689e-06 113 93 31 0.162905633 
1.27441764 0.172223777 -0.136814162 -1.93879241e-05 90 76 32 0.383103102 
0.11508318 -0.0355745517 0.995649278 -8.09607627e-06 108 79 26 0.854205787 
0.997843683 -0.250204235 -0.541078508 -8.66381743e-06 111 87 30 0.214929879 
-0.683356881 -0.356141061 -0.27905339 -5.34967694e-06 155 163 170 0.323931843 
0.708220541 0.42798084 0.678577542 -2.39656365e-05 98 61 18 0.722304583 
0.20665434 0.408658892 1.08353746 1.75451569e-05 95 69 23 0.890767157 
-0.330102712 -0.291164219 -0.817749798 -4.0346531e-05 116 127 143 0.0998351276 
0.804683506 -0.174115241 0.209171563 -1.93435699e-05 104 80 22 0.527032495 
1.18887889 0.0680973679 -0.829924881 3.81754944e-06 75 46 11 0.0947703123 
-0.777254283 -0.232721269 0.68791306 3.5542671e-05 83 63 27 0.726188123 
-0.428726852 0.457164556 0.31627652 -4.53501707e-06 97 65 18 0.57158798 
0.77226615 0.388633966 -0.396419406 -1.33916328e-05 100 77 26 0.275107801 
-0.00662740367 0.192187771 -0.664884388 -3.6116835e-06 177 176 170 0.163426861 
-0.59243834 0.15292944 -0.424391091 2.15259752e-06 180 182 189 0.263471633 
0.0563634448 -0.350757599 0.505768776 -1.64183002e-05 96 63 16 0.650416434 
-0.854383051 -0.291462094 -0.301750124 -3.85898165e-05 123 137 155 0.31449005 
-0.865693271 -0.218474925 0.670159161 -1.99598144e-05 70 55 22 0.718802571 
1.24783158 -0.022688359 -0.839145124 2.37274799e-06 74 54 19 0.0909347087 
-0.103400961 -0.327039838 0.635897994 -2.87719813e-05 101 71 17 0.704549968 
0.189977765 0.451216996 1.03805315 2.22833478e-06 100 73 24 0.871845722 
-0.85924232 -0.258856773 -0.566597402 -6.46227272e-06 90 104 120 0.204314068 
0.194518179 -0.409020543 0.364571124 -2.04030657e-05 107 70 19 0.591678441 
-0.173303917 0.464211047 0.0457743183 -1.51804416e-05 85 42 5 0.459059596 
-0.330521554 0.510008812 0.519862831 2.53475155e-05 89 65 27 0.656279504 
0.627025366 -0.340503842 -0.540159047 -1.78595656e-05 91 70 32 0.215312362 
0.562179208 0.183985278 0.877939761 1.23227946e-05 90 64 23 0.805238903 
-0.590048432 0.0258334167 -0.616134405 -8.73988029e-07 152 160 171 0.18370676 
0.337111324 -0.314706445 -0.726496637 4.86716453e-06 105 98 73 0.137796268 
1.15986598 -0.170436531 -0.691755533 -4.80446033e-07 91 64 18 0.152248502 
0.654395759 -0.375940979 -0.380521774 2.82240217e-05 105 72 24 0.281721175 
-0.311061472 -0.300609976 0.653610647 4.56812995e-06 105 76 27 0.711918354 
0.843067467 -0.147513449 0.254694015 -1.482261e-05 116 86 28 0.545969784 
-0.797032177 0.311190397 0.530013442 4.54625115e-06 93 77 36 0.660502136 
1.25397742 0.263414651 -0.0908704773 -2.14409083e-05 58 42 24 0.40221557 
1.02351391 0.384361655 -0.379709542 3.96458199e-06 107 82 27 0.282059073 
0.315585762 -0.422212034 0.137877792 -4.56861235e-05 95 62 20 0.497374475 
0.759976506 0.536175311 0.369053394 1.28844404e-05 99 59 11 0.593543053 
0.474855244 0.479893118 -0.2626715 2.58034215e-05 119 82 45 0.33074668 
-0.102163464 0.0239877105 -0.837130249 2.94903657e-06 103 108 114 0.0917728916 
0.992983699 -0.253052652 -0.563501954 -5.34238643e-06 101 79 26 0.205601767 
0.973954856 0.0602153242 0.323380888 1.0173535e-05 94 71 26 0.574543357 
0.486464202 0.483724028 0.840097487 1.4084304e-05 91 65 15 0.789496601 
0.0136039509 0.331072032 -0.430116415 1.4635938e-05 103 92 56 0.261089891 
0.950320721 0.39420566 0.429653287 3.18439561e-07 108 84 39 0.618752539 
0.174696818 -0.454253495 -0.000353170646 8.22178117e-06 98 93 44 0.439870596 
0.453160197 0.303372681 -0.606619775 4.60742594e-05 104 90 41 0.187664822 
-0.312116534 -0.427790076 0.218633145 -7.56539011e-05 105 89 41 0.530968547 
-0.0182264093 0.455887973 -0.081810154 1.70781277e-06 105 74 24 0.40598467 
0.607396066 0.372869641 -0.492346913 -2.79540836e-06 114 86 42 0.235202149 
0.481253684 -0.427762717 -0.0360433236 2.17948691e-05 108 85 22 0.425023586 
-0.688593745 0.347401172 1.1077472 1.86689431e-06 86 64 25 0.900838315 
0.0819513202 -0.234844044 -0.941891074 -9.3766721e-07 98 105 123 0.048192583 
-0.349314064 0.196767434 1.32369256 -1.4552119e-05 88 69 27 0.990671158 
1.00062251 -0.153704464 -0.982461929 1.38461182e-05 39 24 7 0.0313151814 
-0.640040219 -0.234146923 -0.792686999 6.42612576e-07 96 112 124 0.110261202 
-0.855294585 0.304738075 0.673099697 -7.60774128e-07 71 53 24 0.720025778 
-0.09169586 0.283236325 -0.497429341 -4.60256706e-06 174 166 160 0.233087838 
0.220823586 -0.134652957 0.822026312 3.47704918e-05 104 77 16 0.781979024 
-0.125230968 0.323569238 -0.396217644 -2.83902045e-06 204 188 176 0.275191724 
-0.951823533 0.0652322918 1.0041734 -3.57098179e-06 71 51 21 0.857751846 
-1.01132596 0.0305151269 0.834710121 -8.66432674e-06 66 37 11 0.787255406 
-0.826137006 0.166794613 0.0782499313 2.2171298e-05 140 146 153 0.472569376 
-0.79141748 0.343747824 0.902139902 4.21970617e-06 84 68 28 0.815306067 
0.385182381 0.175124183 0.977172494 -8.22777656e-06 106 77 24 0.84651953 
-0.414488465 -0.346912384 0.540850103 3.04024506e-05 116 90 30 0.665010154 
-0.872125626 -0.222710535 0.555306435 -8.28383781e-06 78 58 26 0.671024024 
0.756516695 0.550899804 0.126376852 1.52366993e-05 101 75 21 0.4925901 
-0.332354546 0.298419923 -0.335940778 1.11875015e-05 186 184 177 0.300266802 
0.802879989 0.513950944 0.389990807 7.37847586e-06 73 58 19 0.60225302 
0.378535032 0.560734153 0.632133245 6.22341759e-07 98 70 15 0.702983797 
-0.181787476 -0.0351067334 1.1582365 -3.67886969e-07 94 60 15 0.92184186 
-0.482495517 0.232095033 -0.346910954 -7.793451e-06 163 162 159 0.295703232 
0.186300248 0.387447506 1.11000371 0.000117222487 82 59 22 0.901776969 
0.709565759 -0.344838113 -0.337007821 -3.14651988e-05 107 83 33 0.299822897 
-0.841267169 0.282179445 0.405532956 -7.20651587e-06 83 63 30 0.608718514 
-0.758842707 0.0475032814 -0.458344042 -2.34973268e-05 123 133 148 0.249347255 
-0.997267962 -0.0712437481 0.162533358 2.25572148e-06 58 42 18 0.507631123 
-0.0738923699 0.385541081 -0.325393409 5.57668682e-06 113 104 90 0.304654479 
1.27112818 -0.0509179831 -0.329275399 1.25815859e-05 95 62 17 0.303039581 
-0.980968535 -0.164027765 -0.177715495 5.76284947e-05 45 44 41 0.366088241 
0.868622541 0.454434276 0.495844722 6.02542423e-06 102 68 32 0.646288037 
-0.150213838 -0.252710462 -0.896869779 -2.2497079e-06 102 112 121 0.0669213608 
1.07167482 -0.135199532 -0.106401421 6.39155041e-06 84 57 15 0.395754725 
0.462059289 -0.208880156 0.515877604 -6.03019726e-06 89 54 9 0.654621661 
-0.231291488 -0.448484004 0.123532884 4.36021946e-06 117 96 51 0.491407007 
-0.0937418044 -0.350612938 -0.539081693 -1.77308793e-05 186 185 186 0.215760544 
-0.759191811 0.184442088 -0.0681250244 -3.28620954e-05 138 141 140 0.411677659 
-0.389125079 -0.332416326 0.605199873 -1.83871307e-05 118 88 14 0.691779613 
0.91528064 -0.300030708 -0.445416123 8.83679604e-06 111 89 31 0.254725277 
1.23464155 0.106670588 -0.00131283072 1.48867257e-05 100 76 27 0.439471394 
0.656600416 0.0598253459 -0.944687724 5.9337417e-06 76 45 11 0.0470291823 
-0.317171097 -0.429280341 -0.0937354937 4.06802428e-07 171 164 158 0.401023746 
-0.876577914 0.271163881 0.692094684 1.22776837e-05 74 56 24 0.727927685 
0.251319975 0.539676011 0.0208106749 -6.46003173e-06 97 70 15 0.448674768 
0.107584804 0.0508752391 1.0573622 -2.87382099e-05 92 65 15 0.879878283 
1.30506015 0.247343123 -0.248984084 3.89965862e-06 34 27 15 0.336440623 
0.785528421 -0.320572704 -0.372809798 2.65158305e-05 108 90 36 0.284929365 
0.0526522323 0.512935102 0.906415939 -2.95346381e-05 107 75 25 0.817084908 
0.959350646 -0.0985095128 0.16208525 2.21567461e-05 107 79 24 0.507444739 
0.305485934 0.00939003471 0.891283095 -4.41847078e-06 104 67 11 0.810789704 
-0.44367671 0.462712526 0.366800517 -2.4723151e-05 93 63 43 0.592605889 
-0.266202301 -0.425686389 0.00452369032 1.09687098e-05 178 168 173 0.441899359 
0.810623467 -0.274933487 -0.78641969 -6.05270907e-06 84 61 21 0.112868391 
-0.203111395 0.546833634 0.6215294 3.77255492e-06 95 80 35 0.698572636 
-0.589945316 0.442238629 0.719053745 -1.31437628e-06 102 88 44 0.739142597 
0.759700298 -0.147254884 0.360386968 -2.03786185e-05 93 72 20 0.589937866 
0.769056201 0.215700209 -0.753398597 1.56823298e-05 92 73 24 0.126605108 
1.00100207 -0.247572616 -0.680350304 -1.77855254e-05 98 71 26 0.156993061 
-0.800035596 -0.00592340156 1.14911747 -2.0286534e-05 83 62 22 0.918048322 
0.167613253 -0.469065249 0.11119362 1.47619057e-05 107 74 22 0.486273885 
-0.835681856 -0.227386013 0.585483968 9.06791829e-05 45 29 9 0.683577776 
-0.0238618813 -0.0381834842 1.07290745 -1.51933054e-05 85 60 12 0.886345148 
0.143363565 0.0682877526 1.05171025 -2.18639907e-05 99 68 16 0.877527058 
-0.457695305 0.383054674 1.17996633 4.6560308e-07 94 71 29 0.930881381 
-0.0112860883 -0.473719746 -0.0169032495 -2.51048914e-06 114 99 60 0.432985812 
0.855277717 0.328470111 -0.52209878 2.24222385e-05 109 88 33 0.222825408 
-0.653274894 -0.237348959 0.838519812 8.62660818e-06 90 76 35 0.788840234 
-0.62855041 0.422192335 0.85030514 1.33388676e-06 106 90 47 0.793742955 
0.782336891 -0.198508665 0.197796315 -2.06617406e-05 81 52 10 0.522300482 
0.31827876 -0.118945979 -0.996255636 -7.6736178e-06 90 80 62 0.0255770236 
0.445749134 -0.12132512 -1.01055419 2.27327837e-06 77 65 19 0.0196288507 
0.303848147 -0.132473364 -1.00038421 8.99404404e-06 84 90 80 0.0238595437 
-0.868200481 -0.275281668 0.245464355 4.671223e-06 92 96 96 0.542130232 
-0.164952576 0.390788913 -0.264788866 1.69338964e-05 120 110 79 0.329865873 
-0.36463511 -0.0242446568 -0.793953717 -1.9950523e-05 127 136 151 0.109734252 
-0.908310652 -0.0750436485 0.991188526 -5.61540946e-06 69 51 24 0.852350175 
-0.901780128 -0.11650008 0.865404844 2.18457717e-05 91 71 32 0.80002439 
-0.947753131 0.182731003 0.957082272 2.39745714e-06 77 53 21 0.838162065 
0.527078211 0.105008841 -0.89884001 6.18603372e-06 96 86 47 0.0661017448 
0.615804672 -0.254905403 -0.918936789 3.66491804e-06 69 50 14 0.0577415228 
1.26871324 0.128667876 -0.147246405 1.43341022e-05 98 79 33 0.378763288 
0.229403749 0.149116933 1.06062937 3.70334601e-06 91 64 19 0.881237447 
-0.0831831694 0.203129262 1.24751699 -8.94872937e-06 85 60 18 0.958982348 
-0.714034319 0.158788741 1.25868177 -2.3608125e-05 91 73 32 0.963626921 
0.876673162 0.187781081 -0.794276476 1.66564132e-06 99 78 26 0.109599985 
0.132572249 -0.411883742 -0.422452211 -3.60090853e-05 194 175 145 0.264278203 
-0.421256185 -0.054596711 -0.792510748 -3.07604205e-06 137 151 167 0.110334523 
-0.83579284 0.0665018186 1.18383682 9.07422509e-06 72 50 18 0.932491481 
-0.322081447 0.464565307 0.973102391 -9.42007318e-06 84 59 20 0.8448264 
-0.979820013 -0.186512232 0.405698061 1.07914966e-05 80 64 39 0.608787179 
0.015277205 0.0324833132 1.09807754 2.90544995e-06 89 59 15 0.896815717 
0.678691387 0.338242769 -0.605358124 3.38810059e-06 101 83 30 0.18818967 
-0.0515220948 -0.286802381 -0.747618377 -5.31785827e-06 138 143 150 0.129009664 
0.114750154 -0.371902794 0.437031537 -1.50950946e-05 93 59 12 0.621821821 
-0.154956192 0.339033335 1.24767053 0.000121727295 101 75 29 0.959046185 
-0.506964445 0.11373686 1.33310091 1.41425335e-05 89 71 30 0.994585097 
0.0670262203 -0.378299057 0.427504718 7.42470729e-06 97 71 20 0.617858708 
-0.476786405 -0.162462488 1.01724184 -6.05599053e-06 106 87 34 0.863188267 
1.11671805 -0.0796835124 -0.133380875 -3.38822138e-05 87 57 20 0.384531349 
0.482038945 -0.125362441 0.608348548 -4.03157901e-06 108 67 10 0.693089426 
-0.0385369472 -0.432364017 0.33844161 1.21835346e-05 125 97 44 0.58080864 
1.32236242 -0.0331456326 -0.533123374 1.13975257e-05 90 62 17 0.218239203 
-1.03196216 0.045977626 0.829959214 6.40458893e-07 38 20 5 0.785279095 
-0.0364521816 0.502244473 0.11125955 4.66087513e-05 113 77 24 0.486301333 
1.02791786 -0.202238932 -0.195973247 6.91993046e-06 94 74 17 0.35849303 
0.124815859 0.560792565 0.764822364 9.23324296e-06 88 57 10 0.758182228 
-0.43155247 -0.390475094 -0.174033627 -7.93086656e-07 188 181 176 0.367619872 
1.18928039 0.307632983 -0.293003052 3.75387026e-06 85 63 15 0.318128794 
-1.00780153 -0.0151122957 0.79730624 -3.97185795e-06 66 38 11 0.771695435 
0.491675436 0.518223345 -0.122817308 3.51057679e-07 125 99 40 0.388925791 
0.0893711075 0.333388627 1.16583407 -7.06798164e-06 93 67 24 0.925002396 
0.00314518297 -0.0893120915 0.963234663 1.27266539e-05 105 70 17 0.840721369 
1.34380198 0.1602007 -0.497053593 -6.39818609e-07 81 62 25 0.233244151 
0.858148515 -0.123362228 0.270663887 -1.09858229e-06 89 63 19 0.552613199 
1.35778213 0.103386462 -0.498731494 2.95969367e-05 94 70 28 0.232546151 
0.592361629 -0.0926882997 0.565833867 -5.42978523e-05 100 78 21 0.675403416 
0.197446376 -0.275844514 -0.820254922 1.15347211e-06 96 96 76 0.098793 
0.32000798 -0.458731174 -0.12916398 3.88371109e-06 84 53 21 0.386285573 
1.22933102 -0.111072443 -0.382032067 9.8644523e-06 97 69 24 0.281092912 
0.836735189 0.43650049 0.510006905 -8.11513746e-06 101 58 16 0.65217948 
0.160655335 0.521638989 0.904072464 1.89483981e-05 106 73 16 0.816110015 
0.582958579 0.0813009143 -0.900043666 1.48076469e-06 66 49 18 0.0656010285 
-0.616207719 0.368653357 0.23450233 -1.09872781e-05 104 88 45 0.537570059 
-0.596297443 -0.36725378 0.209425896 9.77391028e-06 87 76 43 0.527138352 
-0.102182359 0.355198711 -0.38624391 -9.00636223e-07 164 151 140 0.279340774 
1.03650784 0.275154144 0.356015354 9.59145837e-06 96 61 11 0.588119268 
0.964796185 0.442942321 0.218671635 -2.29646685e-05 97 73 28 0.530984581 
0.704078197 -0.267901003 -0.862574816 -1.80564821e-05 83 51 13 0.0811880007 
-0.0584745184 -0.456299961 -0.161335006 -4.13820089e-06 119 110 76 0.372902483 
0.165779918 -0.080944024 0.914702177 -5.41412737e-06 108 77 20 0.820531964 
-0.192518011 0.477858245 0.975892246 -4.47266211e-06 87 66 19 0.845986903 
0.679088235 0.213001594 0.787649691 -2.46125273e-06 99 68 23 0.76767838 
0.843451798 0.527835906 0.110955164 1.84239179e-05 71 45 9 0.486174673 
0.648419499 0.231034398 -0.772334278 -7.21728793e-06 73 49 15 0.1187279 
-0.926093638 -0.0458030552 0.999636531 6.16622856e-06 88 63 27 0.855864525 
0.779677391 -0.293046087 -0.027449945 -2.73360638e-06 104 78 30 0.428598404 
-0.447625428 0.433704734 1.04950523 3.33611388e-06 102 78 34 0.876609862 
-0.342826754 -0.432209492 0.0726124421 -3.27625312e-05 158 143 117 0.470224172 
0.508031845 0.110232405 -0.866182089 6.96973802e-06 89 73 36 0.0796873793 
0.241129741 0.30643481 1.12658823 -1.28311804e-05 93 68 24 0.908676147 
0.0614106841 -0.137641668 -0.988530517 1.78115442e-07 82 95 100 0.0287906602 
0.473051876 0.288234651 -0.673721671 9.0142421e-06 111 93 49 0.159750566 
-0.330702841 -0.296461046 0.661599696 1.55138114e-05 92 68 25 0.715241849 
-0.858041704 -0.124042206 -0.512910604 -7.49668106e-06 102 118 135 0.226647675 
0.318095416 -0.0298392959 0.878264189 -4.3277978e-06 99 67 15 0.805373847 
-0.577940166 -0.0894414112 1.17998421 6.71399175e-06 98 73 29 0.930888832 
-0.555240273 -0.30197978 -0.714794219 -6.74217881e-06 122 141 156 0.142664462 
-0.0709572062 0.526239395 0.134392306 -1.953842e-06 130 96 40 0.495924473 
0.740946651 -0.126577199 0.411135972 2.16031331e-05 108 79 23 0.611049354 
1.09492517 -0.176878408 -0.813803077 -5.5085402e-06 82 51 11 0.101476952 
-0.803635538 -0.267191708 0.400032848 1.07488013e-05 98 84 44 0.606430471 
-0.387408137 0.387821257 -0.0306093358 1.25866791e-06 128 104 87 0.427284092 
-0.500944912 -0.119189195 -0.797968268 2.11601728e-05 120 137 156 0.108064204 
0.143518105 0.327612847 -0.473836213 -3.04944842e-06 109 96 55 0.242902562 
0.780888438 0.513819277 -0.117400348 1.1580516e-05 96 78 21 0.391179204 
0.757233024 -0.336581796 -0.0815693662 2.8014183e-06 108 87 30 0.406084836 
0.175183013 -0.364813358 0.479106039 -0.000144847319 109 82 32 0.639324784 
0.0651647896 -0.239572987 0.724157691 -1.52727189e-05 116 97 44 0.741265833 
0.926835239 0.160189867 -0.791203201 -2.51251622e-05 97 72 24 0.11087846 
1.08115602 -0.221072108 -0.780438006 1.05370418e-05 85 56 15 0.115356766 
0.0370954834 0.40994814 -0.31553933 -2.44727125e-05 122 106 79 0.308753759 
0.934209585 0.291418701 -0.614405453 -7.56714144e-06 98 76 28 0.184425995 
-0.154564083 -0.19578357 0.879172206 -9.27830115e-07 101 80 30 0.805751562 
-0.633271813 -0.34769848 0.310017169 3.88064655e-06 83 61 22 0.568984151 
0.00221958337 -0.444669694 0.181517214 -3.71934584e-06 127 106 49 0.515528381 
-0.318212122 -0.0207194015 1.23130727 -5.02664188e-05 92 62 18 0.952239037 
-0.79668057 -0.191022754 0.827092052 2.43153045e-05 89 74 30 0.784086347 
-0.197394013 -0.25281018 -0.839756727 -1.30041485e-06 123 135 152 0.0906802863 
0.54384613 0.362044662 0.88466686 -5.00141759e-05 87 52 13 0.808037281 
-0.45341152 -0.0103665469 1.26515126 -1.74036977e-05 86 65 26 0.966318071 
0.845071375 -0.12144202 0.244613588 -2.45169322e-05 116 79 26 0.541776299 
0.640409529 0.149562106 0.786749601 -4.55910049e-05 86 54 17 0.767303944 
-0.139208764 0.488521248 0.112889193 9.59353201e-06 125 96 50 0.486979216 
0.713049293 0.3576442 -0.55752182 -1.61863136e-06 108 84 28 0.208089486 
0.231765062 0.483732104 -0.067049332 -6.0282764e-07 88 59 20 0.41212514 
0.203516662 0.2157754 -0.67685312 -6.14358578e-06 96 88 69 0.158447891 
-0.908000052 -0.208304182 -0.483968705 4.44112811e-06 86 98 101 0.238687441 
-0.936895788 -0.0292188674 -0.170637667 7.37619121e-06 102 94 90 0.369032592 
0.163563535 0.326896369 -0.478999913 -3.11448093e-06 116 102 50 0.240754455 
1.32765353 0.120952897 -0.533524036 2.32167076e-06 95 68 23 0.218072519 
0.8393206 -0.275350094 -0.0856209621 1.25877559e-05 97 73 23 0.404399395 
-0.764382064 -0.314118534 0.0461332202 -2.11892475e-05 125 129 134 0.459208846 
-1.01289213 -0.106127888 0.671972454 1.67938415e-05 73 46 15 0.719556808 
0.978551865 -0.245261967 -0.754251778 3.55529482e-06 99 71 22 0.126250193 
0.94365114 0.265910178 0.478684664 -7.92351784e-06 99 78 46 0.639149487 
0.108554468 0.00429274607 1.0426755 2.55642226e-06 95 67 16 0.873768687 
-0.613465548 0.412552387 0.476014167 5.08333324e-06 105 82 29 0.638038576 
-0.300646275 -0.212317988 0.879200816 -1.41444616e-07 93 78 38 0.805763483 
-0.195310086 0.160116136 1.30418587 2.40276568e-05 102 74 26 0.982556522 
-0.0425019786 0.340597928 -0.438377529 6.3671032e-06 171 156 146 0.257653296 
0.714585543 -0.215457901 -0.973290443 -7.03841215e-06 80 55 14 0.0351305008 
-0.245019376 0.311962873 -0.359707147 2.29879515e-06 171 157 156 0.290380031 
0.70862025 0.247522756 -0.749752641 3.37445854e-05 102 84 25 0.128121823 
0.980397046 0.468152463 -0.056512747 8.02907743e-06 98 72 21 0.416508347 
-0.170599625 -0.422453046 -0.199573025 -2.15019973e-05 185 170 156 0.356995523 
-0.550126195 0.32742101 -0.114440151 7.89389014e-06 155 153 150 0.392410666 
0.706802845 -0.345209956 0.00160601025 -3.92834772e-05 98 76 22 0.44068563 
-0.562785447 -0.163869575 1.02203083 1.38570613e-07 98 82 33 0.865180552 
1.15963829 0.266518891 -0.549572647 4.63938341e-06 98 75 27 0.211396322 
-0.221317276 0.513959408 0.315849841 -3.45135049e-06 114 86 13 0.571410537 
0.827248335 0.0485603623 0.518761694 -2.89659947e-05 105 85 34 0.655821502 
-0.630354583 -0.318868309 0.429991066 2.35916523e-05 100 84 48 0.618893087 
-0.566372335 0.421529293 0.396435708 -1.97888585e-06 87 50 23 0.604934096 
-0.0254117083 0.341115147 -0.389948338 2.2675551e-05 116 105 89 0.277799726 
0.298716366 0.477033049 0.912406623 5.15201828e-06 88 59 16 0.819576979 
0.954669476 -0.17521885 0.0199345537 -2.67825089e-06 101 80 23 0.448310286 
0.45427072 0.274700284 0.995588064 3.42892017e-05 91 68 30 0.854180276 
0.252543896 0.234753698 -0.698463559 -3.76268872e-07 122 112 88 0.149457976 
-0.125855133 0.0915626362 1.25367498 -6.37532794e-05 88 59 15 0.961544096 
0.218506694 0.46936518 -0.231493652 5.68155519e-06 83 45 20 0.343716621 
0.940364718 0.0935039222 0.432002306 1.91940635e-05 81 47 8 0.619729698 
0.362062514 0.463272959 -0.297858566 1.09418761e-06 93 63 26 0.316108912 
-0.157054096 0.486411422 0.116646059 2.49890654e-05 124 96 49 0.48854208 
-0.594825625 -0.0813120678 1.18777657 4.07128209e-06 85 63 24 0.93413049 
-0.651307344 0.417757869 0.761463344 4.640111e-06 92 81 39 0.756784856 
-0.496206075 0.0615255199 -0.640945792 -1.25519e-06 165 174 181 0.173385262 
0.389141858 0.596056402 0.308913499 1.35950977e-05 112 83 21 0.568524957 
0.74117583 0.265244871 -0.688518047 1.07295928e-05 106 88 30 0.153595299 
0.415661633 0.329921365 -0.598378718 9.2873961e-07 87 70 36 0.191093087 
-0.0988549814 -0.0438646078 1.07396805 -1.94308232e-05 90 66 20 0.886786282 
1.25259268 -0.000792193227 -0.184740379 8.15191015e-06 92 63 14 0.363165885 
-0.219557077 -0.430617541 -0.0635579824 -2.78722655e-06 174 159 145 0.413577527 
-0.418702066 0.126175761 -0.603624284 -4.50763036e-06 176 183 185 0.188910946 
-0.522249937 0.263688236 -0.244634151 -2.83019035e-05 189 187 184 0.33825019 
0.496490359 0.0885617658 0.831962168 -2.22519157e-05 103 67 17 0.786112309 
-1.0220412 0.0218032077 0.439644396 -3.69750196e-05 32 15 3 0.622908831 
-0.461408824 -0.117575064 1.10156012 2.87002331e-06 100 75 29 0.898264587 
0.354932964 0.507841647 -0.138662994 7.10818858e-06 84 77 19 0.382333994 
-0.594892025 0.392401159 0.186493024 5.81349013e-07 109 88 37 0.517598331 
0.0287220106 -0.322824925 -0.634743273 2.79971719e-05 183 185 190 0.175965503 
-0.152222678 0.0259704199 1.18154538 8.33030936e-06 96 65 17 0.931538224 
-0.661162615 0.414630145 0.74189353 4.66051279e-06 94 81 40 0.748643875 
0.87207073 0.361497641 -0.497338891 4.78117727e-07 109 85 29 0.233125478 
0.306328356 -0.356459111 0.428092211 -6.80612284e-05 116 102 47 0.618103147 
-0.0401857756 0.484809607 -0.0570718162 2.16625631e-06 77 47 12 0.416275769 
-0.0356370434 0.38487801 1.16279876 -5.9187616e-05 95 67 22 0.923739672 
-0.638142288 -0.218715787 0.911712825 2.05797551e-06 102 86 42 0.819288373 
-0.79832238 -0.0604493581 1.12772834 4.63821925e-06 75 54 19 0.909150481 
-0.564152956 0.0186337922 -0.643519402 -6.88646105e-06 151 158 174 0.172314644 
-0.505411506 0.212429568 -0.367276371 4.28123167e-06 184 183 182 0.287231237 
-0.778535664 -0.319399536 -0.424690336 -3.00618121e-05 120 132 148 0.263347119 
-0.781392336 -0.311466932 -0.653595269 -6.04777597e-08 92 107 122 0.168123111 
-0.209661528 -0.327649385 -0.608269155 -1.28312076e-05 132 137 140 0.186978683 
0.322781563 0.393541396 1.0152812 9.35277712e-05 90 64 20 0.862372696 
1.01156044 -0.0234187245 -0.977135062 -3.24269058e-06 75 43 9 0.033531148 
-0.0385353677 -0.335263848 -0.590148211 1.41918608e-05 161 163 163 0.194516972 
0.851170123 0.503207088 0.334332675 9.8128221e-06 107 91 36 0.579099357 
0.107918993 0.33397615 -0.452616543 -6.36054028e-06 105 91 60 0.251729876 
-0.6532076 -0.134092182 -0.758440375 1.25105726e-06 120 137 157 0.12450774 
-0.157046467 -0.205731168 0.862484455 -4.05509709e-05 102 80 30 0.798809469 
-0.704290271 -0.241835669 0.790820718 3.63751315e-06 92 74 35 0.76899749 
-0.73729372 -0.319322586 -0.664686084 3.72484647e-06 98 113 130 0.163509354 
0.692447007 -0.371086091 -0.128017694 -1.17672025e-05 104 84 30 0.38676244 
-0.898760974 0.0741645545 0.0436556563 4.9858354e-06 103 109 97 0.458178192 
1.21161389 0.283950329 0.115649119 0.00010735658 5 4 6 0.488127351 
-0.896513462 -0.253656596 0.371670276 -7.0289243e-06 79 61 27 0.594631672 
-0.0660965219 -0.24326548 0.789843202 -3.23519052e-05 127 105 50 0.768590868 
0.525772333 -0.334203422 0.296733886 9.78559838e-05 108 91 35 0.563458264 
0.964533806 0.411676764 -0.346748203 4.96953726e-06 83 68 19 0.295770913 
0.382759839 -0.372056663 -0.582769454 1.62616016e-05 97 90 52 0.197586522 
-0.146737546 0.424678326 1.11885595 -8.63362493e-06 80 55 9 0.905459642 
-0.0730710104 0.315474421 -0.482901186 1.14904833e-06 211 198 187 0.239131525 
0.920194447 0.449189991 -0.266455501 6.45289765e-06 85 63 19 0.329172522 
-0.628556967 0.341448694 1.16330552 -9.19960439e-06 91 72 31 0.923950434 
0.683697522 0.033160314 0.651413023 5.38405729e-05 90 69 18 0.711004198 
1.29642212 0.212352842 -0.104693323 8.63336027e-07 5 3 2 0.396465331 
-0.503391027 0.442757756 0.383336514 6.56116754e-07 70 45 28 0.599484861 
0.843641877 -0.316523314 -0.238764092 -1.69020786e-05 119 97 39 0.340692103 
0.00406892458 0.529720008 0.0984362811 -1.50832057e-06 110 70 14 0.480966836 
-0.865197778 -0.261999816 0.0232257266 -6.87560532e-06 127 141 156 0.449679434 
0.138372838 -0.254805237 0.698723435 -3.79969424e-06 118 96 34 0.730685234 
-0.877096653 -0.286463141 -0.609286606 2.91082688e-05 78 90 101 0.18655543 
0.235568568 0.567741871 0.518871129 -1.5263824e-05 91 64 18 0.655866981 
0.743254244 -0.0890610516 0.424488634 3.30177136e-06 93 57 11 0.61660403 
-0.0898717046 -0.222099617 0.811412454 -2.06556924e-05 96 78 34 0.777563632 
1.17128301 0.184463874 -0.649837077 -1.66494283e-05 104 75 23 0.169686511 
0.843831778 0.416424423 -0.325403333 -2.78793595e-06 103 74 20 0.304650366 
1.32596838 0.167599991 -0.410211593 -8.99290899e-06 85 58 20 0.269370288 
0.286394775 -0.39554441 -0.410997719 2.65114068e-07 114 97 60 0.269043237 
-0.893368483 -0.265449762 0.165582046 2.67947325e-06 103 88 61 0.508899391 
-0.108351678 -0.179293528 0.913688064 5.3755648e-06 93 67 16 0.820110083 
1.00991011 -0.150490716 -0.0706575811 1.08941458e-06 83 60 16 0.410624117 
0.857701242 -0.281538725 -0.169163316 1.18399184e-05 94 65 11 0.369645894 
0.044625096 0.0709023848 -0.86444515 1.42061617e-06 143 150 164 0.0804099441 
-0.0621860139 0.134927094 1.21891522 -6.16421748e-05 91 63 17 0.94708401 
0.229047582 0.121691316 1.07460177 7.79808033e-07 89 62 18 0.887049913 
0.89479506 -0.124807931 0.218099564 1.77264446e-05 100 67 21 0.530746579 
-0.803464174 0.28510654 1.10284388 -1.47381797e-06 79 56 22 0.898798585 
-0.1784942 0.233202234 -0.590512514 1.37668394e-05 172 172 170 0.194365412 
0.478870869 0.0718488172 0.863887966 1.74567103e-05 100 65 17 0.799393296 
0.88365674 0.246346116 -0.686047912 3.69861373e-05 110 88 29 0.154622868 
0.614274442 0.0813048631 0.727733493 -1.32322311e-05 92 62 20 0.742753327 
0.728205919 -0.285360813 -0.790200233 -1.12936541e-05 85 57 16 0.111295693 
-0.76787442 -0.0678777918 1.1410234 4.59846342e-06 91 69 31 0.914681137 
-0.978755891 0.134938583 0.401055008 -1.70164276e-06 22 12 2 0.60685569 
1.15097594 -0.119759217 -0.836727917 -2.9871997e-05 90 52 10 0.0919402614 
-0.17987898 -0.225020096 -0.931854606 1.1913562e-07 82 92 96 0.0523677357 
0.115109339 0.531754196 0.83832711 -5.38758422e-06 107 73 23 0.788760066 
-0.529114187 0.353889108 0.0242284052 1.19837932e-05 112 102 73 0.450096548 
1.2352351 0.176779643 0.0570877157 4.028072e-06 8 5 2 0.463765889 
-0.0815377086 0.163525432 1.26269507 1.75736786e-05 81 58 18 0.965296328 
0.628425181 -0.122821368 0.496176511 -3.4247525e-05 105 74 19 0.646426022 
-0.174582437 -0.222126067 0.830966175 5.12893348e-06 89 73 29 0.785697937 
0.042080719 0.174130008 -0.746572852 6.10476127e-06 157 156 164 0.129444599 
0.113971576 -0.42831701 0.329619139 -7.77314126e-05 108 76 13 0.577138484 
0.0317774974 -0.224638462 0.761363268 -3.80599522e-06 93 75 25 0.756743252 
-0.669406414 0.229455084 -0.121519186 2.10927683e-05 152 156 148 0.389465779 
0.839475334 -0.0963749439 -1.00038409 -4.90098319e-06 73 43 12 0.023859594 
0.932485342 -0.0841188878 -0.982564032 1.10888504e-06 77 52 17 0.0312727056 
-0.168949693 0.525162518 0.733419001 5.00137685e-06 103 80 28 0.745118499 
0.304941326 0.0318701752 -0.907104254 1.71930878e-06 95 88 44 0.0626638383 
0.105256967 0.555714726 0.387028635 -2.77058534e-05 113 78 17 0.601020694 
1.35342193 0.125263765 -0.319960028 1.83423981e-06 70 61 28 0.306914777 
-0.954607546 -0.0926260054 -0.256680846 3.01000546e-06 66 71 71 0.33323878 
-0.97904706 0.0494670793 0.284163743 -1.81465875e-05 60 47 21 0.558229148 
-0.519240379 0.461437404 0.423427105 1.16661249e-06 95 73 23 0.616162419 
0.969523072 -0.282224447 -0.616675377 -6.34446042e-06 93 71 23 0.183481723 
0.125387743 0.444994897 1.03622842 -1.93447559e-05 94 65 19 0.871086597 
-0.0129073421 0.526475132 0.221425653 -5.74138539e-07 107 73 9 0.532130182 
0.3990964 0.597346604 0.347492009 2.98620853e-05 102 67 16 0.584573567 
-0.802207828 -0.294355035 0.328375071 8.58436397e-06 151 140 98 0.576620996 
-0.951496065 0.183373064 0.583642244 6.8230438e-06 72 51 22 0.682811618 
0.946030796 0.477001727 -0.100391448 4.40460281e-06 96 72 28 0.398254871 
-0.287818849 -0.391641915 0.439610064 4.24223254e-06 100 62 35 0.622894526 
0.170405805 -0.471965522 -0.0917587206 -7.44883528e-06 96 63 18 0.401846081 
-0.584939122 0.439131558 0.474550635 5.68480391e-06 111 86 28 0.637429714 
-0.330078542 0.416695982 1.14672971 -9.8649034e-06 81 56 17 0.917054951 
0.310337692 -0.398100913 0.325715899 0.000174441899 105 73 28 0.575514734 
-0.876163483 0.182364166 0.161713794 -3.09746247e-06 115 121 132 0.507290184 
0.0290371999 0.223940343 -0.67005378 5.7258585e-06 140 140 129 0.1612764 
0.417129427 -0.0302081294 -1.00010586 -3.0688243e-06 106 84 36 0.0239753388 
-0.05712099 -0.195931867 0.867682755 5.56261512e-07 131 106 43 0.800971985 
0.500967979 0.3822878 -0.51699245 6.12907752e-06 109 79 31 0.224949628 
0.89456898 -0.175443396 0.12789461 -2.68168515e-05 102 84 26 0.493221492 
0.720874608 0.0109404065 -0.953914344 -1.03489347e-05 93 65 17 0.0431909226 
-0.242596164 -0.427830637 -0.061283201 2.97560473e-06 185 172 159 0.41452384 
-1.01715016 -0.0515813492 0.668108642 1.47570099e-05 66 41 12 0.71794951 
-0.438291311 0.00881248899 1.25595045 -2.32456223e-05 82 63 25 0.962490678 
-0.972313344 -0.220639244 -0.27737245 1.91121508e-05 14 14 14 0.324631095 
-0.743295968 -0.0630803183 1.13132644 -2.84969574e-05 86 67 30 0.910647213 
-0.69288522 0.381212711 0.417983472 -1.8232502e-05 132 116 72 0.61389786 
-0.0535733253 0.523385763 0.895343542 -1.97144982e-06 122 88 22 0.81247884 
0.371990651 0.488683611 -0.0796140134 2.09861464e-05 98 60 21 0.40689826 
0.398992181 -0.375515759 0.26358369 -0.000192692154 139 110 36 0.549667835 
1.28407657 0.103835016 -0.208231598 -2.1767104e-05 94 69 24 0.353393584 
-0.650214851 -0.353396624 0.199972674 4.18105628e-06 185 185 188 0.523205817 
-0.930103302 -0.16873014 0.646122515 6.72764145e-07 55 43 17 0.708803356 
-0.41596657 -0.222660825 -0.870687127 -5.03232877e-06 105 117 129 0.0778132901 
0.422801346 0.0512648597 -0.904355943 1.78448608e-05 107 89 53 0.0638071299 
0.355060995 -0.453455836 -0.140823811 1.17791869e-05 103 92 41 0.381435096 
0.687405109 0.236515984 0.750708938 -2.57510692e-06 101 55 14 0.75231111 
