ply
format ascii 1.0
comment created by gply, a Houdini tool.
comment converted from .[b]geo
comment for more information about Houdini, try:
comment www.sidefx.com
element vertex 595
property float x
property float y
property float z
property float depth
property uchar red
property uchar green
property uchar blue
property float length
element face 0
property list uchar int vertex_indices
end_header
-0.0155694243 -0.0264785029 0.0115707712 -7.44771387e-06 86 64 23 0.867166936 
-0.0118145011 0.0191300102 -0.0130318133 2.36834749e-05 192 196 190 0.234731719 
0.0101519059 -0.00680827349 0.0150133753 6.54952601e-06 104 64 11 0.594407678 
0.033725217 0.0206887275 -0.00377547811 -9.02009197e-06 115 84 28 0.213117599 
0.00308896974 0.021955248 -0.0129375635 -5.84429529e-07 140 135 107 0.195555255 
0.0192428175 0.00515154423 0.0137646329 8.88039358e-06 89 62 15 0.428565592 
0.0292603578 0.0325277522 -0.00364284869 -0.00177158124 11 7 3 0.0489505045 
-0.0173542276 0.0182028189 -0.012877929 -2.18646164e-05 188 190 194 0.247588724 
-0.0109918267 -0.0270481557 0.011780764 -1.24387734e-05 93 65 15 0.875066161 
0.028723957 0.0318480954 -0.00403937185 -1.31999259e-05 72 43 11 0.0583750457 
-0.0207697079 0.015937306 -0.0128905308 1.77162729e-05 185 187 191 0.27900371 
-0.0218869131 0.00617429102 -0.0132446075 1.66161044e-06 198 200 202 0.41438359 
0.00401112204 0.0309046879 -0.0102838986 6.01731881e-06 99 86 47 0.0714568868 
0.0326989666 0.0149893323 -0.00364360423 9.72527778e-06 93 63 20 0.292148858 
0.00316594448 0.0197875481 -0.0135106174 3.71667647e-06 136 123 100 0.225613907 
0.00526980171 0.0198667832 -0.013471053 2.40220943e-05 96 85 49 0.224515185 
0.00937126577 -0.00783616118 0.0151136192 1.58477815e-05 126 93 25 0.608660996 
0.0339644849 0.0147296274 -0.0017379534 -7.62270065e-06 89 58 12 0.295750082 
0.00250275433 -0.0130109126 0.015366233 -1.62188844e-05 94 57 9 0.68041724 
0.0330746882 0.00881690718 0.000336348778 -1.42479257e-05 91 63 24 0.377739459 
-0.0341045037 -0.00301280478 0.000137108611 -3.55334487e-06 76 58 28 0.541777432 
0.022250073 0.0343986638 -0.00745830173 -6.28235284e-07 49 32 8 0.0230073258 
-4.8732385e-05 0.0162123255 -0.0143811833 -3.55569136e-06 121 118 86 0.275190115 
-0.0337533504 -0.00811896101 0.00265880302 9.94186848e-08 26 15 3 0.612582505 
0.0252833255 0.00762896379 0.0114317313 -3.52192146e-05 92 66 23 0.394212216 
0.00993827172 -0.00779081229 0.0151727581 -2.06033292e-06 111 72 13 0.608032167 
0.0257938411 -0.00395873841 0.000157020055 -1.777547e-05 87 58 17 0.554894269 
0.0326425061 0.0130034322 -0.00275115925 4.95684799e-06 80 55 19 0.319686562 
-0.0186291337 0.0194410831 -0.0126079349 7.92842184e-06 167 174 179 0.230418205 
0.00407972699 0.0289020911 -0.0110349813 -8.35509127e-06 102 96 59 0.0992261469 
0.00492137438 -0.0140451295 0.0152500747 1.53802393e-05 93 60 11 0.694758356 
0.0124822669 -0.00480077043 0.0149321584 -1.9025174e-07 120 75 13 0.566570461 
0.0125668086 -0.00893994886 0.0147060016 1.46736857e-05 106 81 28 0.623966813 
0.0264393352 0.0338915512 -0.00537909754 4.18451964e-05 6 5 2 0.0300392583 
-0.00607451005 -0.0291325226 0.0106686056 2.94449273e-06 94 64 18 0.903969288 
-0.0290239565 0.015678253 -0.000516279833 -3.42726707e-06 131 146 161 0.282595873 
0.00196443917 -0.0128033077 0.0153186275 -2.20112415e-05 100 62 16 0.677538455 
0.0163246598 -0.00181315932 0.0146501968 -2.35959014e-05 120 95 28 0.525142431 
-0.0220864266 0.0117968526 -0.0129849026 3.15552461e-06 185 192 194 0.336417735 
-0.0165015589 0.00914145075 -0.0141120758 -1.80304378e-05 210 202 197 0.37323913 
-0.016713988 0.007583661 -0.0142074795 -1.18406606e-05 190 184 178 0.394840419 
-0.0316064842 0.0112764947 -0.00157900783 -5.75685408e-06 104 113 126 0.343633324 
0.0257561486 0.00907506235 0.0110334633 -1.55958114e-05 92 64 20 0.374159694 
-0.00410464546 -0.0233025365 0.013463404 -6.9109924e-06 93 68 20 0.823127091 
0.00770290149 -0.0078321537 0.0151666375 -7.88432662e-05 103 62 9 0.608605444 
-0.00284188217 0.0257758088 -0.0113608511 -3.32840136e-06 153 156 153 0.142577052 
-0.00967995822 -0.0289333314 0.0110762753 5.55625593e-06 94 60 13 0.901207089 
-0.0040761237 -0.0239172876 0.0132493814 -2.21645387e-05 108 76 26 0.831651628 
-0.0308068767 0.0174906962 -0.00318476255 4.82291216e-06 104 118 133 0.257463485 
-0.0216365624 0.00772453658 -0.0132641857 -1.82120129e-06 171 172 168 0.392886937 
-0.0333761685 -0.0104518197 0.00375747448 4.38682036e-07 60 44 17 0.644931316 
-0.00159588014 0.0194040332 -0.0135271829 -9.38452285e-06 145 135 122 0.230931953 
-0.0273370203 0.0248121619 -0.00576212397 3.89240449e-06 99 114 132 0.155939549 
-0.0239802338 0.0088662412 -0.0127514331 -6.61681406e-06 170 176 178 0.377055377 
-0.0299748294 0.00758663658 0.00147152506 -1.22417696e-05 114 127 131 0.394799143 
0.00766802998 0.0314329416 -0.0104151554 -6.73389877e-07 81 74 36 0.0641318262 
-0.00747325737 -0.0294274539 0.0106774438 2.24434189e-06 99 68 18 0.908058941 
0.00047514122 0.015881015 -0.0144776758 -7.65053483e-06 121 118 86 0.279784262 
0.0047256262 -0.0122366929 0.0153385503 6.35684264e-05 108 78 23 0.66968143 
0.0245241839 0.00448824419 0.0118732331 -3.29992035e-05 99 74 20 0.437763333 
-0.031544067 -0.0266221687 0.00516677788 6.4818887e-06 63 46 15 0.869159102 
-0.0335169658 -0.0027077687 0.00095213647 5.35493018e-06 69 56 29 0.537547588 
0.0331894308 0.0162216611 -0.00356072909 -2.03028321e-07 97 67 21 0.275060683 
0.00694534043 -0.00717642438 0.0153002078 -8.98317376e-06 97 62 14 0.599512637 
-0.00198821304 0.018998703 -0.0136146247 -1.59773699e-05 122 112 98 0.236552507 
0.000225335825 0.0261420123 -0.0115727885 -3.31187402e-06 103 104 91 0.137499049 
-0.0276480541 0.0262567103 -0.00773713784 3.17784725e-06 96 105 118 0.135908574 
-0.0226524919 0.0184165388 -0.0123690134 -6.53945972e-06 160 165 180 0.244625151 
0.0172428824 0.00157554029 0.0143575957 -6.63182145e-05 122 84 23 0.478152663 
-0.0217793733 0.0168311149 -0.012659953 -2.27306737e-06 180 187 194 0.266609579 
-0.00622167857 0.0150720989 -0.014374271 -2.02149749e-06 192 182 174 0.291001171 
-0.019440271 0.00934607349 -0.0136141526 -7.82274674e-06 129 129 127 0.37040171 
-0.0036212625 -0.0236643031 0.0133259874 -1.90107094e-05 108 76 26 0.828143597 
-0.032593742 5.73769212e-05 0.00118838903 5.65953087e-06 76 58 29 0.499204427 
0.0213337243 0.00424545817 0.0131819332 -2.38290522e-06 90 68 24 0.441129953 
0.0105526485 0.0328524746 -0.00999597274 1.23631617e-06 77 66 20 0.0444477051 
0.0127331074 -0.00706581399 0.0150254807 1.73308072e-05 100 74 20 0.59797889 
-0.0086506512 0.0155248521 -0.0141398637 -3.61654384e-06 166 162 155 0.284723014 
0.019703351 0.0355766267 -0.00654394599 1.31243723e-06 45 28 9 0.00667299377 
-0.020429654 0.0182643048 -0.0126376105 4.46259219e-06 158 165 171 0.246736124 
0.00444245106 -0.0176772699 0.0146021405 -2.50407029e-05 101 68 18 0.745123804 
-0.0229321979 0.00871665496 -0.0129754925 4.75236448e-06 175 179 178 0.379129589 
-0.0184145868 0.00712652877 -0.0139255775 -1.76591857e-05 199 197 193 0.401179284 
-0.033181835 -0.0135198822 0.00450077699 1.67998951e-06 57 40 16 0.687474906 
-0.0124536883 0.0190929063 -0.0129993344 -2.36509877e-05 181 185 181 0.235246226 
0.017663423 -0.00750555564 0.0134435305 2.59329099e-05 104 61 12 0.604076624 
0.0214424767 0.00366987125 0.0131634669 -1.05943691e-05 110 78 29 0.449111372 
0.0278778728 0.0021833065 -0.00201085513 -2.66310526e-05 99 69 26 0.469724983 
0.00738972751 -0.0090006683 0.0152016738 -2.25216281e-05 106 66 11 0.624808729 
-0.028474642 0.0127906948 0.00114722946 1.1913944e-06 147 159 173 0.322636515 
-0.0205133352 0.00883325748 -0.0134348199 1.20408367e-06 174 174 171 0.377512753 
-0.01616727 -0.0300529189 0.0102172215 -1.96491601e-06 83 60 20 0.916732013 
0.00488380017 -0.00846735667 0.0153129408 1.14363938e-05 89 59 14 0.617413521 
-0.00461256644 0.022212714 -0.012452336 3.21690459e-06 179 180 180 0.191985101 
0.0152483806 0.0352068171 -0.00836511049 -1.20016921e-06 78 52 14 0.0118009849 
-0.00709127728 0.0133710625 -0.014644105 -1.47638493e-05 180 169 159 0.314588785 
-0.0241865907 0.0123738777 -0.0125875082 -3.71475471e-06 177 184 190 0.328416377 
-0.0294340327 0.0157392807 -0.000913913944 -9.59262252e-07 135 151 166 0.281749636 
0.0253528208 0.00946329534 0.0111804288 -2.16356129e-05 102 77 29 0.368776262 
0.00507976534 -0.0127378879 0.0153157013 2.2428605e-05 106 77 12 0.676631272 
0.0136166215 -0.00491287652 0.0150051443 -3.84599043e-05 105 84 26 0.56812495 
-0.0245442148 0.0127605041 -0.0125429928 -1.73938752e-05 166 171 180 0.323055148 
-0.00518305274 0.0218856819 -0.012529254 1.26346567e-05 156 158 160 0.196519911 
0.0291415248 0.0318804905 -0.0054638749 2.04716343e-06 56 39 15 0.0579258278 
0.0127620585 -0.00322796078 0.0147265019 -6.18302656e-05 83 52 8 0.544760883 
-0.0101451976 0.0109443115 -0.0147522949 -8.58676503e-06 192 178 174 0.348239601 
-0.0316933952 0.0166510567 -0.00395755935 5.39096072e-06 103 110 125 0.269106418 
0.00189787522 -0.0186717249 0.0145769967 -2.63846523e-05 94 70 22 0.758913457 
0.0148649924 -0.00380612072 0.0148561122 3.43862484e-05 114 88 26 0.552778006 
-0.0144104362 0.0147180259 -0.0136829847 2.95143836e-05 188 187 182 0.295910954 
-0.00670385547 0.0235056095 -0.0119269984 -1.01853802e-05 169 176 178 0.174057022 
0.00301411282 0.0265292041 -0.0116838813 3.11623444e-06 106 107 94 0.132129997 
-0.0309899766 0.0116377026 -0.000874388323 1.40995689e-06 127 137 154 0.338624597 
0.00886836089 0.0340858214 -0.00918997824 1.81364157e-06 85 70 23 0.0273453593 
-0.00660907943 0.013636603 -0.0146330791 -3.87887849e-05 185 173 163 0.310906619 
-0.0334370285 -0.0186193548 0.00461754017 3.61993443e-06 82 59 25 0.758187294 
-0.0250924658 0.00918020308 -0.0124995932 -8.85868212e-06 170 172 176 0.372701794 
-0.0202837754 0.0108743319 -0.0133640552 9.3242852e-07 204 205 205 0.349209964 
-0.00913134404 0.0257079974 -0.0113280974 -1.86088073e-07 150 156 158 0.143517345 
-0.00786737539 -0.0281603672 0.0114648342 -9.78834032e-06 90 76 20 0.890488744 
-0.0284269955 0.0255895294 -0.00763845164 4.90265666e-06 89 97 106 0.145160094 
-0.0217100624 0.017441418 -0.0125992652 -1.51312415e-05 164 172 178 0.258146763 
-0.0158178788 0.0100723635 -0.0141080078 -3.13522469e-06 205 198 192 0.360330522 
0.00394791784 -0.0154667096 0.0151249031 8.27172189e-05 118 80 24 0.714470804 
0.0184378065 0.0010614926 0.014200802 1.65632227e-05 94 70 20 0.485280752 
-0.028428793 -0.0211375579 -0.0079039298 4.32788511e-06 93 76 35 0.793106198 
0.0130497329 0.00252847373 0.0151362969 -4.61770378e-06 107 79 26 0.46493867 
0.0157142412 0.0324249193 -0.0100241462 3.25657311e-07 67 41 8 0.0503764376 
0.0148904268 -0.00320964213 0.0148524391 -3.48570975e-05 111 82 20 0.544506907 
0.0333879814 0.0199014116 -0.00419237372 1.00157922e-06 88 62 18 0.224034995 
-0.00988844223 -0.0284046084 0.0113453306 -3.33598018e-06 97 58 12 0.893875599 
-0.0317316912 -0.00128661981 0.00296567287 5.47722448e-06 66 57 42 0.517841101 
-0.0192490648 0.0168677531 -0.0129391169 -7.48281309e-06 166 168 171 0.266101539 
0.00693586702 0.0331114195 -0.0095730694 7.29032035e-06 90 73 41 0.0408570543 
-0.034512341 -0.0185271986 0.00326237734 -5.50661935e-06 53 27 6 0.75690937 
-0.0306941569 0.00903024711 0.000272052828 6.33345917e-06 139 154 169 0.374781162 
-0.00514694583 0.0206040554 -0.01298049 1.5011261e-05 174 172 169 0.214291722 
-0.0211076289 0.00770304771 -0.0133685712 2.98529631e-06 160 161 158 0.3931849 
-0.0223975424 0.00896386057 -0.0130753126 -7.94927473e-06 174 178 177 0.375701696 
-0.00289253378 -0.026534237 0.0119469054 -2.76695573e-05 104 69 20 0.86793977 
0.000333774369 -0.0239537172 0.0128549347 -5.2729607e-05 98 64 15 0.832156777 
-0.00768277002 -0.0300029926 0.0102998847 1.32130226e-05 91 61 16 0.916039705 
-0.0129597653 -0.0294406079 0.0107523082 3.45665139e-05 92 61 17 0.908241391 
-0.0338057689 -0.0202565566 0.00413703499 3.0255178e-06 96 67 28 0.78088969 
0.0139385108 -0.0121621201 0.0136556309 4.10639332e-05 101 66 18 0.668647349 
-0.0346786976 -0.0107951751 0.0020295959 -7.67759047e-07 44 24 7 0.649692476 
-0.0102609145 0.0322451442 -0.00668113539 -2.80823733e-05 96 107 114 0.0528693199 
0.034072414 0.0250151455 -0.00225403742 -1.90734863e-06 90 54 13 0.153124854 
-0.0315162279 0.0183996707 -0.00471559679 -3.14806766e-06 84 95 102 0.24485904 
-0.0322086364 -0.000512424856 0.00202707411 -1.8668361e-06 84 67 37 0.507105649 
0.0229574479 0.00945548434 0.0121036461 -1.11579429e-05 111 90 24 0.368884563 
-0.0326916277 -0.00602960959 0.00338455196 -1.28580723e-06 81 60 27 0.583610237 
-0.0284505263 0.0184289627 -0.00143404282 8.84418841e-06 123 135 151 0.244452894 
-0.0158938393 -0.0324406698 0.00901748054 -9.7360462e-06 93 75 28 0.949842036 
-0.0190584119 -0.0317216478 0.00897719804 1.62832112e-05 90 68 27 0.939871669 
-0.0290916916 0.0147285117 -0.000150951557 2.358458e-06 125 140 153 0.295765549 
-0.0150043108 0.0164464004 -0.0133292917 -7.18920273e-06 174 174 174 0.271944284 
-0.00503506092 0.0246686675 -0.0115869613 -8.22703805e-06 151 157 161 0.157929331 
-0.0205240455 0.0189496614 -0.0125117563 -3.62298742e-05 155 163 170 0.237232566 
-0.0313995108 0.0171094202 -0.00377356005 6.75197225e-06 104 117 131 0.262750447 
-0.0141491331 0.0203666538 -0.012601709 3.97401891e-06 168 170 174 0.217583686 
0.0118107665 -0.00782647822 0.0151437959 8.84779729e-06 97 68 15 0.608526766 
-0.0337886624 -0.0235919319 0.00333799329 9.84955113e-06 68 49 25 0.827140033 
-0.0266482923 0.0264982283 -0.0070809084 8.29144847e-06 97 114 140 0.132559523 
0.000527397264 0.0252158642 -0.0119077628 2.16434564e-05 113 107 92 0.15034157 
0.008900268 0.030577559 -0.0107833389 -2.08270649e-06 90 77 32 0.0759930611 
-0.0241055265 0.00733599626 -0.0127173094 1.35156442e-05 162 161 169 0.39827466 
0.0273565371 -0.00161399739 0.000225505792 4.44159377e-06 83 57 17 0.52238071 
-0.0339489542 -0.0208351128 0.00389107084 3.25962901e-09 66 42 14 0.788912356 
-0.0298448596 0.00819008704 0.00140471291 -3.22255073e-06 124 137 145 0.386431307 
-0.00461253291 0.0215728357 -0.0126819639 2.60193337e-05 178 179 173 0.200857997 
-0.0231386889 0.0122770593 -0.0127710793 -1.78185292e-06 162 169 174 0.329758883 
-0.00399731239 -0.0244423263 0.0130430972 -1.33564172e-05 105 72 23 0.838932097 
0.00116492249 0.0286303461 -0.010866981 -6.98462827e-07 94 94 73 0.102994286 
-0.0230867583 0.00743707875 -0.0129536884 5.67731331e-06 123 126 125 0.396872997 
-0.028030606 -0.0311674103 0.00551277725 0.00105454994 75 56 22 0.932186306 
0.0162143875 -0.00357425772 0.0145174796 -9.83479549e-06 89 68 20 0.549562871 
0.0230770316 0.00883018039 0.0121305957 6.61355443e-06 112 90 26 0.3775554 
0.0344681405 0.0152514605 -0.000851485471 1.44657679e-06 95 63 15 0.288514048 
-0.0157845188 0.0192914102 -0.0127393827 1.37475217e-06 177 180 183 0.232493639 
0.021645464 0.0344251618 -0.00766214961 2.13249587e-06 56 36 10 0.0226399079 
-0.0357574821 -0.0139131853 0.000875838334 -8.97957943e-06 29 23 14 0.692928731 
0.0248642117 0.0343299769 -0.00601035682 6.57478813e-06 6 5 5 0.0239597671 
0.0253801662 0.0340972655 -0.0059995479 8.09400808e-06 4 3 3 0.0271866936 
-0.0336663947 -0.010968335 -0.00640744017 1.39183248e-05 32 19 4 0.652093649 
-0.0178611763 0.00715000462 -0.0140362978 -4.96759458e-06 207 199 194 0.400853753 
-0.00914527196 0.0180141591 -0.013502175 -2.85673013e-06 187 187 184 0.250204802 
-0.0327093564 -0.0238547288 0.00487649022 8.74410034e-07 77 61 31 0.830784142 
-0.0285988729 0.0190713741 -0.00195684889 -1.23877544e-06 115 127 143 0.235544816 
-0.0223624967 0.0123799453 -0.0128994668 7.66069934e-06 173 176 180 0.328332216 
-0.014458606 0.00767451897 -0.0145671302 2.22241215e-06 175 168 163 0.393580496 
-0.0242780317 0.013286598 -0.0125653837 -2.02155497e-05 150 157 164 0.315760016 
-0.0293514095 0.0109279864 0.000954709714 -5.37512824e-06 146 157 172 0.348465949 
-0.0166871678 0.0165939238 -0.0131815523 -1.16958108e-05 175 176 179 0.269898623 
0.00488091959 0.0304447263 -0.0105511388 8.77442653e-06 95 86 43 0.077835016 
-0.00682451576 -0.0285109915 0.0111984825 -2.41265952e-05 97 65 15 0.895350695 
-0.00199934957 -0.0261914432 0.0120464303 -9.08482616e-06 98 69 20 0.863186419 
-0.00478233304 -0.025211215 0.0127602611 4.17490082e-06 90 60 15 0.849593937 
-0.0327044688 -0.00709779281 0.00369278062 -5.32265403e-06 40 27 8 0.598422348 
-0.0128869116 -0.0322554298 0.00919891708 -2.78725929e-06 94 69 24 0.947273433 
0.0120057315 0.0325751826 -0.0101312455 -1.89995399e-06 80 71 43 0.0482928306 
-0.0335386284 -0.00748194568 0.00275251083 1.49729749e-06 74 53 21 0.603749216 
-0.0320899747 0.00544970017 -0.000258843997 -1.91642321e-05 129 127 126 0.424431175 
-0.0299033001 0.0190127213 -0.00309371063 6.42135274e-06 107 125 142 0.236358136 
-0.031300094 0.00789556187 -8.74868128e-05 1.06391963e-06 113 133 144 0.390515387 
0.00329490611 -0.0155251464 0.0151489796 1.39123295e-05 99 68 9 0.715281129 
-0.00868057925 -0.0265242457 0.0122158369 4.88831938e-06 128 97 36 0.867801309 
-0.0119880019 -0.0307232365 0.0101574045 2.59870103e-06 99 69 22 0.926027119 
0.00998215191 0.0305933096 -0.0108098965 2.41250291e-06 82 68 24 0.075774692 
-0.0342370421 -0.0218044072 0.00331119262 1.29941618e-05 53 33 10 0.802353084 
0.0179648772 0.0350679681 -0.00805710256 1.98403723e-06 60 41 12 0.013726349 
0.0169483442 0.034649469 -0.00866162404 2.10285361e-06 86 59 16 0.0195295196 
-0.0123289563 0.0266610682 -0.0111195734 -3.60566337e-05 137 148 160 0.130301535 
-0.0306236949 0.0162526313 -0.00234071421 8.56223051e-06 107 125 138 0.274631202 
-0.0020789383 -0.0256886482 0.0122794518 -2.07691337e-05 101 70 17 0.856214345 
-0.0124140717 0.0105034132 -0.0145364609 -1.77936745e-05 199 188 186 0.354353338 
-0.0337036513 -0.024199646 0.00285824621 0.000454774679 67 50 26 0.835566998 
0.0107451454 -0.00947767962 0.0151622435 1.41571218e-05 97 70 17 0.631423295 
-0.00171742775 0.028316509 -0.0106873503 -8.90741649e-06 108 114 111 0.107346177 
-0.0310484972 0.0208274648 -0.00588350836 -9.02218744e-09 91 103 118 0.2111938 
-0.0150578804 -0.0299723074 0.0103921704 -2.97408405e-06 82 59 20 0.915614247 
0.0206423439 0.00242322125 0.0134652909 -2.71891768e-05 94 68 22 0.46639818 
0.00668338174 -0.0152344266 0.0148633132 2.58127402e-05 99 72 24 0.711249828 
-0.016305076 -0.0143633178 -0.0110122282 7.81007839e-06 111 87 26 0.69917053 
-0.0220114626 0.0162157603 -0.0126891183 1.23219215e-05 195 203 210 0.275142461 
-0.000127769541 0.0282724276 -0.0108534107 -1.20530167e-05 120 119 115 0.107957438 
-0.00439721532 0.0238516554 -0.0118831303 5.81629865e-06 159 162 160 0.169258535 
0.00909765437 -0.00962178875 0.0153334877 -3.14508725e-06 107 70 13 0.6334216 
-0.0314240307 0.0196755566 -0.0054754531 1.46729872e-06 94 106 115 0.227166831 
-0.0075386418 -0.0274326727 0.0118181696 3.27283487e-06 89 63 14 0.880398095 
0.00780830393 -0.0140603697 0.0148914689 -9.7660959e-06 109 79 24 0.694969654 
-0.0238190163 0.00941367354 -0.0127775948 -3.95816169e-05 166 172 174 0.369464338 
0.0285967123 0.0289721005 -0.00678530382 -1.3187062e-05 87 52 10 0.0982553586 
-0.0312049259 0.00499593839 0.0010477195 -9.59465979e-07 113 125 140 0.43072331 
0.0269172136 -0.00293088192 0.000753906788 -7.73376087e-06 96 59 17 0.540641427 
-0.0248798747 0.00963398907 -0.01253998 -8.23818846e-06 170 172 176 0.366409302 
0.0314252339 0.00525424769 0.00024546613 -2.280224e-05 93 61 26 0.427141428 
-0.0182060674 0.017392138 -0.0129572917 -7.709481e-06 190 192 195 0.2588301 
-0.00459979614 0.0209464915 -0.0128994025 3.77446122e-06 169 170 163 0.209543273 
0.00923009776 -0.0165036693 0.0136578577 2.35837069e-05 96 71 19 0.728849947 
-0.00344039174 0.0204760358 -0.0131266955 7.1264476e-06 142 141 134 0.216066912 
-0.0332743265 -0.0029995339 0.00147252833 1.17253512e-06 76 61 34 0.541593373 
0.0184937865 0.0347803719 -0.00823176093 1.43800571e-05 78 55 19 0.0177143458 
-0.0312872604 0.012521713 -0.00154893845 -5.74780279e-06 119 131 145 0.326366395 
-0.0245625619 0.00899403356 -0.0126197441 -2.3186265e-05 175 182 184 0.375283301 
-0.0225499794 0.0113871219 -0.012936973 9.90451372e-06 177 184 185 0.342099309 
0.0052242768 0.02786294 -0.0114189871 7.44769932e-06 91 85 57 0.113635637 
-0.0232122373 -0.0332195945 0.00688481331 -2.50118319e-06 106 85 34 0.960643113 
-0.0294360872 0.0226322636 -0.00554191694 5.80016058e-06 103 121 140 0.186167359 
-0.0302458741 -0.0292427354 0.00497864839 0.000111591886 89 64 30 0.905497491 
-0.000834408449 -0.02248412 0.0135642393 1.77098027e-05 102 74 19 0.811778426 
-0.00923522562 0.0288393125 -0.0103809321 -4.14986698e-06 125 139 153 0.100096643 
0.000997120049 0.0281420238 -0.0110167088 -1.99262286e-06 103 105 88 0.109765664 
-0.00119419629 0.0274497494 -0.0110071832 8.3057239e-07 154 165 178 0.119365193 
-0.00657084771 -0.0254486017 0.0126956115 -6.83448889e-08 91 73 27 0.852885783 
-0.0308535546 -0.0282385238 0.00506233564 1.0971562e-05 68 47 16 0.891572595 
0.0337365344 0.0157327205 -0.00257806573 1.74157685e-05 88 59 13 0.281840593 
-0.0088204965 0.02031409 -0.0128532052 -7.76891829e-06 171 177 176 0.218312562 
0.0288703796 0.0326123536 -0.00482914178 6.00448402e-06 4 3 2 0.0477773845 
-0.0269263368 0.000319025014 -0.0112242205 3.58585094e-05 141 147 152 0.495576262 
0.0179993864 0.0346673727 -0.00844590552 9.45189822e-06 76 53 16 0.0192812178 
-0.0243823919 -0.0332427584 0.00644445233 0.000226360629 89 71 30 0.960964262 
0.00997794047 0.0343583599 -0.0091207996 -3.44596629e-07 74 59 22 0.0235662144 
-0.0139415022 0.0261418931 -0.0112576811 -6.62709772e-06 140 148 158 0.137500718 
-0.0294419713 0.0133355251 7.44431745e-05 6.45592809e-06 136 151 166 0.315081567 
-0.0286853518 0.0237588584 -0.00591087714 -1.64669473e-06 101 119 138 0.170545325 
-0.0244069789 0.0045867227 -0.0125749987 1.59615302e-05 129 132 128 0.436397761 
-0.00412199087 0.0280695409 -0.0106125949 3.4513545e-05 137 151 149 0.110770799 
-0.0281147342 0.0260609388 -0.00799395703 -3.19461105e-06 97 107 118 0.138623267 
-0.00959824491 0.0215617605 -0.0124561768 -9.67430424e-06 160 166 167 0.201011583 
-0.0170985218 0.01555721 -0.0133238528 1.15686889e-05 192 192 194 0.28427434 
0.00881928019 -0.0116404528 0.0152352331 -3.68906476e-05 95 63 12 0.66141367 
0.0068385019 -0.016976431 0.0142453806 6.08981645e-05 114 71 17 0.735405445 
0.00226811273 0.0331330672 -0.00894304365 -8.70777876e-06 84 82 47 0.0405568331 
-0.0331800319 -0.00162785361 0.0010049867 3.78349796e-08 85 66 34 0.522572875 
5.61056659e-05 -0.023209624 0.0132068507 -1.61477365e-05 106 73 16 0.821838737 
-0.00341750402 0.0258817375 -0.0112841344 3.5118137e-06 120 122 114 0.1411082 
-0.00621323753 0.023941379 -0.0117975147 -9.61463229e-06 165 171 174 0.168014377 
-0.0042997445 0.0232835039 -0.0120893214 4.59549483e-08 158 160 163 0.177136838 
-0.0286602397 0.0241920017 -0.00633481471 -1.74550223e-06 97 111 128 0.164539099 
0.00224999711 -0.0181666017 0.0146851754 -2.41017733e-05 98 66 11 0.751909137 
0.0158287939 0.0350471213 -0.00845937338 1.16086958e-05 80 54 13 0.0140154148 
-0.033120852 0.000181287061 0.000302524073 -2.56823841e-06 82 65 31 0.497486204 
0.0336584523 0.0120676449 -0.000938842539 8.10667098e-06 100 74 19 0.332662761 
-0.0311564896 0.00268874085 0.00208922708 -3.25660221e-06 118 123 114 0.462716311 
0.0343603566 0.0146689378 -0.000795900938 -3.02988337e-06 101 63 17 0.29659164 
-0.00116752344 0.0281018354 -0.010804452 -1.30521075e-05 155 164 172 0.110322945 
0.00273100194 -0.0197268762 0.0141605167 1.61102798e-06 110 75 16 0.773544848 
-0.0247293264 0.0105763078 -0.0125508886 3.86696775e-06 162 169 174 0.353342563 
0.00878376141 -0.0104979333 0.0153492698 -6.13261727e-06 101 73 16 0.645570755 
-0.0225569345 0.00711367326 -0.0130793964 4.59171133e-06 138 138 136 0.401357532 
0.0017798366 0.0294708349 -0.0106236152 -3.12781776e-06 84 83 53 0.0913395658 
-0.00403071288 0.021242965 -0.0128389308 2.46986674e-05 178 179 173 0.205432191 
-0.0151980743 0.0183359534 -0.0129289655 -5.12629776e-06 188 188 191 0.245742574 
0.0198694672 0.0353822932 -0.00707869837 -6.86706335e-06 6 4 2 0.00936771091 
0.0284159649 0.0321779214 -0.00392100867 -7.92617502e-05 76 47 13 0.0538014807 
-0.0301344078 0.0108831376 0.000245750649 -7.64499418e-06 122 135 149 0.349087864 
0.00880320929 -0.0143095991 0.0144667504 7.20852113e-05 99 66 13 0.698425591 
-0.0191300735 0.0186241809 -0.0127128102 5.0024646e-06 171 177 183 0.241745844 
-0.0307923798 0.0144334752 -0.00167689705 -4.32180241e-06 117 131 145 0.299856722 
0.0117721185 -0.0134609556 0.0137946336 1.81330397e-05 90 66 15 0.686657786 
-0.0329326689 -0.0104898838 0.00428828597 -5.60485933e-06 58 41 13 0.645459116 
0.0329517424 0.00987593364 -0.00076217961 9.17294528e-06 115 78 26 0.363054365 
-0.00169447437 0.0317241549 -0.0093533583 4.0979794e-06 97 108 104 0.0600936897 
0.0319132805 0.0131434593 -0.00370214554 -1.08237145e-05 92 66 23 0.317744851 
-0.0186773147 -0.0338551439 0.00741462316 1.92519256e-05 84 66 28 0.969456017 
-0.0344999731 -0.0220564678 0.00259507634 -6.48899004e-07 45 24 6 0.80584836 
0.0141216014 0.0356725305 -0.00794303045 2.45905539e-07 32 23 7 0.00534311589 
-0.0226073992 -0.0315805972 0.00820467249 -6.34818571e-06 84 68 30 0.937915742 
-0.0310280584 0.0138448905 -0.00171202153 3.28430906e-06 110 123 137 0.308018386 
-0.0227859169 0.01279171 -0.0127973799 -1.45708327e-06 159 165 170 0.322622418 
0.0340670422 0.0233664028 -0.00293499557 1.1115917e-05 104 68 18 0.175987318 
-0.00437945407 -0.0220289379 0.0138491476 -3.93558003e-06 101 64 17 0.805466592 
-0.0245137606 -0.0322229043 0.00705902372 -1.59706688e-05 94 75 32 0.946822345 
-0.0130123328 0.0259720311 -0.0113102254 -1.24796879e-05 147 156 166 0.1398561 
0.0193691105 0.0349310637 -0.00786153134 -1.69059786e-06 51 35 12 0.0156247364 
0.000941344071 0.0275394768 -0.0112075647 3.00041575e-06 109 111 96 0.118120983 
-0.00239130505 0.029040955 -0.0104067586 -1.31807028e-05 130 136 149 0.0973005593 
-0.0309021808 0.02053966 -0.00542055583 1.85100362e-07 98 111 127 0.215184644 
0.0125307404 0.0311276354 -0.010618981 1.051656e-06 95 79 51 0.0683653951 
0.00150897028 0.0272301771 -0.0113617042 1.2276214e-06 99 100 87 0.122409917 
-0.00781054981 0.0245710947 -0.0116382372 -9.58399505e-06 140 146 148 0.159282357 
-0.0100038992 0.0177215897 -0.013508183 6.41199586e-06 176 176 173 0.254261732 
0.00364073599 0.0332208015 -0.00906421524 8.25049938e-07 104 90 50 0.0393402949 
-0.026263414 0.0260225907 -0.00619882019 -1.62288779e-06 109 126 145 0.13915503 
0.00368329464 0.0279392786 -0.0113126766 2.37147069e-05 104 101 74 0.112577043 
0.00440494297 0.034087047 -0.00856982358 -4.91001992e-06 73 60 30 0.0273283999 
0.00919517875 -0.0101029137 0.015343043 -8.46319563e-06 103 82 24 0.640093148 
-0.0197899528 0.0204673819 -0.0122736171 2.89375748e-06 158 166 174 0.216186896 
-0.00198445679 0.0246078819 -0.0118437167 -7.36134825e-06 170 171 168 0.15877223 
0.0263892245 0.00559854275 0.0109328339 -2.16299231e-05 92 62 18 0.422367275 
-0.030739028 0.0100043211 -8.83906614e-05 8.41228757e-06 136 146 160 0.361274064 
-0.00802531932 -0.0276844762 0.0117036533 -2.72554098e-06 83 72 17 0.883889794 
0.03269694 0.0269213244 -0.00378631335 -1.65145029e-05 88 55 16 0.126692638 
-0.0332148038 -0.015717756 0.00470047258 1.07957749e-06 61 45 16 0.717951953 
-0.0309540574 0.00654282328 0.00078648678 6.85476698e-06 106 119 126 0.409273267 
-0.0336173475 -0.0161333866 0.0042819255 -8.137431e-07 57 42 15 0.723715305 
0.00419176882 -0.0171707757 0.0147893792 -1.32019231e-05 97 65 17 0.73810041 
-0.0142476577 0.0192692075 -0.0128114475 -2.73063779e-05 184 186 190 0.232801527 
0.0342409872 0.0219357684 -0.00278172479 -1.55565795e-06 90 61 18 0.195825368 
-0.0332484357 -0.000659923535 0.000459957868 -4.08210326e-06 63 48 20 0.509150922 
-0.01683373 0.0185543075 -0.012837043 -6.08237679e-06 175 178 181 0.242714778 
-0.000490285922 0.0254435576 -0.0117231151 4.03297599e-06 126 127 122 0.147184238 
0.00710509298 0.0309067927 -0.0105628846 -3.33889329e-06 87 73 42 0.0714277029 
-0.00176962954 -0.0219825357 0.01381627 -1.04298015e-05 100 70 22 0.80482322 
-0.00630092761 0.0283043683 -0.0104724178 1.01771311e-05 122 127 134 0.107514493 
-0.0316771008 0.00917223748 -0.000992824906 -1.00554898e-05 99 124 139 0.372812212 
0.00429350743 -0.0159146823 0.0150480801 -2.706534e-05 118 80 24 0.720682681 
0.0337576382 0.0162729137 -0.00277201878 -1.06284861e-05 89 65 15 0.274349958 
-0.0323527977 -0.00205146102 0.00245341379 1.04797073e-06 85 72 48 0.528446853 
0.0160579607 0.0328264572 -0.00983077288 2.5667614e-06 75 48 13 0.0448085032 
-0.0311454833 0.00446429756 0.0013319056 -2.80921813e-06 112 125 140 0.438095391 
0.00179082947 -0.0171224661 0.0149450852 6.0238599e-05 91 60 13 0.737430573 
-0.0313948877 0.0165750794 -0.00347631797 -4.69211955e-06 102 112 130 0.27015993 
-0.00326332403 -0.0248474889 0.0128193917 3.80096026e-07 96 64 19 0.844550371 
-0.0118715866 -0.0279310308 0.0113949161 -7.62095442e-06 88 66 20 0.887308598 
-0.033246547 0.00217624428 -0.00067550363 1.67486724e-06 65 48 25 0.469822943 
-0.0133580361 -0.0310317166 0.00997376349 1.59301653e-05 90 63 20 0.930304646 
0.00103040598 0.0320171863 -0.00941866264 2.86847353e-06 95 89 56 0.0560303405 
-0.00115447026 -0.0219573453 0.0137768183 4.191685e-05 99 72 21 0.804473937 
0.0288443137 -0.000234106556 0.000932777999 2.45252158e-06 91 62 18 0.503246307 
-0.00998112187 0.026334025 -0.0111575853 6.95185008e-06 165 170 180 0.134836465 
-0.00449461304 0.0250308998 -0.011491647 -4.54682231e-06 156 160 159 0.152906433 
-0.0303614084 0.00939930324 0.0005167895 4.35806578e-06 137 149 163 0.369663596 
-0.0142040513 -0.0313846096 0.00974268466 -2.95952486e-06 90 64 23 0.935198069 
-0.0291148089 0.0186795276 -0.0021519002 -1.76407411e-06 106 122 138 0.24097839 
0.000427688472 0.0278997608 -0.0110365991 -4.58279101e-06 110 111 101 0.113125049 
-0.00288889068 -0.0206305943 0.0142505756 4.10450339e-05 96 65 14 0.786076427 
0.0175788216 0.0357985683 -0.00696136057 5.50840923e-06 49 34 11 0.00359543553 
-0.00765656726 0.022725828 -0.0121522946 8.89211515e-06 171 178 176 0.18486993 
0.0340476967 0.0196270458 -0.00323146535 -2.3665285e-05 91 64 25 0.227839544 
-0.015740959 -0.0309962332 0.00978232827 -3.32346099e-06 85 61 23 0.92981261 
0.0323591158 0.0156221548 -0.00430348003 9.10821836e-06 98 69 24 0.283373773 
0.0310893599 0.0312787406 -0.00208483776 1.17102172e-06 62 46 15 0.0662700832 
-0.00932077318 -0.0316320844 0.00936791301 1.0338279e-05 93 64 18 0.938629746 
0.033036761 0.0106420964 -0.00116531481 7.96199311e-06 98 68 12 0.352430284 
-0.00503901485 0.0253431201 -0.0113894781 -8.55302733e-06 155 160 167 0.148576975 
0.0330938473 0.00922620203 3.39566031e-05 3.60049307e-06 95 65 20 0.372063935 
-0.0208739527 0.0120016057 -0.0131775029 -2.21360824e-06 195 197 201 0.333578497 
-0.00519483117 -0.0229588784 0.0135534517 1.29917389e-05 101 73 14 0.8183617 
-0.0348198079 -0.0113984449 0.00194762042 -1.86543912e-06 45 23 5 0.658057749 
0.00961243734 0.0317412242 -0.0104092108 -7.02639227e-08 94 75 37 0.0598569699 
-0.0169974137 0.0148825673 -0.0134302583 8.38618871e-06 175 175 175 0.293629318 
0.00648145424 -0.0179001205 0.0140247764 -3.90261703e-05 105 68 15 0.748213947 
-0.0318525061 0.00375383091 0.000708987238 3.23529821e-06 86 86 64 0.447947115 
-0.0145205632 -0.0309216604 0.00996188261 -3.06041911e-05 86 60 21 0.928778529 
0.0351581424 0.0198832825 -0.00046135881 4.74206172e-06 88 59 20 0.224286377 
0.0349944569 0.0216509029 -0.000812757411 -6.10458665e-06 96 60 19 0.199775502 
0.0164838023 0.0344941728 -0.0088636335 6.8041154e-06 94 66 20 0.0216829535 
-0.00279309205 -0.0223573633 0.0137451934 1.84985402e-06 96 67 19 0.810020745 
0.00935302116 0.0326765589 -0.010017667 7.75484659e-06 101 82 45 0.0468870774 
-0.00999954157 0.0239971764 -0.0118081924 -1.1561393e-05 171 178 183 0.167240635 
-0.0127203036 -0.0299695618 0.0105070183 1.20200893e-05 92 62 18 0.91557616 
0.00474436348 0.0281919837 -0.0113010211 7.70310726e-06 95 89 53 0.109072909 
-0.0325862765 -0.0222529992 0.00528000202 1.31840352e-06 74 55 25 0.808573604 
-0.00610742206 0.02746832 -0.0107574603 2.39859583e-06 146 151 159 0.119107693 
0.0347512923 0.0176078957 -0.00119264587 4.91179526e-06 94 61 17 0.255838275 
-0.0180546287 -0.0314732566 0.00922165718 -3.73773219e-06 93 72 28 0.936427295 
-0.0129131116 0.0160385408 -0.0136194797 -4.0915711e-07 176 178 174 0.277599931 
-0.029324377 0.00912263244 0.00160584622 -1.27086823e-05 109 118 132 0.373500109 
-0.0296427235 0.0177156981 -0.00207747263 -7.812283e-06 111 128 142 0.25434342 
-0.0339126624 -0.0099472953 0.00295014819 1.88242848e-06 52 34 11 0.637935281 
-0.00741241872 -0.0269445144 0.012053052 -5.38492714e-06 94 64 16 0.873629034 
-0.0326359309 0.00294155627 -5.84917143e-05 -7.28439773e-07 71 61 37 0.459210634 
-0.00738873798 -0.0249401666 0.0128389942 1.13042115e-05 93 67 21 0.845835447 
0.00723859156 -0.0159780718 0.0144533226 3.44514265e-05 96 64 16 0.721561611 
0.00772204855 0.0299503542 -0.0109304227 7.34464265e-07 87 78 37 0.0846902579 
-0.00195810338 0.0251406878 -0.0116597535 -2.24532778e-06 146 148 146 0.151384041 
0.022054689 0.00219653221 0.0129517103 -1.27296953e-05 76 50 12 0.469541609 
-0.0178533643 0.022377748 -0.0120075578 -2.20757174e-05 168 174 184 0.18969664 
-0.0327750631 0.000443681842 0.000730352709 -1.57841714e-06 86 62 41 0.493847668 
0.0164867099 0.0336707532 -0.00938345678 -1.6189555e-05 82 56 15 0.0331009738 
-0.030736411 0.00450513186 0.00182015006 -1.32401474e-05 130 141 146 0.437529117 
0.0331438556 0.0258003362 -0.00368386786 -8.70160875e-06 84 53 13 0.142236963 
-0.0338952653 -0.0121442089 0.00343854399 2.46946001e-06 61 46 18 0.668399036 
-0.032383766 0.00489189662 -0.000471414765 -1.13280257e-05 115 111 99 0.43216601 
0.0121459551 0.030720152 -0.0107531585 1.31575434e-05 100 83 56 0.0740158036 
0.0341261141 0.0143014984 -0.00118488225 -7.9832389e-06 99 61 19 0.301686794 
0.00531430868 -0.0160619393 0.0149311358 -3.27476409e-05 104 76 16 0.722724617 
-0.0239868164 -0.0324138924 0.00716979988 -5.39575994e-05 96 76 32 0.949470699 
-0.0292139128 0.0181057975 -0.00190037885 -1.51505228e-05 106 119 133 0.24893409 
-0.0151805449 -0.0326042287 0.00898147095 -4.19087955e-05 93 72 28 0.952109993 
-0.0304329917 -0.0290577449 0.00485075638 0.000403087295 87 63 29 0.902932346 
0.0298751201 0.00677706255 -0.00257612416 1.90752326e-06 104 69 28 0.406025171 
0.0177443121 -0.00432813354 0.0139002586 -5.48399403e-05 110 83 26 0.560016513 
-0.00396510679 0.0204725452 -0.012490226 1.35973823e-06 166 165 157 0.216115296 
-0.0113787502 -0.0275560617 0.0115705812 -1.76265021e-05 92 65 17 0.882109046 
-0.0282633454 0.0241142772 -0.00587321166 2.55252235e-06 97 115 133 0.16561684 
-0.0105313975 -0.0284147263 0.0113249831 -2.02888696e-05 99 58 12 0.894015849 
-0.0332156532 -0.0128444927 0.00437517883 4.03885497e-06 64 46 19 0.678109527 
0.0322367437 0.0164939053 -0.00474776886 -1.78112532e-06 101 73 26 0.271285534 
-0.0299885403 0.0231780559 -0.00674339524 -3.64315929e-06 89 101 113 0.178599045 
0.0315686092 0.0110798012 -0.00309217046 -1.41575874e-05 96 66 29 0.346360803 
0.0300396029 0.00383902225 -0.000674937619 -2.17104098e-05 86 58 9 0.44676581 
-0.00837423839 0.0235852115 -0.0119031137 -4.66605998e-05 155 161 161 0.172953188 
0.0272253174 0.0336337276 -0.00331045128 2.16549961e-06 26 19 8 0.033614412 
-0.0286046993 -0.0307224244 0.00535493298 0.0009035361 77 56 21 0.926015794 
-0.006847254 0.0220744163 -0.0123773078 -8.32354999e-07 174 174 174 0.193902791 
-0.028812971 0.0122950943 0.00100391917 -4.251051e-07 149 163 176 0.329508811 
-0.0313806981 0.0101153813 -0.000904586108 -1.8581748e-05 124 143 154 0.359734029 
-0.0112875421 -0.0299793519 0.0105048222 2.17267007e-06 90 63 16 0.915711939 
-0.00358730089 -0.0253620781 0.0126045886 -1.21577614e-06 102 68 20 0.851686001 
0.0325518958 0.0120853065 -0.00242149667 -3.82976432e-05 95 66 23 0.332417846 
0.0156039689 0.0359566845 -0.00708798924 2.46309683e-05 67 45 13 0.00140287541 
-0.0288769212 0.0173664056 -0.00119127065 -2.97135557e-06 118 133 148 0.259186953 
-0.0306674987 0.0170890018 -0.00279998267 5.66086965e-06 107 122 139 0.263033569 
0.0344862193 0.0166045986 -0.00147572858 5.74966543e-06 87 59 15 0.269750625 
-0.000279158819 0.0245967247 -0.0120368805 1.32040004e-05 124 121 108 0.158926934 
0.00517731858 0.0309369639 -0.0103903078 1.19793876e-05 87 73 33 0.0710093528 
-0.0268950425 0.0247942433 -0.0053695417 -1.67067628e-06 106 122 140 0.156188026 
-0.0335653014 -0.0218014494 0.00425945362 -1.75612513e-06 74 58 28 0.802312136 
0.00292278267 0.0285010636 -0.0110801151 1.93909727e-06 104 101 75 0.104787022 
-0.0208645742 -0.0331169181 0.00776075479 -2.71092576e-05 98 76 32 0.959219277 
-0.012233898 0.0276784897 -0.0108508766 -1.33495823e-05 124 137 148 0.116193332 
0.00665853405 0.0312410854 -0.0104079759 -3.14982344e-06 100 93 58 0.0667922273 
0.00795987435 0.0304315053 -0.0107834451 1.22227357e-06 86 74 33 0.07801833 
-0.0326922983 0.00109342113 0.000583225861 -8.01356509e-06 114 86 61 0.484838009 
0.0326621905 0.0262834914 -0.0041878866 -6.78328797e-06 82 51 12 0.135537237 
-0.0282174796 0.0168211777 -0.000388189452 7.50448089e-06 140 155 170 0.266747385 
-0.0314634927 -0.00160315167 0.00338221854 1.44902151e-06 131 125 112 0.522230268 
-0.0300676879 -0.0285086967 0.00569365453 -1.88016566e-05 70 49 20 0.895318866 
-0.0332898162 0.00101415813 -0.000278254272 6.62176171e-06 55 47 22 0.485937119 
0.0284313764 -0.000512954313 0.000575336395 -2.23836978e-05 94 64 19 0.50711298 
-0.0249402244 -0.0325027257 0.00661509391 6.96105417e-07 82 63 26 0.950702548 
0.010432139 0.030859217 -0.0107285343 8.4187177e-06 100 83 33 0.0720874071 
-0.0313363895 0.00944805518 -0.000639972161 -6.99574593e-06 117 133 146 0.36898759 
0.0231314301 0.0345567428 -0.00685733045 -1.84393139e-06 5 4 4 0.020815311 
0.0344870985 0.014404689 -0.000300945947 2.94492202e-06 104 66 19 0.300255895 
-0.0293721966 0.0128566073 0.000286367722 3.72325303e-06 138 153 168 0.321722537 
0.0264390521 0.0335058235 -0.00602279045 -3.23727727e-06 23 14 4 0.035387978 
-0.0316157565 0.0178441443 -0.00452348311 8.65454786e-06 101 112 122 0.252562314 
-0.0325248316 -0.0251694694 0.00466252537 1.67475082e-06 69 48 20 0.849015117 
0.0281540994 -0.000190391205 6.29365677e-05 1.15893781e-05 80 56 15 0.502640128 
-0.0316967666 0.00553372269 0.000242405804 3.43448482e-06 124 132 142 0.423266113 
-0.0347244255 -0.0196995586 0.00283780741 5.47256786e-06 38 19 4 0.77316606 
-0.0284115151 0.0212899931 -0.00335780415 4.55288682e-06 114 128 143 0.204780117 
-0.00586301414 0.0262553468 -0.0105713448 -8.66234313e-06 115 120 126 0.135927469 
-0.030615231 0.0153453564 -0.00190163672 -1.44667465e-05 123 137 159 0.287212014 
-0.0250027981 -0.0320546739 0.00692558941 -1.4875317e-05 90 72 30 0.944489598 
-0.0257390942 0.0263583586 -0.00616289675 8.45629984e-07 106 123 140 0.134499058 
0.0345378742 0.019846946 -0.00227169972 7.13393092e-06 85 56 20 0.224790275 
-0.0306487232 0.0209989399 -0.00547651667 1.15949661e-06 97 110 125 0.208816022 
0.0326529443 0.0092881117 -0.000831087644 7.10133463e-07 104 68 16 0.371205449 
0.00178518659 0.0288997255 -0.0108351447 -3.35741925e-06 104 103 73 0.0992589295 
0.0128023382 -0.0126168029 0.0137571441 2.2400025e-05 99 69 16 0.674952269 
0.0321939029 0.0116491206 -0.00263629691 -2.34162435e-05 102 71 28 0.338466257 
-0.0303334631 0.00158572081 0.00350982137 -7.64569268e-06 107 109 117 0.478011459 
-0.018577341 0.022163637 -0.0120220128 -2.05931756e-05 165 171 180 0.192665622 
0.0338048823 0.0117651168 -0.000386591186 3.59769911e-05 94 69 21 0.336857796 
-0.0320064984 0.00898867846 -0.001394241 1.00058969e-05 93 115 134 0.375357568 
-0.0273862835 0.0239630342 -0.00491581764 -7.15500937e-06 115 135 154 0.167714089 
-0.0335081853 -0.00428856723 0.00165507034 -5.61471097e-06 73 55 25 0.559467912 
0.00702190911 0.0283182226 -0.0113825379 1.95757093e-05 78 71 36 0.107322425 
0.00784275867 0.0290796906 -0.0112097291 4.81620373e-06 100 90 52 0.0967634469 
-0.00287239114 0.0305414647 -0.00982645899 8.31560465e-06 121 131 125 0.0764935538 
0.0244198199 0.0343913622 -0.00625373796 8.21991125e-06 7 6 5 0.0231085904 
-0.0311651006 0.0011337332 0.00273793656 3.11282929e-06 106 101 89 0.484279007 
0.00474920357 0.0288213454 -0.0111078657 -2.51041638e-06 104 97 56 0.100345813 
-0.0331546366 -0.00925719179 0.00374208484 1.54442387e-06 36 22 6 0.628365874 
0.0334294736 0.0240868889 -0.00384938996 -1.73939625e-05 97 61 16 0.165996626 
-0.00089158304 0.0245357789 -0.0119929044 4.65514313e-06 116 118 109 0.159772053 
0.0151373502 -0.00971432496 0.0137777608 2.12727628e-05 94 67 16 0.634704769 
0.00579553517 0.0308546834 -0.0104775177 1.21820485e-05 88 81 44 0.0721503198 
0.0182938538 -0.00324629759 0.0138046639 -2.22561139e-05 75 48 5 0.545015156 
0.00807227008 0.0325103253 -0.0100038694 8.43488669e-06 85 74 41 0.0491921864 
0.0313363932 0.00603979221 -0.000435345341 1.24091966e-05 105 70 23 0.41624859 
0.0100462809 0.0326310061 -0.0100724855 -3.26223198e-06 93 69 29 0.0475187413 
0.0190670621 0.0345225185 -0.00833121222 -6.96818461e-07 80 49 14 0.0212898962 
0.0267561879 -0.0016677673 -0.000574783422 -1.4383113e-06 98 67 24 0.523126304 
-0.0300767906 0.0196354743 -0.00370946247 6.45141699e-06 103 119 136 0.227722645 
0.0231590103 -0.00158826262 0.0122251511 -1.83948487e-05 87 60 21 0.522023857 
-0.0020091217 0.0231537372 -0.0123598734 1.99622227e-05 164 163 170 0.178936273 
0.00073309755 0.0314699858 -0.00965734199 -1.78128539e-06 109 106 77 0.0636181384 
0.0303017516 0.00430804165 -0.000644794316 -5.58161992e-06 87 59 8 0.440262109 
-0.0321082249 0.00751697831 -0.00104181259 1.14583818e-05 105 117 123 0.395765036 
0.00308383582 0.0303137265 -0.0104282284 5.2093601e-06 99 93 56 0.0796515271 
-0.0349065401 -0.0133656664 0.00224755425 5.05440403e-06 92 65 28 0.685336471 
-0.0278754961 0.0141210845 0.0011460383 9.11043026e-06 150 162 172 0.30418852 
-0.00133928726 -0.0248945877 0.0125894956 -1.65944148e-05 88 61 14 0.845203459 
0.0158233978 -0.00848846976 0.0138533479 5.11160761e-06 92 64 16 0.617706299 
-0.029255271 0.0175655112 -0.0016359135 -3.33429489e-06 112 126 140 0.256426007 
-0.0288930032 0.0243863463 -0.00676869042 5.11412509e-07 93 110 125 0.161844194 
-0.033141803 -0.0142440433 0.00463116216 4.59013972e-06 58 42 17 0.697516561 
-0.0304286685 0.0176392905 -0.00282211276 1.83636439e-05 102 117 134 0.255402923 
-0.0303457566 0.0218971372 -0.00591516308 -2.13389285e-07 94 111 128 0.19636108 
0.0297900941 0.0321586207 -0.00341364369 -0.00226931227 14 9 3 0.0540690981 
0.0291336868 0.0314943418 -0.00404282566 -2.44262628e-06 80 48 13 0.0632803962 
0.0298582558 0.00625561783 -0.0023353803 -3.12409247e-05 96 62 23 0.413255841 
-0.00289596175 0.0287299268 -0.010473581 3.29306931e-06 115 121 136 0.101613477 
-0.0332973264 0.00380994659 -0.00147327431 8.15727981e-06 70 52 23 0.447168976 
-0.0334571376 -0.00207024999 0.000759283779 4.8201764e-07 69 52 24 0.528707325 
0.0213309992 0.0347963646 -0.00738570094 -7.21268589e-06 10 8 5 0.0174925756 
-0.00191904977 0.03008366 -0.0100647975 -6.94875052e-06 117 121 128 0.082841754 
-0.0284509286 0.0222467408 -0.00420641853 -1.23598147e-06 108 124 142 0.191513255 
-0.030251896 0.0118302004 -0.000162558514 1.39013864e-05 114 125 140 0.335955322 
0.0348321423 0.0162255056 -0.000446533435 -2.76262872e-05 81 54 17 0.275007337 
-0.0289879218 0.0132926777 0.000481213909 -3.87977343e-06 139 154 169 0.315675706 
-0.0307007451 0.00951383449 0.00010887091 1.48612307e-05 124 136 150 0.36807546 
0.0140469149 0.0331481099 -0.00984296948 -4.43527824e-07 70 46 13 0.0403482765 
-0.0311032422 0.0100203753 -0.000525335548 5.04474156e-06 130 142 155 0.36105147 
-0.0316232555 0.0124741821 -0.00201529986 1.06586376e-05 114 124 136 0.327025473 
0.00719230203 0.0289164707 -0.0112240687 1.0118536e-05 100 90 52 0.099026747 
0.0321683548 0.00825941563 -0.000823683455 -7.4824784e-06 101 64 17 0.385469973 
0.0278513636 -0.00131485239 0.000534695806 -2.75194179e-06 95 67 21 0.518232584 
0.0336807035 0.0195369534 -0.00377552351 -1.07870437e-05 99 72 26 0.229088798 
-0.0311232004 0.0106062666 -0.000726757455 4.45765909e-06 130 139 158 0.352927119 
-0.0297698975 0.019533027 -0.00330867572 -3.81140853e-06 111 131 149 0.229143232 
-0.0246873982 0.0275097117 -0.00676187268 5.04194759e-07 109 126 144 0.118533701 
-0.0312491506 0.0148161966 -0.0024260222 1.01622427e-05 114 128 145 0.294549674 
0.0337996855 0.0250417329 -0.0028888043 -1.02709746e-05 83 51 12 0.152756169 
-0.032135237 -0.00370446872 0.00331129692 1.03877392e-06 64 49 17 0.551368415 
0.00843121856 -0.0173140764 0.0136279436 5.31007245e-05 105 77 24 0.740087509 
-0.0115840659 0.0228881426 -0.0120664788 -1.50567694e-05 170 177 182 0.182619214 
-0.00155133498 -0.0257945322 0.012196051 6.01758074e-06 97 69 20 0.857682586 
-0.00817348436 0.0276509002 -0.0106977364 1.52562061e-05 153 170 181 0.116575882 
-0.029603757 0.0210892372 -0.00434051314 -1.64628727e-06 94 108 123 0.207563877 
0.00597109972 -0.0182858221 0.0140273394 -5.2263611e-05 104 63 10 0.753562331 
0.0321636647 0.00786221866 -0.00053161371 -6.00666681e-06 108 71 25 0.39097774 
0.0205674246 0.0344295353 -0.00800970849 1.04458304e-05 76 45 11 0.0225792583 
0.0335180908 0.023481261 -0.00385550084 -2.34943291e-05 97 62 17 0.174394637 
-0.00132944924 0.029285498 -0.0103982799 -5.34247374e-06 110 116 117 0.0939095914 
-0.0326501653 -0.0244675465 0.00477479864 5.00120223e-07 83 59 25 0.839281797 
-0.0337471142 -0.0190653577 0.00426094467 8.04837327e-07 52 32 8 0.764371812 
-0.0306109078 0.0132230958 -0.000956652046 1.8052524e-06 118 130 143 0.316640586 
-0.0310234129 0.00955703203 -0.00028579426 5.15894499e-06 112 125 139 0.367476463 
-0.0310774967 0.0169699527 -0.0032462955 4.13297676e-06 106 119 135 0.264684379 
-0.0329510979 0.00378770614 -0.000889102172 4.33158129e-06 64 52 26 0.4474774 
-0.0333689339 -0.00620959233 0.00257060351 2.69163866e-06 70 49 20 0.586106002 
0.00653799297 0.0343536697 -0.00868367404 6.6452485e-06 69 66 45 0.0236312281 
-0.0316331349 0.0173044782 -0.00423077494 6.56885095e-06 99 111 122 0.260045677 
0.00159819797 -0.0221286081 0.0134514291 2.95995269e-05 101 69 15 0.806848705 
0.0334943384 0.0189521052 -0.00393998809 2.6357593e-05 85 62 14 0.237198651 
0.0334277041 0.014860332 -0.00264648837 -1.01324404e-05 95 62 16 0.293937653 
0.0175777096 0.0338801108 -0.00910758879 -9.42042971e-06 94 67 21 0.0301978737 
-0.0131248049 0.0238162391 -0.0118690869 3.48550611e-06 167 169 176 0.169749632 
-0.0282811634 0.0189055949 -0.00159294682 4.48453648e-06 124 137 153 0.237843603 
0.0109852552 0.031846676 -0.0103983767 1.1106411e-05 97 83 31 0.0583947338 
0.0198800396 0.0350081511 -0.00763397617 2.69433076e-06 40 26 9 0.0145558063 
-0.0315273143 0.00436770963 0.000890010502 4.73496038e-06 82 92 100 0.439434737 
-0.0157267191 0.0228433907 -0.0120178787 -1.04114588e-05 156 163 168 0.183239758 
-0.029398825 0.0247164965 -0.00768226665 6.43747626e-06 89 105 122 0.15726614 
-0.0291127563 0.0195095763 -0.00267494726 3.09114694e-06 107 126 145 0.22946842 
0.0140625648 0.0336014591 -0.00963058695 1.52672874e-06 66 40 10 0.0340618193 
-0.0301850084 0.00650013518 0.00163430488 1.08438544e-05 117 129 133 0.40986523 
-0.0329094976 -0.0247736536 0.00429528113 1.13313436e-05 75 48 17 0.843526483 
0.0309682768 0.00681142509 -0.00141080632 -8.93182005e-07 65 42 6 0.405548692 
-0.0128299836 -0.0309166797 0.0100479079 6.44042848e-06 113 80 29 0.928709388 
-0.0282062646 0.0245321393 -0.00623805728 -8.33021477e-06 91 108 123 0.159822524 
0.0159364101 0.0338943787 -0.0093273595 3.59628757e-06 79 54 14 0.030000031 
-0.01246663 0.0241502449 -0.0117988996 -3.59415344e-06 165 167 173 0.165118098 
-0.0341797322 -0.018901512 0.00371561898 4.60841693e-06 91 57 21 0.762099862 
-0.0288024843 0.0185084119 -0.00177878269 -1.47972896e-05 118 130 145 0.243351206 
-0.00182600017 -0.0246975087 0.012737765 2.89428863e-06 94 65 15 0.842470706 
0.00198233081 -0.0217246972 0.0135532618 1.39277254e-05 105 72 17 0.801247835 
0.0136094037 0.0338561796 -0.00951591693 -2.98670784e-07 75 49 13 0.0305297114 
