ply
format ascii 1.0
comment created by gply, a Houdini tool.
comment converted from .[b]geo
comment for more information about Houdini, try:
comment www.sidefx.com
element vertex 610
property float x
property float y
property float z
property float depth
property uchar red
property uchar green
property uchar blue
property float length
element face 0
property list uchar int vertex_indices
end_header
0.0236795079 -0.00113140233 0.165677384 -0.00108669873 175 133 68 0.564348936 
0.259311169 0.0312505439 -0.21937193 -0.000110843714 159 142 86 0.405664146 
0.120961048 -0.192938432 -0.201832905 -0.000478251313 176 157 109 0.160350889 
0.271623939 -0.140394077 -0.0317574553 0.000530275458 168 154 94 0.28960827 
-0.177484393 -0.222022891 0.117720969 -0.00158182532 219 220 226 0.297347546 
-0.017985329 -0.362894982 -0.0350109003 7.69258259e-06 173 180 184 0.0482570753 
-0.030698441 0.261265785 0.122079358 -0.000516337459 174 150 90 0.857386112 
0.323865175 -0.0394040644 -0.222577021 -0.000203048257 160 136 64 0.315986931 
-0.120682545 -0.039801117 -0.130297661 -6.18059712e-05 178 177 158 0.392514735 
0.114758395 0.140541464 0.0761153921 -0.00153210945 171 144 71 0.682664633 
-0.171046436 0.183393881 -0.063245967 4.68126382e-06 171 159 110 0.690422833 
0.000897399732 0.0376303606 0.174081251 -0.00107840006 167 145 82 0.615660369 
-0.0927333012 0.143512368 0.196966946 -4.00787467e-05 177 164 115 0.758203506 
0.356592804 -0.0639350861 -0.215222731 3.48419417e-05 150 135 86 0.287988633 
0.0941190496 0.277863353 -0.0449332856 -9.00996965e-05 160 129 70 0.789826035 
-0.269367874 0.176410601 0.239914671 -0.000400589255 156 146 104 0.830465257 
0.374061346 -0.0820973665 -0.201000229 -0.00146142312 126 108 72 0.27185303 
0.288825005 0.0513816252 -0.0668558627 -0.000102285878 169 149 94 0.497900128 
-0.219643921 0.256301999 0.00346553884 -6.41474617e-06 173 155 99 0.811004877 
0.295686811 -0.126552656 -0.0448068082 -4.84597986e-05 164 145 93 0.298006833 
0.118416198 0.00427357666 -0.218394265 0.000172568674 184 161 84 0.385167986 
-0.147548914 0.191223145 0.211631015 0.000861200911 161 145 93 0.825424016 
0.060086064 0.150411531 -0.168492183 0.000444844161 163 142 79 0.584957957 
0.0670170411 -0.0478778444 -0.206914634 0.000168891915 181 153 114 0.333013892 
0.278374106 0.123816177 -0.115650311 0.000334845507 92 71 49 0.561380506 
-0.0647273883 0.0394860953 -0.150080368 0.000452552893 153 130 71 0.472429782 
0.0439339392 -0.327381909 -0.0307126492 -0.000248584634 171 171 153 0.0873266533 
0.0194876976 -0.174473614 -0.167875171 0.000138750765 177 167 131 0.20566161 
0.131746203 -0.139587045 0.0681870133 -0.000425196777 167 153 113 0.347697973 
0.202388614 0.131579846 -0.00512104016 -5.85913658e-05 165 135 69 0.627667725 
0.211493492 0.1541235 -0.033583954 0.000429773703 169 142 82 0.640312493 
0.00565586891 -0.26403603 0.033365801 3.9628816e-05 219 219 217 0.19462958 
0.0669912174 0.126154631 0.120205596 0.000701752841 175 149 73 0.689852893 
-0.163673133 0.327127457 0.167034596 -0.000178361486 175 152 95 0.966053903 
-0.116635479 0.196390703 -0.0857750252 0.00097843213 170 142 89 0.69109422 
0.279224426 0.129618496 -0.138272837 -9.70835099e-05 66 55 46 0.557649851 
0.00799346715 0.268050909 -0.0894929916 0.00055838254 166 144 82 0.764203727 
-0.163719058 0.148202509 0.218097016 0.0011456192 162 153 110 0.778991222 
0.0915630534 -0.308599114 -0.0287845805 0.000103758073 162 157 125 0.106686667 
0.135156155 -0.101596475 0.080859378 -0.000565807568 170 146 106 0.398069322 
-0.180973828 -0.302734256 -0.0269239079 9.25025088e-05 175 184 193 0.135403618 
0.334802717 -0.266482264 -0.186515599 -6.22634543e-05 150 118 64 0.064394556 
-0.0944085792 0.347713917 0.0867538899 -0.000468771264 166 143 96 0.94771868 
-0.263519734 -0.308069199 0.0637474954 0.00012096297 168 181 193 0.177548215 
0.324971884 -0.160749838 -0.0801939592 0.00138658879 175 157 104 0.239048228 
-0.109596662 0.350329548 0.0981685817 -0.000399609649 153 131 76 0.957265139 
-0.0417520404 0.212786764 -0.108385801 0.000842042558 182 160 84 0.694158435 
0.189279735 -0.0868227929 -0.225045577 0.000210143553 170 151 80 0.269326657 
0.0764796212 0.257423788 0.0375452451 -0.000988429761 162 135 74 0.80538702 
-0.10271915 -0.0545553006 0.184225276 0.000129589695 163 142 117 0.519740462 
-0.0115014147 0.0431733094 0.170948789 -6.56032171e-06 175 152 76 0.621688664 
0.0449549332 0.281016797 -0.0708606243 1.40024931e-05 159 139 78 0.785284758 
0.282684654 -0.297130734 -0.115966037 0.000252277649 155 128 71 0.0650427714 
0.160643965 -0.101408035 0.066273883 -0.00100880326 175 142 83 0.389562666 
0.276074708 -0.0816001147 -0.0141512584 -2.3731438e-05 157 135 87 0.366695285 
0.187982023 -0.208347142 0.00681996625 0.000636980578 162 146 102 0.233895808 
-0.107067324 0.0155480551 -0.125011429 -0.000315933401 181 160 125 0.459121287 
-0.215408921 0.248194486 0.00242212135 -0.00151736627 173 155 99 0.800644815 
-0.251461774 0.10095793 0.230339363 -0.00112027721 154 133 89 0.735764265 
0.137603998 -0.110408962 -0.217107832 0.000278667198 164 149 94 0.24919866 
-0.305788815 -0.0116054937 0.195748061 -0.00037539308 132 118 77 0.591288209 
-0.0468680933 -0.218830243 0.0880581588 -0.00198342209 218 217 213 0.277302325 
0.121836863 0.0807395279 -0.206309482 -0.000128434316 161 145 85 0.480588317 
-0.177270204 -0.136817098 0.162453115 0.000115396339 222 222 220 0.418462843 
-0.144755483 0.209756434 0.208386943 -2.83789414e-05 171 153 98 0.8455351 
0.0153998807 0.128246218 0.15766795 0.000283307629 156 140 81 0.713669717 
-0.361611605 -0.0356931128 0.126926884 6.3967891e-06 155 140 104 0.535260439 
0.173965275 -0.141764402 0.0421285518 0.000526916818 167 132 68 0.329793513 
0.162965924 0.232438624 -0.0981294736 -3.71934002e-05 171 138 85 0.706335366 
-0.334635049 -0.118448913 0.0872390568 -0.000532609993 134 117 84 0.417282879 
-0.209231168 -0.305396497 0.0935968012 -2.37693966e-05 175 187 198 0.190378994 
-0.170568794 0.27527824 0.195897684 3.024342e-05 150 129 93 0.918904364 
0.0665541291 0.150594577 -0.169314966 0.000289234536 163 142 79 0.584294617 
0.145746499 0.128480911 0.0587788075 -0.000535308267 174 145 69 0.658029437 
0.0818742812 0.112159044 0.126448438 -0.000138695759 163 140 66 0.675120473 
0.206184924 0.119512603 -0.00512351003 5.40381297e-05 168 150 90 0.613160014 
0.0275658946 -0.290690929 0.00467374362 2.43442919e-05 209 214 218 0.148229823 
-0.190006405 0.198833346 -0.0459269509 0.000666044885 168 157 107 0.718105733 
0.245251209 0.0278536547 -0.0069569638 -0.00113067008 155 139 85 0.501335859 
-0.113541476 -0.345985204 -0.0438753888 1.9808358e-05 182 191 201 0.0714053512 
-0.0699935034 0.0437182896 -0.147329584 0.000472040992 167 139 75 0.479096621 
-0.285522729 0.0914261192 0.229958564 -1.12807611e-05 152 129 85 0.726976991 
-0.143683046 0.145305216 -0.0851208121 -0.00165626686 155 138 92 0.633299649 
0.300488442 0.0881514996 -0.162837997 -0.00210447377 49 34 30 0.495767176 
0.203600854 -0.0625366867 -0.235300586 1.55777016e-05 164 150 82 0.292074353 
-0.0167194698 0.126901776 0.171024099 -0.000523657014 173 159 97 0.72075367 
0.0526885092 0.255880326 -0.10488455 0.000153446133 165 140 77 0.73928833 
0.0337533504 0.207659185 0.104473531 -0.000128408021 153 124 59 0.781114519 
-0.10944555 0.16549027 0.200736254 -0.000673482777 170 160 112 0.787126541 
0.0478372574 0.266976565 0.0558063611 -0.00126997521 162 137 77 0.827317059 
-0.256637305 0.06043173 0.223948985 -0.000660351245 129 115 80 0.685457528 
0.228895992 -0.0724603236 -0.238785639 -5.94794983e-06 161 145 81 0.276823103 
0.361124784 -0.0376423188 -0.137655184 0.000255189341 165 140 64 0.354615301 
0.285842389 -0.281598151 -0.186497703 0.00154734182 153 129 78 0.0503594875 
0.159796536 -0.0274232924 0.0944045782 0.000472272688 185 166 110 0.489835978 
0.230540723 -0.221865922 -0.218887791 0.000857557054 161 145 86 0.109938033 
0.157613754 0.0845586509 0.0774603337 -6.85909181e-05 161 139 74 0.614049673 
0.208283454 0.0669783354 0.0322329961 0.000571344921 161 146 84 0.568454385 
0.247843564 0.146713793 -0.126496911 -0.000362447521 71 59 54 0.585664928 
0.224306673 -0.316973954 -0.0925825611 -9.92386776e-06 138 112 62 0.057008002 
0.2503317 -0.228170216 -0.0466408134 -1.05302897e-05 169 152 96 0.180939376 
0.0341459736 -0.303074688 -0.00756937871 3.36838093e-05 209 214 218 0.127453849 
0.359803587 -0.0542915352 -0.125767455 -0.000490281614 167 145 82 0.340622395 
0.123027004 0.225094736 0.0129468869 6.02332293e-05 152 134 79 0.752310097 
-0.183208227 0.358730018 0.0841248035 -1.26401792e-05 158 139 87 0.966299295 
-0.200096428 0.168458372 0.222874507 -7.23388075e-05 180 168 127 0.807865024 
-0.0698997751 0.154823363 0.186926901 0.000537572487 166 151 97 0.765112579 
-0.120147832 -0.250170082 -0.092480585 2.21870141e-06 210 214 215 0.162219569 
0.049755279 -0.19163999 -0.176576689 3.66155691e-05 171 159 122 0.179075301 
0.0349653661 -0.0860062391 0.137797251 -6.57529235e-05 198 180 163 0.450561583 
0.0726767033 0.0107849333 -0.203759417 0.000125880062 172 157 80 0.403146029 
0.29403165 -8.06376338e-05 -0.0509362519 0.00110527477 167 137 83 0.444268465 
0.100597143 0.0421331339 0.128704995 -0.00184962736 165 144 76 0.592240989 
0.141232818 -0.163432673 0.0516757853 -1.67007747e-05 177 160 121 0.311215997 
-0.114733092 -0.350306243 0.0129996948 -3.75818563e-05 179 187 194 0.0928054303 
-0.21217674 0.217337698 0.230209306 4.8616057e-06 166 154 103 0.869775772 
-0.180844009 0.308169186 0.017723877 5.69455515e-05 159 135 71 0.8757388 
0.0175741985 0.265266985 -0.0938768536 -3.54251097e-05 168 145 85 0.758153319 
0.0779861063 -0.297889084 -0.14354974 0.000385599531 163 153 121 0.067077674 
-0.156576812 -0.0638272315 0.187763438 8.08450131e-05 144 134 112 0.514599741 
0.0256036483 -0.125913367 0.120838583 0.00192667521 199 191 164 0.396400541 
-0.0854897425 -0.118231028 0.152826652 -3.18797538e-05 185 180 176 0.428834975 
0.119227104 0.182139292 -0.160400644 0.000137357682 159 133 78 0.621542752 
0.15425688 -0.0365879685 0.0883598104 0.00230155885 185 166 110 0.476660401 
0.0928402618 -0.111733302 0.100884743 0.00123477716 179 163 134 0.398675352 
0.11884091 0.0470818467 0.113268822 6.20968349e-05 165 144 76 0.589503646 
-0.17104432 0.230986357 0.209089011 -7.75803346e-06 173 153 101 0.8728894 
-0.0227495246 -0.220997423 -0.148763552 -0.000813018705 203 199 189 0.162974909 
0.268988997 -0.161850765 -0.0342189819 -0.00295158941 168 154 94 0.263393074 
-0.268869609 0.144358367 -0.0103453062 0.000153415152 162 143 99 0.676512182 
0.280744195 -0.266007632 -0.0876576602 -7.48809107e-05 164 145 85 0.11499308 
0.329788536 -0.111002386 -0.0829743743 -0.000208164245 160 138 80 0.295988202 
-0.285838962 0.121237174 0.234820321 7.61053525e-06 161 144 100 0.764374256 
-0.12083032 -0.163371697 -0.113000661 0.00133187219 229 228 224 0.254992902 
-0.204606384 0.29565993 0.0212539695 0.000105967993 139 122 74 0.864468038 
-0.347632259 0.226054609 0.212361127 -0.000401449623 140 123 75 0.882169724 
0.127008289 -0.104157627 -0.222679213 -2.41193193e-05 179 161 102 0.254790843 
0.045013763 -0.116509572 -0.198034242 -8.79358267e-05 140 117 72 0.257981092 
0.00717765745 -0.349837691 -0.0439342223 -9.48287707e-05 168 178 185 0.0575624965 
-0.29724136 0.143666372 0.23618181 5.7248224e-05 161 147 105 0.792303205 
0.0513119213 -0.245007128 -0.169108033 -0.00128919748 179 173 152 0.119557753 
-0.123761013 -0.0343806483 -0.128500342 0.000384252751 182 172 138 0.399970651 
0.277284294 -0.0177867077 -0.228857771 -0.000140537973 158 135 82 0.342115968 
0.068997629 -0.175290376 -0.19695577 9.335902e-05 171 156 118 0.187396839 
0.0575667843 0.080411613 0.140875801 -0.00336740213 189 177 131 0.64628762 
0.230617911 0.0047673909 -0.225163177 -0.000269281329 172 149 93 0.373985052 
-0.122004531 0.262396455 -0.04753346 3.00064894e-05 155 129 69 0.787009001 
0.00516127329 -0.178774416 -0.17055808 0.000314916833 176 164 127 0.200451136 
-0.174440473 -0.0946934372 -0.0925427228 9.42221959e-05 221 214 204 0.349508941 
-0.0974885523 0.266656309 -0.0580972582 -1.64632111e-05 166 138 70 0.785239697 
-0.0722180903 -0.24884215 -0.120910302 0.000124010374 214 215 216 0.146904618 
0.142040074 0.243371859 -0.0600378066 -6.97546056e-05 157 143 91 0.7385028 
-0.267252594 0.202441573 0.00801196694 0.000617757731 169 158 118 0.753328383 
0.0472423136 -0.291139752 -0.148021474 0.000173970111 159 154 128 0.0753152966 
0.155281037 -0.272836238 -0.179842189 -0.00012282985 148 127 71 0.0738036856 
0.0111577325 -0.312832654 -0.110424384 -0.000353043317 171 169 150 0.0699857622 
-0.048867546 0.194600269 0.16952762 -0.000509860809 157 135 77 0.802276134 
0.280210048 0.0675791055 -0.197951004 -1.22034107e-05 176 152 99 0.456794292 
-0.105857886 0.111363485 0.20436044 -0.000249647128 161 138 87 0.724773645 
0.353249878 -0.220666736 -0.133620769 -0.00148289744 159 136 73 0.141497061 
0.0592469648 -0.184047431 0.0840677992 -0.000131301378 193 183 174 0.30826804 
0.308805317 -0.195040286 -0.226135954 2.43802788e-07 164 143 80 0.132158637 
0.118471183 -0.0617480166 0.112935901 0.000274187943 156 129 67 0.461179942 
0.129676223 -0.0458503179 -0.22243689 0.000153056986 171 153 91 0.323382169 
0.0613731891 -0.127600878 -0.195230946 -0.000181186202 174 156 118 0.244959787 
-0.14220354 -0.0789263844 -0.117546983 -0.000946305809 201 194 188 0.35399875 
0.199965 -0.320264071 -0.167190403 -0.00044263943 157 135 74 0.0203738008 
-0.0834964067 -0.362401932 -0.0277856719 -6.36858458e-05 163 168 171 0.0572260767 
-0.252202481 0.323525637 0.188602835 -0.000181694923 164 146 98 0.978625655 
0.171195567 0.0462751687 -0.221236959 2.28203135e-05 175 158 89 0.429268748 
-0.13650018 -0.00326183159 -0.120797396 -6.36813929e-05 179 176 152 0.441181839 
0.10858158 0.264967561 -0.0203021709 0.000145269674 155 122 63 0.784956336 
0.0930168405 -0.183870792 -0.195537671 0.000214262487 154 142 96 0.176101714 
0.0127696525 -0.224137083 0.0674082637 -2.31095983e-05 213 210 206 0.256883204 
-0.0199117623 -0.0827351063 0.152307123 0.00126447214 186 177 142 0.465366989 
-0.23544383 0.0626558065 -0.056209147 -6.98677322e-05 163 141 69 0.556412995 
0.359921902 -0.19679448 -0.119750373 -1.51398126e-06 169 146 80 0.175542861 
-0.0785601661 0.164579093 0.183817551 6.44469546e-05 166 151 97 0.775826812 
-0.104202412 0.104523838 0.204312012 -0.000145386148 161 138 87 0.716567159 
-0.1699 0.057153929 -0.0908000469 0.000256967614 160 138 92 0.528839469 
-0.0354896933 -0.237345964 -0.14026086 -0.000347760855 204 204 198 0.148642614 
0.196576029 -0.330041975 -0.0903418735 1.2456112e-05 132 105 56 0.044785507 
0.33296448 -0.23015821 -0.10239011 -1.61402786e-05 159 138 82 0.146371126 
-0.0644323453 -0.350916445 0.00373636652 4.87791804e-05 183 190 201 0.0839213878 
-0.260934353 -0.212410644 -0.00383684179 -0.000926805369 196 200 208 0.258662462 
-0.00430288864 0.144095123 0.157532871 -6.07401162e-05 156 140 81 0.733790636 
-0.0327943899 -0.0691864789 0.160099685 0.000652113929 186 177 142 0.485933751 
0.336352587 -0.263318241 -0.146900222 0.000326517213 164 130 65 0.0863900632 
-0.237299293 -0.326343209 0.0455883071 -4.06847976e-05 170 182 194 0.145578459 
-0.232080013 -0.228659511 -0.0316711329 -5.20946924e-05 205 210 214 0.224385098 
-0.0738408566 0.0985969901 0.195778087 -6.53966999e-05 175 152 88 0.703291118 
-0.318824738 -0.0914221257 0.165708542 0.000120529323 129 110 80 0.484326094 
-0.051868435 -0.365830779 -0.0398326367 0.000130545872 151 154 151 0.0451647192 
-0.18621251 0.0729845762 -0.0792860985 -7.00872042e-05 179 156 95 0.554085255 
0.23866722 0.172773153 -0.125091732 0.000277922838 154 129 88 0.617719293 
0.0936748385 0.12958616 0.100330323 -0.000253593782 166 145 77 0.682619333 
-0.316228986 -0.0413921513 0.0354534723 0.00175384595 186 190 191 0.48260206 
0.0658272654 0.122691453 -0.182347924 3.07467271e-05 171 139 75 0.545432329 
0.0992079303 -0.259555697 0.00549895037 -0.000120418546 175 171 150 0.179783195 
0.0356414765 0.0894254595 0.149877429 -0.000801915477 174 168 133 0.662768781 
-0.111590408 -0.0195046719 0.19382973 -0.00149553199 164 149 104 0.566168487 
-0.16583091 0.296603411 0.196083963 0.000122404483 154 135 81 0.943746984 
-0.101143464 0.279434204 -0.0463219136 -0.000306781032 163 144 81 0.806037962 
-0.0972474664 -0.0425831564 0.186680332 -0.000253146165 163 142 117 0.53456223 
0.367740095 -0.156807303 -0.132454276 -7.46269652e-05 167 144 86 0.216148928 
-0.36434871 0.043259155 0.109407887 0.000245290663 96 74 37 0.620342255 
0.286288977 -0.13338542 -0.236860335 0.000201668387 166 145 83 0.201538488 
0.277846009 0.0574064702 -0.0619819164 7.53857894e-05 169 149 94 0.508103132 
-0.00801227987 0.309520334 -0.0470935032 0.000455909176 158 133 73 0.833963037 
-0.0365042351 -0.0701711476 -0.167975441 -0.000102367427 171 160 110 0.332782567 
0.121834539 -0.0262926929 0.111433536 -0.00127104018 160 134 69 0.501989186 
0.268174767 0.0172897466 -0.020368699 6.02890213e-06 173 154 107 0.480905175 
0.256940305 -0.0902096629 -0.235054508 0.0019006551 173 147 79 0.255491585 
0.196477383 -0.0913197249 0.0478258505 0.000238784065 169 148 77 0.390129805 
0.331578374 -0.000809272751 -0.205857471 -5.32250851e-07 155 143 120 0.368617803 
0.224241912 0.0234064162 0.0199298076 -0.000217808571 158 128 62 0.510191321 
-0.29891488 -0.0871184915 0.0164449196 -0.00226855138 181 183 187 0.418584645 
0.245041966 -0.229733467 -0.0441581085 -4.26467159e-06 169 152 96 0.18065685 
-0.146237344 0.313026786 0.00827589072 0.000574063568 186 165 98 0.874416053 
0.255180568 -0.177999705 -0.229291141 -0.000758731039 175 156 96 0.154888451 
0.355368286 -0.0366362073 -0.188776642 0.000511718797 67 61 55 0.332514793 
-0.193580538 0.0425792299 0.210640684 7.58763053e-06 157 152 104 0.653404891 
0.263648331 -0.00453125965 -0.0198114105 -0.000612124626 165 148 87 0.455807388 
-0.135784447 0.00323298201 0.20208326 0.000611584634 149 136 75 0.598642826 
-0.220069289 0.216181338 -0.0198640954 0.000175511959 164 150 111 0.752948463 
0.211766005 -0.260527253 -0.203913376 0.000617430196 166 147 90 0.0727896318 
0.292811751 -0.0743978471 -0.231590286 0.0003594312 165 145 84 0.272968501 
-0.0105650509 -0.227705687 -0.145003527 -6.89190347e-05 187 190 175 0.155881658 
0.279483169 -0.234434605 -0.0685036257 6.78801371e-05 166 149 92 0.161172226 
-0.14144215 0.128490657 -0.0913686231 -0.000848951517 166 142 89 0.610420585 
0.0794058442 0.0318748206 0.135987028 -0.00412767055 183 141 70 0.58516562 
-0.0572865829 0.238398194 0.159520745 -9.42716433e-05 162 139 69 0.849870741 
-0.140320778 -0.144049168 -0.105002254 0.000162978075 229 221 220 0.282964468 
-0.0645802841 -0.3055875 -0.0990160555 -9.10422532e-05 197 201 205 0.089635998 
-0.191642314 -0.323635131 0.000283823349 1.52350985e-05 179 191 200 0.124231562 
-0.159480542 0.209662825 -0.0583737642 2.70112741e-06 163 148 95 0.722739279 
0.217885256 -0.259442836 -0.204870716 0.000796242093 166 147 90 0.0731524155 
0.10992638 -0.283771008 -0.161922619 0.000121734716 157 144 98 0.0727258772 
0.225137681 0.0810311586 0.0056821052 0.000116911804 167 151 97 0.571389198 
0.358700335 -0.237610847 -0.207250312 -8.0419064e-05 137 115 72 0.0869434103 
0.0929706171 0.277982503 -0.0177873038 -9.00460873e-05 157 126 81 0.802654564 
0.0614194274 -0.327911466 -0.0365414992 0.000556937826 188 187 176 0.0826535746 
0.11154481 -0.133595496 0.0817564875 -0.000433810055 173 156 105 0.362606615 
-0.29205215 0.0366711728 0.217572138 1.13466522e-05 149 132 92 0.657230318 
0.150829852 -0.0589500777 -0.226770937 0.00016572146 172 155 94 0.304313779 
0.174448103 0.0211636368 -0.223752007 0.000244496099 156 141 84 0.398270935 
0.0260148291 0.232828856 0.108350217 9.3792507e-05 150 127 73 0.813157618 
0.246706843 0.0882865191 -0.199192211 0.000136032351 156 132 76 0.4831855 
0.162072927 0.175020948 -0.147951856 -0.000605563633 162 150 100 0.615642965 
0.285323709 -0.312947333 -0.164585054 -0.00592741836 136 114 69 0.0236419924 
0.10773281 -0.0932321399 0.100716382 -0.000450508029 165 149 101 0.419246376 
0.102406822 0.214164972 -0.137234256 8.44852475e-05 167 149 99 0.671313107 
-0.0166093763 0.0627925694 0.173371449 8.45613758e-05 175 152 76 0.646316469 
0.0690151528 -0.073570773 -0.198386356 -6.66675214e-06 174 147 94 0.306553423 
-0.140942544 0.0974711925 0.212627336 5.70623743e-05 183 162 92 0.714942396 
0.25126031 -0.301143825 -0.173394024 2.70480959e-05 154 127 71 0.0360752009 
-0.220696062 0.340037495 0.17280066 0.000202126772 161 145 99 0.988320172 
-0.0951083079 -0.337636977 -0.0514202639 -0.000189340921 185 194 206 0.0763206705 
0.00470609777 -0.337518036 -0.103495739 0.00063366862 178 183 174 0.0446190387 
-0.360383511 -0.00954576582 0.137783825 -0.000138619696 97 76 46 0.571006 
-0.0588516444 0.345816731 0.0202654786 8.42732843e-05 161 137 84 0.911890626 
0.135795414 0.250977427 -0.0948342979 4.60613519e-05 157 150 97 0.7317909 
0.0536415949 -0.101383373 0.123017609 -0.000599880936 173 156 103 0.424152642 
-0.111721292 -0.301255405 -0.0792100728 -0.000444778969 203 209 214 0.107554846 
0.0906318501 -0.00873790309 0.136923701 -0.00118373788 159 136 64 0.536897361 
0.0248110965 -0.016964687 -0.179644942 -0.00059379515 157 151 80 0.385329306 
-0.0962410048 -0.29910323 0.0496879667 0.000153845656 208 212 217 0.168728501 
0.129754007 -0.034551885 0.112502106 -0.000707248226 160 134 69 0.492147535 
0.147612602 -0.0269451626 0.094432652 0.00184128911 162 141 74 0.491348624 
-0.120512098 0.167901367 -0.086246863 9.22195613e-05 186 173 128 0.657613754 
-0.370209128 0.0854399651 0.117968582 -0.000112153561 92 76 34 0.674453497 
0.235233784 -0.249071687 -0.0504827611 0.000907515641 158 133 80 0.155695304 
-0.239248067 -0.14976047 0.156572536 -3.34263896e-05 206 212 221 0.405249625 
-0.0375975147 0.172596946 0.17049025 -6.67176209e-07 163 144 85 0.775937676 
-0.0590273812 0.259057939 0.144363716 5.73070138e-05 168 144 72 0.867305815 
0.210977674 -0.179670841 -0.228256345 5.82740104e-05 178 162 100 0.15679726 
-0.0534602255 0.0101852631 -0.157773748 0.000100889083 162 132 69 0.43347767 
0.358408779 -0.160013229 -0.109094903 0.000166786253 156 135 79 0.223931879 
-0.0318411328 0.313916475 -0.0273493603 -0.00196561567 161 138 82 0.850136936 
-0.0390137844 0.228381082 -0.0999406949 0.000870203716 173 150 70 0.716237366 
-0.154272169 0.281467706 -0.0125562632 0.00020632529 155 133 73 0.828188777 
0.240904272 -0.318793118 -0.156747609 0.000359956844 144 114 59 0.0238072835 
0.244668454 -0.308564037 -0.167607754 5.20190079e-05 150 123 60 0.0305267349 
-0.0228963941 -0.30986467 -0.101150662 -0.0010089915 197 201 212 0.0804034173 
-0.09662164 0.184403598 0.192918167 -5.76221064e-05 159 143 93 0.804791451 
0.183887511 0.162307695 -0.00321622845 -0.000113075024 153 132 59 0.666169941 
-0.348419666 -0.0429703034 0.11071638 -0.000843799091 128 110 69 0.51815027 
-0.253244579 -0.111270815 -0.0324195847 6.26385445e-05 197 196 196 0.363943785 
0.0781208128 -0.0835284591 -0.201617584 -0.000312097924 177 155 69 0.292624086 
0.105346896 0.0118171601 -0.202927127 -7.27653241e-05 184 161 84 0.402237535 
-0.0741916075 -0.307449371 -0.0846005902 0.000374377298 194 203 210 0.0948724076 
0.1620166 -0.345495522 -0.0968989283 -0.000151497283 135 120 84 0.02619428 
0.0119436169 0.0012892019 0.169682592 0.000169681865 175 133 68 0.56996125 
0.223298281 -0.272192627 -0.190792859 0.000193545377 162 143 84 0.0642518699 
0.372895747 -0.177607179 -0.135026589 -9.47747612e-05 157 130 72 0.190057293 
0.138331831 -0.0253487304 0.101641484 0.000691360794 162 141 74 0.497288316 
0.198920369 -0.255668283 -0.204631284 1.64147932e-05 160 139 87 0.0791673064 
-0.0119203096 -0.108295083 -0.174958363 0.00126497319 186 167 131 0.282743543 
0.258175224 -0.250901073 -0.204509407 -0.000607024995 158 136 78 0.0802856535 
-0.265670657 -0.0702024102 -0.034370847 5.60416374e-05 220 222 221 0.412370145 
0.0510467626 0.0880288184 0.149707511 0.000156684779 189 177 131 0.65986079 
0.314936846 -0.122351617 -0.235636711 0.00016802334 172 148 96 0.212902248 
-0.201260746 0.100906327 -0.0717501938 -0.000997935655 179 156 95 0.59163034 
-0.133822769 -0.116148591 -0.113005787 -0.000440722681 207 199 189 0.311616093 
-0.0329204462 0.296090215 -0.0551963001 0.00107157521 161 135 74 0.81629622 
-0.26954487 0.209884286 0.0177505184 0.000810729689 169 158 118 0.76679188 
0.149513364 -0.0495933779 -0.217682719 7.88104353e-06 165 150 91 0.31965512 
0.250082016 0.0423404351 -0.019106796 -0.000630690833 171 143 89 0.512390137 
-0.20564869 -0.328072488 0.0792333335 5.53124846e-05 176 188 199 0.156725422 
-0.301121861 0.088721633 0.227198035 -0.000819193781 147 128 80 0.723708749 
0.271087199 -0.224158376 -0.0578757674 0.000129044187 177 160 101 0.178855419 
-0.314794689 0.0695942342 0.222234502 3.68087785e-05 140 126 86 0.69992429 
-0.0526458919 -0.00429255702 0.186965957 0.000555509701 175 161 108 0.576372027 
-0.0636075735 -0.0779813081 -0.145717785 0.00108321453 190 185 161 0.33599633 
0.16817838 -0.0935283005 0.0727794096 0.00305950944 175 142 83 0.401285231 
0.109605394 -0.0648194253 -0.217198178 -2.5940185e-06 180 162 105 0.305011272 
-0.109188266 -0.0256775655 0.192158654 -0.000974541064 164 149 104 0.557936788 
0.342420936 -0.0534591191 -0.210840225 -8.10996862e-05 153 136 103 0.303452194 
0.110296376 0.112549767 -0.193146974 5.94691301e-05 178 157 87 0.525055945 
0.0449951142 -0.265368462 -0.151389852 -7.00949313e-05 167 166 150 0.104282193 
0.0718152225 -0.32185325 -0.0335978195 4.57796923e-05 161 159 125 0.0903573334 
-0.161272287 -0.236962438 -0.074085921 0.00011242801 211 215 216 0.189476058 
0.0149760079 -0.270493031 -0.147282407 -6.67120185e-06 163 162 151 0.102459133 
-0.006199033 0.0487912484 0.176941663 5.09733327e-05 167 145 82 0.630680561 
0.163620204 -0.296667159 -0.176074862 -0.000166018028 144 117 64 0.0468394421 
-0.322297245 -0.141265288 0.0915442631 -2.57968495e-05 173 176 175 0.391456127 
0.129076064 -0.0172401164 0.114751808 0.000591515738 163 139 52 0.51363647 
0.0186930746 -0.286898822 -0.140631184 5.45668081e-06 175 176 165 0.0859352574 
0.304198742 0.0137840016 -0.0702643618 0.000164852245 154 132 73 0.450847954 
-0.00665324647 0.0527415983 -0.156482756 -0.00100494188 179 159 92 0.480609566 
0.0798991099 0.110856444 -0.189490527 6.13230513e-05 163 137 68 0.527094483 
-0.282358974 -0.134505898 -0.00738269696 -0.000508829369 213 217 221 0.350432068 
-0.000272602425 -0.0795147717 -0.182874992 -0.000560158573 182 165 136 0.312076062 
-0.0138967093 0.102901742 0.174875438 4.02435253e-05 166 144 83 0.694053233 
0.174459368 -0.126691476 0.0475618131 0.000411149726 155 125 63 0.350032717 
0.0278632529 -0.328263551 -0.1195274 7.37817027e-06 158 157 132 0.0462996475 
-0.0232505109 0.129120633 0.173219547 -0.000247080694 173 159 97 0.724888384 
0.117503785 0.0164691098 0.121760219 7.44475983e-05 159 141 68 0.557487011 
-0.245458782 0.304275364 0.205135182 -3.68413639e-05 152 134 88 0.963104844 
-0.0133865457 0.264236897 -0.0891104341 2.33050014e-06 164 138 52 0.761531591 
0.37843886 -0.104857624 -0.205948666 -7.22397817e-06 156 138 88 0.242409065 
0.168720424 0.23132588 -0.0532758832 -7.45832222e-06 160 134 83 0.725401163 
0.174768627 0.0234377757 0.06963709 0.000114356924 158 141 86 0.537101984 
-0.242597252 -0.0159437917 -0.0586199127 2.49825534e-05 176 158 134 0.463256359 
-0.235252738 0.153556466 0.234526634 4.99677262e-05 164 156 115 0.798421204 
0.244618654 -0.138439566 -0.229464903 -7.43661221e-05 164 143 97 0.202219889 
-0.15265432 -0.153747484 -0.0974665508 -0.000752601074 229 227 223 0.275985777 
-0.0897397473 -0.134034753 0.14595671 -0.000310315372 212 207 204 0.407356709 
0.195225388 -0.0979726911 0.052910652 -5.59812179e-05 169 148 77 0.384749204 
0.107303746 -0.342095256 -0.0678212419 -0.000108081513 167 158 125 0.0479008518 
-0.164758444 0.139748633 -0.0770495981 0.000493591884 168 146 85 0.632120192 
0.1635575 -0.303351313 -0.164730787 4.09269051e-05 144 117 64 0.0442359485 
-0.0353098623 -0.0756928325 -0.158777341 -0.00103922747 179 171 126 0.33045578 
0.0866124928 0.260105103 0.0236527193 0.0014445968 161 142 88 0.801318586 
0.230194807 0.109302774 -0.0258612689 -0.000120603479 163 138 86 0.589662552 
0.102061175 -0.173609674 -0.208777264 0.000246426382 157 142 102 0.181348667 
-0.0616956949 0.177831307 -0.11969132 -0.000250271696 181 158 88 0.649267495 
0.0167769678 0.110899359 0.16034016 -0.00125130732 170 151 86 0.69437027 
-0.117817417 -0.359498054 -0.0116859544 -0.000100549893 165 174 182 0.0707570314 
-0.284994036 0.109969556 0.228433296 -0.000336888101 155 136 96 0.748071909 
-0.151911467 0.334694564 0.15373601 -0.000156674243 165 141 83 0.967891276 
-0.185590625 0.26659593 0.214800239 2.38494176e-05 153 133 83 0.91860503 
0.213795751 -0.119506776 -0.234159529 -0.00056370697 175 155 93 0.224711806 
0.293531328 -0.167277396 -0.23199749 -5.76840539e-05 148 128 71 0.163315505 
-0.0622203536 0.121029764 0.184159622 -0.000458642869 165 147 85 0.723430395 
0.288284212 -0.297438174 -0.17317228 1.1089578e-05 151 123 70 0.037697915 
0.260474414 -0.175138295 -0.229712531 -0.000162774202 158 141 96 0.15765667 
0.146134973 -0.0878408551 0.0801553205 -0.00156945596 175 142 83 0.413102418 
0.286429077 -0.108005941 -0.0342141949 -0.00121834874 173 153 82 0.325482219 
-0.308133632 -0.218779817 0.0540778935 2.4327077e-05 169 175 189 0.281668335 
0.100780584 0.0614156574 -0.206676021 0.000696694537 173 154 94 0.459273577 
-0.112709157 -0.349013507 -0.028778309 0.000151410437 181 190 196 0.0747814104 
-0.306726873 -0.136857316 0.037070509 6.48125424e-05 191 199 208 0.370167881 
-0.0444186851 -0.0888870209 -0.153575957 0.000189362821 179 171 126 0.318027705 
-0.080170311 0.0211155526 0.189052239 0.000639821228 163 146 100 0.609385431 
-0.0783045292 0.115396932 -0.120460533 1.10548681e-05 171 153 93 0.57664144 
0.0804565176 -0.286717564 -0.162375718 0.000382898375 165 156 111 0.071309492 
0.0663623437 0.270663679 -0.0914425999 -0.0004498575 160 143 92 0.761890888 
0.256190211 -0.0167790782 -0.231011018 0.000785589858 157 132 71 0.343924582 
-0.350706339 0.0165969077 0.188950315 -0.000224327086 137 112 75 0.624806404 
-0.348051101 0.136920884 0.0759818405 0.000645124004 143 125 85 0.713905096 
0.326758385 0.0285312813 -0.111479491 7.55538931e-05 166 136 88 0.447355926 
0.284263998 -0.309642196 -0.179210961 -0.000259067107 122 97 52 0.0208281074 
0.0426652655 0.214868575 0.106482804 -0.000220031303 153 124 59 0.789854705 
-0.302904397 -0.211270452 0.0545680299 -7.72068452e-05 176 185 199 0.290339708 
0.0600382835 -0.320292294 -0.123170555 0.000142959849 171 166 132 0.0515258946 
-0.157008886 0.123463169 -0.0859662443 0.000418951444 174 157 84 0.608202219 
0.13749817 -0.0627511293 0.0956387892 -0.00120358821 164 154 84 0.450507611 
-0.0450790077 0.191653758 0.162950486 -8.0996404e-05 157 135 77 0.795461178 
-0.040019758 -0.037285082 -0.155518234 -0.000252407597 193 179 147 0.377573341 
-0.208517671 0.277552426 0.211169243 0.000774623011 160 133 77 0.931587994 
-0.286422461 -0.149292469 0.000759396702 4.17745323e-05 194 200 207 0.337105483 
0.0653652921 -0.0016236119 -0.202550784 -7.3415431e-06 184 166 111 0.389652073 
-0.309357733 -0.168780565 0.141132131 -8.50479119e-05 145 131 100 0.381065965 
-0.104973659 -0.0491400845 -0.137347445 -0.00049115147 178 177 158 0.377034366 
0.0101176258 -0.207757473 0.0792832598 -0.000548885146 213 210 204 0.281893343 
0.17610392 -0.047393091 -0.224785671 4.52250242e-06 171 147 76 0.316906601 
0.105825372 0.0586255752 0.124565572 -0.00186701957 172 155 103 0.609345376 
-0.145030677 -0.0367826782 0.194947332 5.17751323e-06 175 160 120 0.5489043 
-0.00382869458 -0.315427303 -0.117104128 9.24257401e-05 185 188 194 0.0649806187 
-0.319921374 0.0713582635 0.0219998956 -9.01848543e-05 153 143 119 0.609457135 
0.335345924 -0.242791563 -0.199978426 0.000300472573 149 117 55 0.0860108286 
0.212720841 0.02098101 0.0337331258 -0.000243364368 158 128 62 0.514626443 
0.2226955 -0.213842064 -0.217152372 -0.000132667265 161 145 86 0.12079823 
0.170537502 -0.00864680111 0.0798409283 0.000144853024 174 155 71 0.504368842 
0.206412196 0.19542861 -0.132003829 1.35058071e-05 147 119 63 0.643677175 
0.18192637 -0.183126643 0.0171645395 -8.60040018e-06 158 137 92 0.268871397 
0.0795050338 -0.32466197 -0.124901332 -9.55187716e-06 160 154 114 0.0440791957 
-0.235632479 0.0688295737 -0.0548711196 -2.05077231e-06 163 141 69 0.564321041 
-0.116223238 0.266393155 -0.0477698892 -0.000694620248 155 129 69 0.791162908 
0.193360478 -0.343686908 -0.14551349 -8.83157409e-05 151 127 70 0.00335144997 
-0.042542927 0.235990971 0.144183934 0.00116528256 162 139 69 0.838783443 
-0.0730798542 -0.00343923829 0.183148205 0.00049719325 178 160 120 0.577175558 
-0.212127239 -0.27615872 -0.0199815482 -0.000355835917 202 206 215 0.172325119 
0.212507248 -0.339730769 -0.150815517 -8.48287164e-05 148 125 71 0.0040792725 
0.262820423 -0.0312899202 -0.00931567047 -2.75707571e-05 166 144 90 0.429221898 
-0.197338581 0.301392704 0.203964189 -0.000372710841 151 133 84 0.955467463 
0.138911992 -0.153624117 0.0575652719 -0.000285536866 177 160 121 0.325682044 
-0.25500074 0.222501695 0.236881778 0.000139828218 168 152 109 0.88224709 
0.134485006 0.246856049 -0.0819323882 0.000149002648 154 145 96 0.733025253 
-0.0579956844 0.270289868 -0.0696272403 -0.000638072437 163 139 74 0.781133235 
0.275044829 0.134974092 -0.132046551 0.000167707898 159 133 79 0.567169666 
0.137122571 0.172980666 -0.154616505 0.000482963689 170 135 65 0.612063646 
0.0507524796 0.181648239 0.118304923 -0.000326114154 157 125 49 0.755588114 
-0.330481768 0.181222096 0.0620593876 -0.000181685085 163 150 106 0.758277953 
0.296509773 -0.0759206414 -0.0455741584 0.000606482965 170 155 102 0.357230067 
0.00155617017 0.0374091044 -0.161878079 0.000363001076 161 134 63 0.45941326 
0.170985192 0.068087101 0.0574145839 -0.000662929961 161 139 74 0.584314942 
0.115097918 0.0511415638 0.119528502 -0.000964660605 165 144 76 0.597478986 
-0.307702422 -0.0424843021 0.180843294 0.0030635756 151 138 112 0.548143089 
-0.170723557 -0.295735478 0.0848654136 2.24083142e-05 199 206 214 0.194747329 
-0.011915205 0.0678448379 0.171974614 4.05523424e-05 175 152 76 0.651258826 
-0.208043396 -0.290379256 -0.0215931907 0.00039727267 195 202 212 0.154511929 
0.250136286 0.0888183862 -0.0417130925 9.15393466e-05 159 138 76 0.556642592 
0.0560245067 0.227424532 -0.126623183 -4.18302079e-05 162 139 69 0.695422113 
0.205140442 0.00206218753 0.0457818769 7.47675658e-05 165 144 89 0.498515815 
0.140512943 -0.328290164 -0.0631724149 -3.38107725e-06 165 149 113 0.0637683198 
0.222193599 -0.0192228835 0.0316158086 0.00140544388 171 150 87 0.465557009 
-0.184945077 -0.327998072 0.0619538054 1.72743457e-05 181 193 204 0.147201627 
0.354331464 -0.0581045337 -0.214603975 1.94347231e-05 179 165 143 0.295317769 
0.0638329461 -0.245081455 0.0305600129 -4.21720688e-06 190 187 179 0.211184084 
0.244969547 -0.0529289804 0.0186191201 0.000670502312 173 153 95 0.41806969 
0.249000907 0.0852596015 -0.0282334536 0.000596861937 159 138 76 0.55879432 
0.255216628 -0.236169487 -0.0460891873 -2.32682214e-05 167 154 96 0.171397179 
-0.211310178 -0.296306461 -0.00572313974 -3.7845748e-06 188 197 206 0.155147046 
-0.207514882 0.212802097 0.229107335 7.64249999e-05 166 154 103 0.863563359 
0.156108737 0.101604 0.0593290478 -0.00111745787 174 145 69 0.625828505 
-0.13114053 0.31993255 0.156378075 0.000618053193 170 141 78 0.950132251 
0.384304911 -0.142834559 -0.157131657 2.87699513e-05 153 128 70 0.219881266 
0.0979971215 -0.364078194 -0.0893448219 -4.842208e-05 141 129 98 0.0127307614 
-0.21315378 -0.169949472 -0.0622242987 0.000517782057 220 220 220 0.27790755 
0.10676904 -0.16809839 -0.211280152 0.000293088116 157 142 102 0.186317295 
0.384486496 -0.170303285 -0.197065398 0.000179279654 157 128 75 0.168974906 
0.183093101 0.210696429 -0.0812398642 5.03812917e-05 157 143 89 0.687016308 
-0.117895 -0.0654226542 0.18298988 0.000644611951 143 135 52 0.507532001 
-0.205049783 0.171673611 0.229695067 0.000222745191 162 151 113 0.815198839 
0.0576002076 -0.0190004967 0.150347844 0.00250483747 170 142 72 0.53357774 
0.274579644 -0.0494716018 -0.234759912 0.000156727969 164 140 84 0.302260667 
-0.120613888 -0.220583797 -0.101703614 0.00140903064 225 225 223 0.192826033 
-0.0979553089 0.0379806459 -0.134800106 0.000447657076 181 160 125 0.480302364 
0.251714677 -0.121833742 -0.231180385 3.68518522e-05 164 148 94 0.220439404 
0.167099863 -0.0859520733 0.0700262263 4.82332252e-05 175 142 83 0.409014732 
-0.167679995 -0.329373419 -0.0133735528 8.23589507e-05 182 195 204 0.109291464 
-0.0477664247 -0.326649427 -0.0917417407 -1.02225167e-05 193 200 207 0.0669100285 
0.039267458 0.160454392 0.125875279 -2.74305057e-05 165 134 75 0.735018909 
0.053185802 0.311523348 -0.0287081301 -7.18582305e-06 158 130 78 0.840152979 
0.0199734308 -0.339917332 -0.0929259732 2.61869573e-05 166 167 148 0.0455254018 
-0.245745867 -0.134338021 -0.0362450518 0.000104826395 210 212 211 0.334419608 
0.0772696063 0.121214598 0.114696234 4.78915172e-06 166 145 77 0.680686593 
0.31403029 -0.199166566 -0.224593088 8.51547811e-05 164 143 80 0.127612606 
0.050803341 0.0801648349 0.144388035 -0.00163422571 189 177 131 0.648146927 
0.223294377 -0.0479407944 0.0397206433 -0.000877076061 157 139 85 0.435405672 
-0.0342473984 0.229375184 0.149560258 -5.84332738e-05 169 148 85 0.832848191 
-0.099026449 -0.278728753 -0.0975676626 0.00087536592 211 216 220 0.124594122 
-0.14609918 0.00645556021 -0.106106468 -0.000513098086 173 164 120 0.460185051 
0.203427941 -0.0288560539 -0.23551099 -3.64792504e-06 169 150 99 0.331664532 
0.11730177 -0.320152283 -0.139753759 1.63523655e-05 177 158 120 0.0395929664 
0.207727879 -0.338727117 -0.115668327 -0.000437180221 151 127 73 0.0219424292 
-0.0733421743 -0.19767946 -0.128904894 0.000172851869 203 200 197 0.203548163 
-0.125673413 -0.269189864 0.0800663829 -0.000743111363 205 209 212 0.220327437 
0.0935923979 0.135958493 0.0955101699 -0.00135329529 171 144 71 0.687894762 
-0.3779383 0.0656834096 0.155322507 -0.000307835755 51 47 45 0.669112861 
0.180398762 0.148773625 0.018966075 0.000477713475 159 134 64 0.660791337 
-0.143983811 -0.083700493 -0.11004822 1.89965795e-05 201 194 188 0.351992399 
0.0739498064 -0.00411870237 -0.190789014 -0.000251072284 184 166 111 0.391512513 
0.157469571 -0.111942172 0.0742830634 -0.000395440817 175 142 83 0.381115288 
0.27920258 0.0261100978 -0.0489621982 -0.000188492471 175 151 85 0.47717604 
0.173318893 -0.189725861 0.026168488 3.27075832e-05 158 137 92 0.265938491 
-0.137976229 -0.00371413864 0.201120928 0.00012080415 179 163 121 0.590181172 
-0.0477062166 0.0988217592 -0.147488758 -0.00102290325 168 153 91 0.542219758 
-0.0528605655 0.340057343 0.0835540444 -6.81719976e-05 163 140 83 0.934021294 
-0.182206482 0.177882671 0.22230953 7.51993939e-05 167 160 117 0.817329407 
-0.0331862196 -0.13686505 0.139771536 -0.00120768894 207 199 182 0.396805644 
-0.284674019 0.169392973 0.0135558732 -2.16456829e-06 173 158 112 0.718310356 
0.368467301 -0.163332626 -0.137111008 -0.000344273984 154 130 72 0.20624502 
-0.121923812 -0.0168771446 0.191042945 -0.000623768778 179 163 121 0.568764269 
-0.363224238 0.143305764 0.101899289 -0.000287515111 155 140 101 0.734621942 
0.0112742148 0.195229799 -0.133196518 5.56378072e-05 171 145 71 0.657885969 
0.36696431 -0.0422375835 -0.150579959 -7.01185782e-05 158 141 114 0.342754424 
-0.269272089 0.0595993213 0.220260307 0.000205075441 129 115 80 0.683735847 
-0.0778127164 -0.34790352 0.0137268938 6.97126379e-05 181 189 200 0.093135938 
0.362391233 -0.0925874561 -0.20919849 -0.000244919735 158 132 83 0.256587774 
0.154955238 -0.130239084 -0.220546797 0.00074337417 171 156 102 0.222909823 
0.346137106 -0.106407732 -0.219277725 6.49529102e-05 159 132 75 0.236878827 
0.209914982 -0.281020671 -0.056394808 7.10308086e-06 157 131 74 0.117262281 
-0.170726627 -0.261682481 -0.0572169609 0.00146336411 206 210 213 0.168913051 
-0.297551095 -0.128935546 0.161177665 5.28421951e-05 162 166 169 0.436398715 
0.117669009 -0.281247795 -0.0167215243 -5.53478967e-05 168 162 136 0.142498299 
0.191340089 -0.0612800084 -0.227547526 0.000555363076 177 149 75 0.298095495 
-0.0931014568 -0.268966019 -0.104861379 -0.000537893386 211 215 216 0.132253543 
-0.263116062 -0.264344603 0.0217346065 9.58853634e-05 179 188 198 0.209522858 
0.188434184 0.214596808 -0.0638882592 -0.000675447343 160 146 95 0.699254155 
0.31805405 0.0430330299 -0.104891017 5.69625408e-05 161 133 76 0.468165457 
0.215607196 -0.308435529 -0.178418204 0.000140704229 162 136 73 0.0278939176 
0.0823021904 0.277428985 0.00199920498 -0.000471963198 156 133 76 0.812006176 
-0.209911168 0.145227969 -0.0489752181 0.000291904784 168 145 88 0.655075431 
0.302512616 0.036238689 -0.0792046413 2.36474734e-05 159 137 88 0.473278701 
-0.325954229 -0.0278841294 0.179160446 -0.0010028024 133 119 83 0.565963149 
-0.0686845556 0.277168244 -0.0609995462 -0.00182172377 178 152 94 0.79406172 
0.072634846 -0.131457299 0.101986378 -9.02909378e-05 198 178 144 0.377505332 
-0.148762584 -0.196895063 -0.0938973501 -9.49110254e-05 217 217 215 0.226517037 
-0.041123677 -0.178560674 -0.142767623 -0.000391368056 205 196 186 0.217158943 
-0.040633373 -0.186371893 -0.150994539 -0.000196525798 205 196 186 0.204101399 
-0.243981957 -0.291911036 0.0948234424 -5.34968276e-05 171 181 190 0.209504381 
-0.356449902 0.198519692 0.102751642 0.000593787408 153 137 95 0.799536943 
-0.375730604 0.128829032 0.129923165 -0.000373216462 116 96 56 0.731537282 
-0.161723942 0.29116866 0.196170688 0.000839124725 154 135 81 0.937069595 
-0.29443112 -0.152683333 0.0207515247 0.000177198381 198 206 214 0.343006015 
-0.0277739204 0.010732363 0.182410643 3.97092954e-05 135 118 71 0.590045035 
-0.133677006 0.0355542265 -0.117789946 0.00245712372 182 169 119 0.488084644 
0.354483783 -0.0716656297 -0.209192544 -4.74629342e-05 182 152 90 0.281843364 
-0.151615173 0.0145418011 0.201150462 0.000686201616 149 136 75 0.612747848 
0.0519471914 -0.0533507653 0.140116498 6.63202081e-05 164 154 105 0.488799959 
0.14696908 -0.18577832 0.0333464183 -0.000115605915 158 137 92 0.275945216 
0.200764984 0.0851325244 -0.207051501 7.4458716e-05 162 142 81 0.47935304 
0.0904306471 0.142431483 0.0939446241 -0.00114756229 170 140 67 0.695036054 
0.247859597 0.0655590296 -0.0266801789 -0.0023374809 166 146 79 0.536396384 
-0.0814852864 0.139838412 -0.113110825 0.00120376481 169 149 91 0.60908848 
-0.171507359 -0.0645256191 -0.103836149 -2.20922229e-05 224 219 222 0.379578263 
-0.258877993 0.142460153 0.236209765 -5.54190192e-05 165 151 109 0.787947059 
-0.20741716 -0.276564509 0.101461381 -6.04835805e-06 192 202 212 0.227852941 
0.350604862 0.00612787902 -0.17705442 8.78957799e-05 43 41 40 0.388696253 
-0.110495158 0.194614202 -0.089406535 0.00117625133 170 142 89 0.68684417 
0.117203094 -0.108724073 0.0902565345 -2.93767371e-05 165 149 101 0.39541468 
-0.100500539 0.0292119011 0.19273831 0.00264240056 179 154 117 0.622195959 
0.343938977 -0.168844968 -0.0928111076 -1.92087609e-05 164 145 85 0.222198576 
-0.361888051 0.15740186 0.100072302 0.000185191282 154 136 94 0.75027591 
0.183732569 0.136626646 0.0111997724 -0.000928027555 166 148 89 0.642621696 
0.0399167165 0.0768076479 -0.181698039 0.000752397929 180 150 88 0.493675798 
0.00880469102 -0.260331899 -0.138754725 -0.000883438799 163 162 151 0.11886093 
-0.31772536 0.0885283649 0.225655958 1.38443429e-05 145 125 83 0.724041283 
-0.341120213 0.274787664 0.124872625 -2.84148264e-05 144 125 79 0.898467183 
0.0287995264 0.211874515 0.106177904 -5.82014327e-05 166 138 75 0.78725183 
-0.218780369 -0.216988012 0.135683611 0.000215016451 203 209 214 0.314789444 
0.0611408092 0.267937958 -0.0946277902 -0.000979284174 159 143 92 0.75760293 
0.0656154007 0.226579517 0.0807517245 -0.00116586359 167 138 74 0.78994292 
0.134711713 -0.274849236 -0.0183002315 -0.000395885378 179 171 133 0.147993073 
-0.314686209 0.313906521 0.168382004 -5.91389835e-06 147 130 82 0.962711096 
-0.0586096086 -0.0650801063 -0.14878729 -0.000515981927 190 185 161 0.349384665 
-0.102421664 0.207566157 -0.088136442 -0.000116813753 170 142 89 0.702070057 
0.101805903 -0.345177978 -0.071110934 -0.00062627357 167 158 125 0.0431650728 
-0.0576553196 0.00568767404 -0.156289652 4.50497901e-05 162 132 69 0.429190964 
-0.0295375511 0.0384748802 -0.1517068 -0.000466188241 177 147 86 0.467779279 
-0.18626669 0.319508165 0.0306972712 -6.24350359e-05 165 151 98 0.895534098 
-0.361800551 0.0745380819 0.199978217 0.000150719541 151 128 84 0.699030101 
-0.297540098 -0.107639074 0.0186020974 -0.000676389842 196 203 212 0.395307779 
-0.179003537 0.0249155369 0.209716305 0.00102128601 173 157 115 0.631048441 
0.0415303558 -0.356035262 -0.0720200092 -0.000152505803 155 151 124 0.0345859006 
0.320706636 -0.088764444 -0.0641686842 7.01120734e-05 160 138 83 0.331610322 
0.234208643 -0.0825500488 -0.238887057 -4.51672822e-05 167 153 109 0.264482439 
0.0604734793 0.273133129 -0.0893532932 -0.00043923792 159 143 92 0.76622206 
-0.236177295 -0.114269868 0.168634623 0.00168066437 206 208 208 0.452418894 
-0.249700755 -0.290631026 0.0269247144 2.67263822e-05 178 187 197 0.179936394 
-0.34004271 -0.0795151889 0.0806592479 -5.44195063e-06 139 131 103 0.460506916 
0.25700739 0.009208831 -0.219686434 0.000554613187 170 149 81 0.37973088 
0.243445367 -0.105669439 -0.23823224 1.76164322e-05 167 150 98 0.236842707 
-0.140657902 0.0975868255 -0.105487868 0.000114355164 178 157 92 0.567403316 
-0.0397957079 0.116150245 -0.135577261 -0.000167229562 187 180 120 0.567552924 
0.258969724 -0.157807514 -0.0153327296 -0.000389909779 171 158 104 0.277691931 
-0.141013265 0.357625812 0.100957975 0.000481030147 162 140 85 0.969568968 
-0.304619342 0.271150857 0.0798682198 6.84320112e-05 159 146 100 0.87048912 
-0.310910553 0.0464788303 0.0100930128 1.74023444e-05 173 162 127 0.573931038 
0.268599421 -0.127465814 -0.236983046 -6.04096276e-05 164 147 87 0.209814057 
-0.198291183 -0.339264482 0.00648298301 5.3604017e-06 180 193 202 0.109209061 
0.168289304 0.0510055572 0.0777479932 -9.42567131e-05 173 153 90 0.573838472 
0.210817039 -0.0727107674 0.0484553017 0.000160040712 173 155 86 0.411240608 
-0.286768317 -0.278267056 0.0816633552 1.19262841e-05 159 168 179 0.222756386 
-0.305725038 -0.031473171 0.0169076473 0.000404261868 207 214 220 0.484870911 
-0.318911701 0.0829970986 0.0312615335 -2.35480256e-05 180 171 149 0.627388477 
0.106606729 0.167487323 -0.168327749 -5.19369496e-06 166 144 82 0.601573765 
-0.364708811 0.00892742909 0.138467506 -0.000508423662 105 86 57 0.593416452 
0.24546966 0.160325661 -0.13713032 -0.000151440036 89 67 43 0.59694612 
-0.349884629 0.142313123 0.0796919316 0.000316198973 143 125 85 0.722119868 
0.270582736 -0.158110574 -0.0243761204 -7.01126337e-05 168 154 93 0.27224499 
0.143929601 0.149068952 -0.179561302 0.000118132331 167 147 85 0.571795225 
0.0131679494 -0.103112444 -0.178096458 0.000278221298 181 165 114 0.285463929 
0.0662844777 0.0883466899 0.135086164 0.000334487762 189 177 131 0.652277648 
0.183336258 -0.288458616 -0.0394499674 -0.000125495892 165 153 113 0.118408203 
-0.0501293689 0.334236413 0.0741295218 -6.51598966e-05 163 140 83 0.922580242 
0.193051219 -0.122660905 0.045649603 0.000675727613 161 141 71 0.352464229 
-0.237469316 0.0950147361 -0.0481343269 -0.00121495966 176 160 65 0.59843421 
-0.0551806986 0.0605681948 0.191060096 -0.000124378566 173 152 67 0.654870749 
0.296990156 -0.116524518 -0.0388468057 0.000643826439 156 141 87 0.312485784 
0.0648764968 0.0705806315 -0.194288224 -0.000523672148 180 155 87 0.478578687 
-0.0435640775 -0.10964103 -0.151268646 0.000611473457 174 162 129 0.294585526 
0.147762716 0.184916586 -0.143247291 0.000844504859 163 132 69 0.630582988 
0.31566754 0.0757837743 -0.151436478 1.61194475e-05 156 139 85 0.485323906 
0.0949979946 0.274458677 -0.0125856642 9.80090117e-05 157 126 81 0.800762117 
-0.285212457 -0.225163907 0.120022923 2.81132525e-05 176 185 197 0.302994996 
0.133171052 -0.357038736 -0.119466498 0.000568211428 121 100 75 0.00433884095 
