ply
format ascii 1.0
comment created by gply, a Houdini tool.
comment converted from .[b]geo
comment for more information about Houdini, try:
comment www.sidefx.com
element vertex 613
property float x
property float y
property float z
property float depth
property uchar red
property uchar green
property uchar blue
property float length
element face 0
property list uchar int vertex_indices
end_header
-0.182212085 0.0903557837 0.179898381 0.00102167344 185 185 185 0.311403215 
0.214464664 0.0495977215 -0.166138232 0.000528858509 174 174 174 0.674171269 
-0.146989167 0.0965273678 0.00754356198 0.00031699636 175 186 176 0.492091656 
-0.520435035 0.0631637573 0.29222548 9.58544551e-05 175 175 175 0.193644896 
-0.458838195 0.140962735 0.342273265 0.000886886904 106 107 106 0.141177207 
-0.00273716007 0.0968122333 -0.0776531845 0.000955387601 0 170 191 0.581407785 
-0.471033841 0.113948599 0.3935588 0.000677550852 101 101 101 0.0874119475 
-0.307999909 0.136764973 0.255100012 0.000433065899 177 177 177 0.232565448 
-0.00533838337 0.0321143717 -0.017033644 0.00115127349 180 180 180 0.517857194 
-0.341734976 0.0502854921 0.332900077 2.09402642e-05 188 173 178 0.151003584 
-0.340368271 0.136850551 0.190261751 0.000601658772 207 215 236 0.300538719 
-0.257341444 0.091491282 0.273142129 0.000689341105 178 173 206 0.213650942 
0.0277659297 0.000860349275 0.0211402941 0.000905741705 151 170 162 0.477837533 
0.253007382 0.035080038 -0.204340369 0.000893057615 179 179 179 0.714220524 
-0.0880422071 0.0701453537 0.101315059 0.000725361519 172 172 172 0.393786162 
-0.0385443121 0.0427587889 0.0196340866 0.00117496215 101 153 181 0.479416549 
0.157784641 0.00656497339 -0.0885747373 0.000905513705 140 166 163 0.59285748 
-0.0156669077 -0.156249851 -0.0451012924 0.000929966744 180 180 180 0.547281981 
0.249995619 0.0397704951 -0.179696605 0.000714468362 241 133 158 0.688385248 
0.298403352 0.0920523703 -0.252846599 0.000983057893 187 160 122 0.765072107 
0.133130044 -0.179522738 0.0228264518 0.000296125596 169 169 169 0.476069838 
-0.0862622634 0.0677015781 -0.0162734911 0.000873454788 163 163 163 0.517060339 
-0.145440906 0.0642097592 0.0691538155 0.00090561941 175 175 175 0.427502453 
-0.264967471 0.126466975 0.227458075 0.00094759214 173 173 173 0.2615439 
0.518170655 -0.0101935435 -0.461322844 0.000873884186 47 137 135 0.983628571 
-0.0704332069 0.0982360542 0.126384556 0.000987589709 190 185 0 0.367504537 
0.433135301 0.0451562814 -0.371332109 0.000649086491 0 188 209 0.889286637 
-0.246695668 0.092905581 0.266882151 0.00122275483 191 183 212 0.220213592 
-0.234205097 0.145249486 0.0803861022 0.000927944668 200 188 0 0.415727079 
-0.0844483525 0.0650935024 -0.0303869285 0.000832271704 121 169 211 0.53185612 
0.336980075 0.0483680032 -0.32153821 0.00038693918 183 183 183 0.837085068 
0.295259804 0.091007188 -0.279760361 0.000917871192 172 185 203 0.793287218 
-0.412107438 0.0258657634 0.284817427 0.000247956283 209 148 182 0.201411158 
-0.266241044 -0.00230506621 0.337262124 0.000835595885 163 164 163 0.146430627 
0.35608995 0.064674519 -0.317717612 0.00049370568 188 172 192 0.833079755 
-0.283679008 0.196126238 0.164440215 0.00101317768 212 173 0 0.327608794 
-0.3590841 0.150676653 0.278473705 2.45419797e-05 186 186 186 0.208061576 
-0.284038693 0.0709775984 0.308715582 0.000125800259 188 188 188 0.176357433 
0.412645251 0.0205690749 -0.40814665 0.000473832712 0 180 218 0.927881181 
-0.0892086327 0.151595756 0.0329087861 0.000665515894 220 200 0 0.465499997 
-0.15236491 0.0735549778 0.156540707 0.000682074227 207 196 200 0.335890263 
-0.158404261 0.103502601 0.0155329937 0.000668945315 170 150 0 0.483715922 
0.143596321 0.0307356529 -0.145610139 0.00052258448 158 158 158 0.652650654 
0.316241324 0.0465334393 -0.323156506 0.000638336816 0 152 191 0.838781655 
-0.49128148 0.0777955055 0.284308553 0.000128440937 127 158 168 0.201944619 
0.354420513 0.0522033684 -0.32585758 0.0010064767 174 174 174 0.841613352 
0.553034067 -0.0413010977 -0.399895668 0.00111898803 0 173 210 0.919231236 
0.189514577 0.0317882746 -0.218262434 0.000855810766 166 161 181 0.728815794 
-0.0160968862 0.0349192843 -0.00997759216 0.000903315842 179 146 102 0.51045996 
0.157737494 0.105828688 -0.187025011 0.000902852276 161 171 183 0.696067989 
0.0829056874 0.116287515 -0.111111879 0.000725549995 204 147 0 0.616484284 
0.0337025449 0.0690886229 0.0236690361 0.000853000151 159 159 159 0.475186497 
-0.0867915899 0.0530352406 0.00279822783 0.000875273254 178 178 178 0.497066438 
-0.00730060274 -0.0686477125 0.0693051815 0.000943522435 183 183 183 0.427343756 
0.236215293 0.0322101749 -0.256314099 0.000824481191 152 147 116 0.768707275 
-0.373397887 0.13269496 0.218835831 0.0008288885 0 164 213 0.270583063 
-0.337525636 0.0893825144 0.35388267 2.30703808e-05 0 184 225 0.129006445 
0.245444 0.0887162685 -0.189744964 0.000782432384 183 199 218 0.698919475 
-0.227365106 0.101310879 0.160453171 0.000533167273 178 178 178 0.331788599 
0.010224591 0.0301460382 -0.0553270802 0.00038844251 151 194 203 0.558002234 
-0.316266775 0.133393243 0.180766553 0.000618898077 178 178 178 0.310493052 
0.32903704 0.0518128425 -0.309757441 0.000980247394 184 184 184 0.824734747 
-0.16024974 0.0768400431 0.0602763444 0.000703425612 166 166 166 0.436809182 
0.20677194 0.0183734428 -0.16046004 0.00111936231 178 180 185 0.668218553 
0.277745277 0.0978208929 -0.231160864 0.000540162146 178 159 134 0.742337883 
-0.460953504 0.0910416991 0.277450919 -2.55848645e-05 170 170 170 0.209133834 
0.0483384356 0.0298944768 -0.0875161439 0.00100177026 166 166 166 0.591747701 
-0.320006311 0.120530635 0.165060192 0.000950596295 229 232 215 0.326958835 
0.186709672 0.099813953 -0.142610565 0.000893130666 169 157 154 0.649505973 
-0.115290552 0.118867487 0.000813796651 0.000963015074 178 180 159 0.499146819 
0.0283680297 0.101352692 -0.0952631831 0.000490517239 161 196 193 0.599869311 
0.0924573913 0.0025838539 -0.0281792711 0.000883742992 154 181 187 0.52954179 
-0.437225252 0.129750431 0.267213196 0.000635838078 114 155 154 0.219866559 
-0.222371846 0.10394457 0.0714138299 0.00103130948 204 183 0 0.425133139 
0.188053429 -0.0416554622 -0.209763557 0.000522644958 172 174 174 0.719905972 
-0.152186573 0.0384595059 0.0418659113 0.000867477851 201 144 160 0.456109762 
-0.214548171 0.118737713 0.077874437 0.000729463296 174 174 174 0.418360174 
0.0280059539 0.0261272863 -0.0881112963 0.000810863858 184 184 184 0.592371643 
-0.14760834 0.168899715 0.165777639 0.000845086994 220 201 0 0.326206684 
0.527224422 0.00794983376 -0.427948862 0.000202910043 120 154 151 0.948640883 
-0.146463871 0.106124744 0.00803142693 0.000989399152 180 135 0 0.491580218 
-0.231941134 0.196287051 0.127766922 0.00100649905 219 216 154 0.36605528 
0.0817332193 0.0429222025 -0.132587552 0.000962872233 156 156 156 0.638998389 
-0.379793584 0.161611632 0.296418101 7.15022907e-06 184 184 184 0.18924956 
0.542039692 -0.00546704419 -0.428456336 0.00102048204 0 194 229 0.949172974 
-0.201915264 0.0945382267 0.0919907242 0.000651651993 179 179 179 0.403561324 
0.00381205045 0.0680944473 0.0437820628 0.000996037503 170 171 171 0.454100966 
-0.156393498 0.1657781 0.05721334 0.00107013038 0 189 205 0.440020293 
-0.0125620589 0.0327539966 -0.0129690031 0.0010814399 170 170 170 0.513596058 
0.384765983 0.0582062416 -0.321590602 0.000298151281 188 145 179 0.837140024 
-0.20565179 0.0892953426 0.126205921 0.00095342024 174 174 174 0.367691755 
0.0578642003 -0.0184218325 -0.0250209607 0.00084413751 176 176 176 0.526230752 
-0.368761063 0.138263151 0.226623088 0.00095033535 164 164 164 0.262419283 
0.428449154 0.0398873575 -0.330507964 0.000333442964 209 154 188 0.846488535 
0.0351358056 0.0555815957 0.0169169884 0.00105477113 175 175 175 0.482264996 
0.150037616 0.0033230558 -0.082203716 0.000936747936 139 173 172 0.586178362 
0.392912179 0.0525146015 -0.31821847 -1.49808293e-05 156 156 156 0.833604872 
-0.301777184 0.118313834 0.251103252 0.00133465847 173 208 229 0.236755475 
-0.014766111 0.05017481 -0.0708588734 0.000885075307 187 187 187 0.57428503 
-0.159877837 0.0671117306 0.109175831 0.000806163065 173 173 173 0.385545284 
-0.0209547561 0.0714826286 -0.073713854 0.00100290251 156 156 156 0.577278018 
0.379174799 0.0504339337 -0.358094484 0.000201723917 201 154 184 0.875408947 
0.348093569 0.0514641367 -0.335417777 0.000918732025 182 182 182 0.851635754 
-0.162255526 0.0677433312 0.083753705 0.000537556538 163 163 163 0.412196606 
0.175033748 -0.0372562446 -0.115617767 0.000978707219 164 166 166 0.621208072 
0.0701901317 0.120885238 -0.0631144941 0.000779494701 149 148 0 0.566166162 
0.467259735 0.0313817821 -0.407671183 0.000434291316 158 181 189 0.927382708 
-0.00270183897 0.101440638 -0.0746825412 0.000911321782 119 169 165 0.578293502 
-0.446188539 0.140777946 0.359501451 0.000695583585 164 164 164 0.123115979 
-0.357326686 0.0200408176 0.352915555 0.000755772518 163 163 163 0.130020291 
-0.32382372 0.0386480503 0.339838445 0.00100736704 174 174 174 0.143729761 
0.211413741 0.00494831195 -0.176994011 0.000456493552 184 184 184 0.685551941 
-0.00942196045 0.0407938436 -0.0643433928 0.00046141952 162 162 162 0.567454517 
-0.0189324915 -0.0063797608 0.0567174703 0.00112826808 178 182 185 0.440540075 
0.208796591 0.104525626 -0.22346136 0.000815059408 171 171 171 0.734266102 
-0.263493598 0.172678411 0.120777741 0.00102758326 217 191 0 0.373382419 
-0.208064765 0.0988479406 0.171805054 0.000519291905 184 184 184 0.319887847 
-0.150265008 0.033210963 0.186718985 0.000942788261 165 176 171 0.304252803 
-0.200829893 0.0897553861 0.223084867 0.00117407599 176 176 176 0.26612857 
-0.382633597 0.108441412 0.39780581 3.30701005e-06 183 186 193 0.0829595402 
-0.0391029567 0.129668474 -0.0221534632 0.000391875714 170 146 0 0.523224592 
-0.246865571 0.0823527873 0.279631317 0.00020404192 164 164 164 0.206847996 
-0.32613793 0.0552304164 0.14511776 0.000269175682 148 179 198 0.347865522 
-0.25697431 0.204823285 0.163035259 0.000570370001 214 202 0 0.329081684 
-0.0255918112 0.037625663 -0.0104430923 0.000300965854 110 147 170 0.510948002 
0.221570045 0.0437449925 -0.2465588 0.000862177636 173 169 166 0.75848031 
-0.118382446 0.0617929064 0.156202078 0.000911709154 205 183 199 0.336245269 
-0.243881375 0.0995329022 0.216777474 0.000634172873 229 218 222 0.27274096 
-0.185636282 0.189712182 0.106507301 0.000558129686 168 142 0 0.388342857 
0.0703562424 -0.0104711466 -0.0885773003 0.000890765572 180 180 180 0.592860103 
-0.00796325505 -0.0156261139 -0.0680709034 0.00067655259 189 173 159 0.571362197 
-0.0324152224 0.037451148 -0.0666746795 0.000830156088 0 176 199 0.569898486 
-0.291770399 0.145896688 0.137282342 0.00096662459 190 179 0 0.356079787 
-0.19127661 0.0286489502 0.274957329 0.000696553267 138 185 190 0.211747959 
0.181549162 0.0765559822 -0.124052458 0.000394893141 175 175 175 0.6300506 
0.0882893577 0.0560922362 -0.144554913 0.000943517371 169 169 169 0.651544333 
0.230066776 0.00851532351 -0.182018161 0.00068711472 154 127 95 0.690819025 
0.132319033 0.0675058812 -0.179773912 0.000199431292 177 185 199 0.688466251 
0.494353801 0.0168970656 -0.437061131 9.38518133e-05 145 150 182 0.958193779 
-0.0640578642 0.0530452318 -0.0246729534 0.00091677095 184 184 184 0.525865912 
0.196026981 0.0580395572 -0.229186267 0.000899555744 142 178 205 0.740267813 
0.0268018134 0.0701157823 0.0290217753 0.00099098729 167 167 167 0.469574958 
0.397280961 0.0488050431 -0.365421414 0.00100009551 115 126 126 0.883090138 
-0.395352393 0.0967986286 0.438267469 -0.000220288042 165 164 161 0.0405415446 
-0.439455539 0.052986104 0.438057929 0.000239638786 115 115 115 0.0407611765 
-0.211725324 0.144966692 0.210029393 0.000967483153 167 167 167 0.279815286 
0.0439498425 0.0640721172 -0.119566023 0.00104334601 150 198 233 0.625347197 
-0.284496337 0.12637648 0.152403906 0.000683507591 166 166 166 0.340227067 
0.0726261213 -0.01091877 -0.00917266682 0.00079783512 151 161 164 0.509616137 
0.158917844 0.0770850927 -0.0986273587 1.61816133e-05 122 164 174 0.603396118 
-0.406315297 0.145461783 0.335393161 0.000676913769 167 167 167 0.14838998 
-0.00249629095 0.119467542 -0.0527990945 0.000426388026 167 115 0 0.555352032 
-0.17871666 0.0825600326 0.222810924 0.000521027367 204 204 216 0.266415745 
-0.204528689 0.0485191755 0.24672851 0.000375455769 133 145 132 0.241341695 
0.0321582183 -0.0965602547 -0.0927472338 0.00057555025 178 193 204 0.597231686 
-0.315340072 0.185525998 0.181128591 0.000867489085 198 189 184 0.31011349 
-0.0693101361 0.121201754 -0.00901724398 0.000625882996 194 178 158 0.509453177 
0.0513898395 -0.0761671811 0.0438616127 0.000972551643 187 187 187 0.45401758 
-0.195107967 0.181824297 0.0868656784 0.000681436679 110 146 126 0.408934176 
-0.368585676 0.147276118 0.256673932 -4.9645605e-05 0 176 208 0.230915397 
0.1054653 -0.00551354513 -0.0562533364 0.000952484901 131 139 120 0.558973253 
-0.212299883 0.102836221 0.16746226 0.00105261675 183 183 183 0.324440598 
-0.277057141 -0.00575590134 0.0992089808 0.000566305709 218 126 0 0.395994067 
-0.246369243 0.0149706397 0.318341494 0.000552123296 147 145 130 0.166266084 
-0.13901487 0.101782471 0.0025712545 0.000919177488 196 118 0 0.49730441 
-0.386811346 0.138283163 0.276917279 -4.54718247e-05 175 175 175 0.209693253 
-0.161269009 0.17349501 0.071111612 0.000952754752 207 175 139 0.425450027 
-0.354412228 0.164408967 0.269728839 1.84671953e-05 168 168 168 0.217229262 
0.218311727 0.0440048613 -0.172879502 0.00104453054 164 164 164 0.681238532 
0.0885423943 -0.111449808 0.0409327708 0.000888597337 186 186 186 0.457088053 
-0.067692019 -0.00705949869 0.0284054913 0.000795985223 168 168 168 0.470221043 
0.0404572301 0.0124852546 0.013664538 0.00104295777 144 171 173 0.485674739 
-0.0287059918 0.128789008 -0.0275167376 0.00088891515 158 189 203 0.528847218 
-0.321724564 0.124148995 0.206883922 0.00105469569 169 169 169 0.283112854 
0.0131203011 0.0687400401 0.0378331915 0.000678782701 168 168 168 0.46033749 
0.0502947383 0.0683280677 -0.123594515 0.000746231992 103 175 206 0.629570484 
-0.0593289807 0.0310011916 0.09301503 0.000360696111 179 159 141 0.402487487 
-0.543058217 0.0534304231 0.295112669 0.000228663164 113 104 97 0.190618053 
-0.0473814458 0.121499389 -0.0241228938 0.000847623916 188 188 188 0.525289237 
-0.00118247734 0.0888904482 -0.0823272914 0.000801227987 160 171 170 0.586307943 
-0.19895184 0.112604395 0.0460858569 0.00064394105 194 186 0 0.451685816 
-0.377671063 0.123172611 0.360853344 0.000715939095 179 179 179 0.121698752 
0.150884271 0.118142411 -0.164646313 0.00111081603 180 180 180 0.672607183 
0.199128419 -0.0480061211 -0.118487835 0.000833877653 188 188 188 0.624216914 
-0.519851148 0.0748569816 0.288840532 -5.61109846e-05 176 176 176 0.197193474 
0.00313370582 -0.0705496967 0.0708113387 0.000628620677 172 172 172 0.425764769 
-0.282263041 0.155096084 0.253304183 0.000872594945 169 169 169 0.234448075 
-0.169978112 0.119602546 0.173416942 0.000972728943 150 150 150 0.318198025 
-0.410690457 0.146144137 0.332695603 0.00107503135 178 178 178 0.151217952 
0.0796481147 0.0447993875 -0.015016295 0.00081650255 176 176 176 0.515742362 
-0.367881745 0.128177971 0.356392175 0.00105998106 166 166 166 0.126375601 
0.23588863 0.0294417553 -0.22201106 0.00109480601 181 181 181 0.732745647 
0.0920742303 -0.0318039246 -0.0376328751 0.00105401652 175 176 175 0.539452493 
-0.30149433 0.11541757 0.264450192 0.000872305362 159 159 159 0.222763136 
0.398439258 0.0506419279 -0.358720124 0.00067219534 154 0 0 0.876064837 
0.395304382 0.0518986136 -0.355906099 4.33509013e-05 171 0 0 0.873114765 
-0.0856974646 0.0829692185 0.107538342 0.000424658763 147 147 147 0.387261957 
-0.338766545 0.156166777 0.209552139 0.000984369079 158 158 158 0.280315608 
0.00559236761 -0.0426950119 -0.0440559611 0.000768896425 170 170 170 0.546186149 
0.497779936 0.015891213 -0.438031018 0.000214981163 136 165 189 0.959210575 
-0.217630416 0.091767773 0.184837848 0.000356985518 147 147 147 0.306224912 
0.218919337 0.0227894764 -0.23367548 0.00168146309 164 163 177 0.744974136 
0.277634829 0.0301451087 -0.244692966 0.000772431842 175 175 175 0.756524324 
0.205509543 0.0926689357 -0.230312839 0.000663743587 163 168 202 0.74144882 
0.539908588 -0.0122437291 -0.398040175 0.000693978101 97 97 98 0.917286038 
-0.339420915 0.116866633 0.185495198 0.00062974618 165 165 165 0.305535764 
0.181865841 0.0124590807 -0.197591335 0.000884967041 175 183 209 0.707145154 
-0.143791705 0.0689894706 0.0506347567 0.000939849473 185 185 185 0.446916938 
-0.298235804 0.054335773 0.325745434 0.000843198621 177 177 177 0.158504188 
0.00368298963 0.118095398 -0.0601078011 0.000649112335 136 171 208 0.56301409 
-0.0154344365 -0.0542304777 0.0677444339 0.00101321633 184 184 184 0.428979993 
-0.347711653 0.149449512 0.286863744 -2.42589304e-05 0 144 143 0.199265882 
0.0338823348 0.0260157883 -0.0721875131 0.0011232869 154 154 154 0.575677872 
0.0852810666 0.120269328 -0.0995701924 4.87708166e-05 149 157 145 0.604384542 
0.475464523 0.0138624795 -0.444440693 0.000875302416 113 106 105 0.965930223 
-0.12402872 0.0614799745 0.165450484 0.000718382886 211 194 209 0.326549679 
-0.253002942 0.110409752 0.176065505 0.000377054908 174 174 174 0.315421402 
0.251071662 0.0432856679 -0.272359312 0.000841328059 159 144 147 0.785528362 
-0.371245682 0.146754205 0.282729149 -1.92790467e-05 174 174 174 0.203600362 
-0.133883864 0.0525969006 0.0619334504 0.000948693254 179 179 179 0.435071945 
-0.375213772 0.141792625 0.295926958 -0.00214593438 179 179 179 0.189764425 
-0.429672301 0.138700187 0.344027013 0.000161192744 112 112 112 0.139338657 
-0.0503799841 0.0893346667 -0.055735711 0.000804831565 169 56 0 0.558430612 
0.293994099 0.0614352785 -0.300298274 0.000913854048 0 111 217 0.814818263 
0.138260096 0.0987182409 -0.177595496 0.000163497403 167 167 167 0.686182559 
-0.454307407 0.142544016 0.339403629 0.000459474337 113 110 111 0.144185588 
0.187434912 0.0355983973 -0.160589427 0.000569908996 180 180 180 0.668354213 
0.205854416 0.00452759489 -0.208941355 0.000910139701 186 155 105 0.71904397 
-0.315233022 0.0901386291 0.258033931 0.000207588397 171 171 171 0.229489654 
0.0603414886 0.0194977187 0.00804923568 0.00096517615 176 194 216 0.491561532 
0.272756279 0.0291658342 -0.243572965 0.000552515208 154 154 154 0.755350113 
-0.490125507 0.104088783 0.286186934 0.000600007072 177 177 177 0.199975386 
-0.349893838 0.152706012 0.295230091 0.000651725451 0 116 131 0.190494999 
-0.296409726 0.0682973266 0.306212813 0.00145023211 179 179 179 0.178981215 
0.0293163378 -0.0488775112 0.0435423031 0.000672139111 174 174 174 0.454352289 
-0.112344638 0.108344361 0.138160735 0.00103091425 181 181 181 0.355158925 
-0.235092163 0.101647481 0.0859896317 0.000988112763 172 146 0 0.409852594 
-0.390160888 0.139117852 0.28583768 -0.00218146364 173 173 173 0.200341538 
0.440220833 0.0350141078 -0.402966589 -8.83104658e-05 106 120 122 0.922450721 
-0.114889674 0.0258587394 0.148716301 0.000630561146 139 169 192 0.344092995 
0.270076901 0.0431250669 -0.275760204 0.000945245964 171 171 171 0.789093673 
-0.2835522 0.196255684 0.234429032 0.000847247778 156 139 150 0.254235893 
-0.34917742 0.122299507 0.319512963 0.000165431062 105 104 103 0.16503799 
0.139410615 0.0607482903 -0.0736437067 0.000816619024 161 177 185 0.577204466 
0.167969376 0.0389372557 -0.101588175 0.000940566068 178 178 178 0.606500089 
-0.0358457156 0.0983694196 -0.0601469651 0.00100383686 126 188 201 0.563055158 
0.504309237 0.0220215227 -0.410715312 0.000122376543 183 105 130 0.930574 
-0.286310941 0.102455333 0.139005616 0.000569593569 208 188 204 0.3542732 
0.0707806721 0.0895517617 -0.132809907 0.000754920009 152 168 174 0.639231443 
-0.396809191 0.153158888 0.26329267 4.5454799e-05 65 140 159 0.223976657 
-0.156253606 0.178293481 0.0820301324 0.000543612579 205 154 0 0.414003551 
-0.032737352 0.11273104 -0.0513592847 0.000516043277 158 172 164 0.553842604 
-0.210821837 0.118702576 0.0740465969 0.000983700389 187 187 187 0.422373086 
0.245049059 0.112233534 -0.228622168 0.00115788542 183 191 205 0.739676476 
0.258960038 0.0358457193 -0.188461304 0.000245304313 230 186 194 0.697573721 
-0.0313470773 -0.0025013648 0.0442412533 0.000662605918 172 172 172 0.45361957 
0.0070520211 0.0296618883 -0.033091411 0.000970156107 88 163 177 0.534691393 
0.0935290307 -0.0474420637 -0.0332317874 -6.34416938e-06 168 168 168 0.534838617 
0.0797688738 0.0731482506 -0.0178759154 0.000348940259 174 174 174 0.518740237 
0.0871503204 -0.0704672635 0.0140229827 0.000738238567 170 170 170 0.485298932 
-0.29690367 0.165810183 0.149940282 0.000912294607 160 132 0 0.342809826 
0.225742817 0.019874623 -0.193764791 0.000889895135 162 162 162 0.703133583 
0.128998935 0.0758699328 -0.0692360178 0.00013281242 169 169 169 0.572583675 
0.339400917 0.0534613207 -0.320378572 0.000753752538 164 164 164 0.835869372 
-0.0941935107 0.0354024023 0.122937597 0.000861542183 153 122 0 0.371118128 
0.124050289 0.0964312851 -0.169197902 0.000470077153 209 181 0 0.677378893 
-0.339223862 0.14544794 0.225511223 0.000329143135 172 172 172 0.263584882 
-0.357310832 0.137137637 0.340332985 2.12596497e-05 96 134 121 0.14321129 
0.165209055 0.116163179 -0.143414766 5.80014894e-05 184 184 184 0.650349081 
-0.277000874 0.100021541 0.237960935 0.000694397197 208 213 237 0.250533223 
-0.155124962 0.0660953075 0.0973012224 0.000609283859 165 165 165 0.397994071 
-0.333582312 0.143013343 0.183741018 0.000419304473 205 188 223 0.307374746 
0.474619478 0.0322749391 -0.37274611 0.000892522396 0 182 222 0.890768945 
0.156525642 0.0531889386 -0.188203871 0.000857251172 161 161 161 0.697303832 
-0.0481443442 0.0338996947 0.0913450643 0.00102349801 180 180 180 0.404238194 
0.189280987 0.0650560185 -0.223765701 0.000577846309 159 204 235 0.734585106 
-0.00693198666 0.0416143015 -0.0681154579 0.000865182315 173 173 173 0.571408927 
-0.393134743 0.122080058 0.393050909 0.000500508933 174 174 174 0.087944366 
0.1469087 0.119666576 -0.135943383 0.00106472103 158 143 125 0.642516494 
0.0993959978 -0.0728171766 0.0107321506 0.000820789253 170 170 170 0.488748908 
-0.322671384 0.0877624452 0.261149555 0.000585588859 177 177 177 0.226223394 
-0.346357167 0.138675123 0.296259195 0.000831098645 181 181 181 0.189416125 
-0.186997324 0.148800373 0.0494765341 0.000925381959 188 107 0 0.448131144 
0.201935977 -0.0433009341 -0.122634783 0.000671433285 182 182 182 0.628564358 
-0.197698355 0.147003636 0.218450278 0.00077359064 178 153 0 0.270987242 
-0.129024476 0.060930673 0.0828101784 0.000914367789 175 175 175 0.413185775 
-0.226497591 0.151199296 0.0766528025 0.000885834335 223 201 0 0.419640869 
-0.265141666 0.122551829 0.225434154 0.000969428045 159 159 159 0.263665706 
0.0252672993 -0.0426068008 0.0402615443 7.31819309e-05 181 181 181 0.457791716 
0.127160877 -0.0134083033 -0.0565126017 0.000912461313 176 173 172 0.55924505 
-0.189329326 0.156898722 0.0560020953 0.000841952162 192 167 0 0.441290081 
-0.40578863 0.0897930861 0.467642248 0.000320045277 184 167 117 0.00974643324 
-0.106145829 0.059531942 0.104290836 -0.000135602953 168 168 168 0.390666485 
-0.352644742 0.13349998 0.332834303 3.57232057e-06 89 124 129 0.151072562 
0.372968614 0.0565207601 -0.302178621 0.000448772102 168 168 168 0.816789508 
-0.339455277 0.129571825 0.293863714 0.00102421548 0 156 174 0.191927433 
-0.272138983 0.189580992 0.143398583 0.00097229355 208 191 0 0.349667847 
-0.378803879 0.109544262 0.386597872 -3.45828885e-05 174 170 168 0.0947094038 
0.00141035335 0.0483000651 -0.0891237035 0.000751622487 0 159 195 0.593432963 
-0.13594684 0.0421908647 0.0213415474 0.000858829939 196 139 185 0.477626503 
-0.201459587 0.10225299 0.074734956 0.000835243147 180 180 180 0.421651453 
-0.358074963 0.120151058 0.333523244 3.15869693e-05 177 177 177 0.150350317 
-0.415942162 0.147125512 0.317803204 -0.00218841177 173 173 173 0.16683042 
-0.268565565 0.125500828 0.107582219 0.000553583726 221 193 0 0.387215972 
-0.380558193 -0.0200783275 0.3622922 0.000819454377 156 160 155 0.120190345 
-0.248545438 0.110416636 0.129799023 0.00100224209 175 175 175 0.36392495 
-0.376800567 -0.0864229351 0.2609649 0.000553790887 207 201 211 0.22641699 
0.0487496518 -0.120065346 0.0570203774 0.00088463357 170 170 170 0.440222561 
-0.00404307386 0.0323063135 -0.00900228042 0.00122902484 149 169 174 0.509437561 
0.321078479 0.0413747318 -0.326617181 0.000592926808 128 159 161 0.842409611 
-0.397734374 0.147618607 0.322225541 0.000697544543 169 169 169 0.162194252 
-0.247027427 0.104574144 0.198111326 0.001157908 229 216 210 0.292309612 
-0.315168321 0.10618189 0.179749355 0.000311526586 170 170 170 0.311559409 
0.0595998466 -0.00864456408 0.00156460889 0.000453125569 147 146 142 0.49835971 
-0.375056654 0.149306372 0.312425971 0.000154402369 169 169 169 0.172467664 
-0.130968213 0.103595227 0.143761098 0.000941466482 184 184 184 0.349287778 
-0.0193442553 0.0642801672 -0.0778310597 4.01336474e-05 16 185 219 0.581594288 
-0.230312556 0.111470163 0.0758913755 0.0010484691 216 190 0 0.420439124 
0.468590349 -0.0021078391 -0.455978096 0.000214397383 145 158 159 0.978025377 
-0.374202937 -0.0103753731 0.359530181 0.00102980237 141 147 139 0.123085871 
-0.375598222 0.107151344 0.378970832 0.000144796708 122 145 150 0.102705263 
-0.381925672 0.142680183 0.365630299 0.00113259559 112 112 112 0.1166908 
-0.36054197 0.130446568 0.346125364 -0.000937492703 157 157 157 0.137138873 
0.214142323 0.0254355781 -0.209614098 0.000900691666 172 172 172 0.719749272 
0.272777438 0.0393675566 -0.221957088 0.000716705108 164 164 164 0.732689083 
-0.146562964 0.0204312112 0.240629762 0.000590358221 188 183 182 0.247735336 
0.00834673643 0.0699861944 -0.0934289992 0.0007131272 156 134 0 0.597946465 
0.456630498 0.00560076442 -0.445758015 0.000595823512 140 152 174 0.967311144 
-0.16053313 0.0735941231 0.120731086 0.000998358242 172 172 172 0.373431325 
0.30482012 0.0649715289 -0.235700592 0.000826113974 169 169 169 0.747097075 
0.0408700742 -0.1140818 0.0609683916 0.00096742512 180 180 180 0.436083645 
0.111654453 0.0012342399 -0.0627390519 0.00102278916 138 137 134 0.565772593 
0.122638069 0.0662075728 -0.173214585 -0.000622488675 174 174 174 0.681589782 
-0.112084441 0.0544441454 0.13766779 0.000783908181 196 199 208 0.355675697 
-0.329658359 0.146937758 0.193784386 0.000922756502 173 173 173 0.296845764 
-0.179635763 0.0745307207 0.154772103 0.00091351528 194 185 189 0.337744385 
-0.288601846 0.150955573 0.25712958 0.000528788951 190 190 190 0.230437726 
-0.192465872 0.090733692 0.150850624 0.000583804329 180 180 180 0.341855437 
0.257071227 0.0318794921 -0.246868789 0.00088744727 184 184 184 0.758805335 
0.14676103 0.0494494326 -0.179324627 0.000939306687 181 181 181 0.687995255 
0.121566743 0.0124600129 -0.0636235848 0.000402035657 156 155 153 0.566699862 
-0.194496095 0.105921417 0.0641737878 0.000686302839 165 165 165 0.432723254 
-0.0811088309 0.0385681018 0.103913039 0.00042783306 171 157 143 0.391062587 
0.171148181 -0.0330645144 -0.131836131 0.00102484762 173 173 173 0.638210595 
0.0199742876 -0.0331707858 0.0459105931 0.000943603052 151 151 149 0.451869547 
-0.378413677 0.144044414 0.262960583 0.000894885452 184 184 184 0.224324793 
0.0418797322 -0.00780094415 0.000648323097 0.000967611151 182 182 182 0.499320328 
-0.256599784 0.125726894 0.219938099 0.000878405059 168 168 168 0.269427478 
-0.407012105 0.14021726 0.321145058 -0.00197631866 184 184 184 0.163326979 
0.0257292576 -0.167125538 -0.11524646 0.000470444444 165 165 165 0.620818794 
-0.353705406 0.144662842 0.28796795 0.000152095396 184 184 184 0.198108271 
-0.0640273318 0.0396791697 0.0319211408 0.000979822478 152 152 152 0.466535419 
-0.396820694 0.164519235 0.282547414 4.65282646e-05 181 181 181 0.203790918 
-0.049446471 0.0977400541 -0.0531455427 0.000347507303 153 146 99 0.555715203 
-0.535637319 0.0578273796 0.294368923 -0.000197056972 156 180 198 0.191397771 
0.306839436 0.0435352661 -0.227914959 0.00103125744 186 197 216 0.738935053 
0.110068612 0.0196894649 -0.0508023798 0.000965268584 200 190 196 0.553258717 
-0.215290636 0.0983401835 0.230094969 2.94662896e-05 175 163 122 0.258779466 
-0.1588884 0.0980353355 0.0160879977 0.00102975906 172 167 100 0.483134061 
0.250277668 0.0987700671 -0.257420719 0.000856886094 164 59 0 0.76986742 
-0.312736094 0.14168036 0.160125643 0.00102818594 248 0 0 0.332131982 
-0.00792220607 0.0315293893 -0.0779383406 0.000477345136 148 191 192 0.581706762 
-0.0722042546 -0.0390883647 0.0215638559 0.00107401959 186 186 186 0.477393478 
0.176581889 -0.0215059295 -0.142439574 0.000904901361 176 176 176 0.649326742 
0.226025105 0.0209516101 -0.242993265 0.000977118267 209 200 197 0.754742384 
0.546219766 -0.0122631229 -0.414573789 0.000657912344 140 140 140 0.934619129 
-0.32484889 0.147974923 0.294939041 0.000982971629 174 174 174 0.190800101 
0.19472 0.0130947363 -0.163125053 0.000695525785 180 180 180 0.671012461 
-0.0749006271 0.0558556505 -0.0148815699 0.000821443042 168 168 168 0.515601099 
-0.0772767141 0.0687987506 -0.0412677191 0.000653033727 160 173 163 0.543263078 
0.218239337 0.00578042772 -0.145982921 0.000814579427 167 177 184 0.653041422 
-0.317710847 0.110513747 0.169780999 0.000982617843 221 214 211 0.322009742 
-0.204097718 0.0884030312 0.253430963 0.000918504607 183 183 183 0.234315187 
-0.000119302014 0.125984296 -0.036272794 0.000345962879 221 157 0 0.538026631 
0.385637909 0.0266948733 -0.383062482 0.000711280969 166 171 174 0.901584208 
-0.308594465 0.0959565938 0.336104631 0.000148304971 99 162 182 0.147644103 
0.502881229 0.0170136634 -0.378546119 0.000977554242 0 156 188 0.896849394 
0.087533392 0.092530936 -0.144951373 0.000774175336 206 164 0 0.651960015 
0.390096396 0.0575619452 -0.312856644 0.00102176634 0 193 227 0.827983737 
0.115333952 0.0496737137 -0.0658368543 0.000817445514 176 176 176 0.569020152 
-0.285557806 0.130012408 0.149608016 0.00050729455 174 174 174 0.343158126 
-0.267103583 0.110014185 0.150632381 -0.00148569257 175 175 175 0.342084259 
-0.205782801 0.107466191 0.0527064912 0.000760506024 209 191 0 0.444745004 
-0.381380737 0.128433108 0.224580601 0.00122187356 0 164 216 0.264560491 
0.0902003795 0.0687962323 -0.0297172479 0.000943620456 178 178 178 0.531154096 
-0.00593326334 0.0758797228 0.0539938137 0.000881224638 181 181 181 0.443395466 
0.210279047 0.039730195 -0.222022131 0.000988158281 154 154 154 0.732757211 
-0.0428219885 0.0235765874 -0.0276273489 0.000357020734 172 166 159 0.528963149 
0.0927544236 0.0291723255 -0.0909212232 0.00118540844 163 163 163 0.595317423 
-0.405020326 0.141719103 0.323086977 -9.35011049e-05 177 177 177 0.161291197 
0.526589811 0.0118035935 -0.417268753 0.00072731718 139 182 186 0.937444329 
0.122000821 0.0695505291 -0.0624112152 0.000327121787 164 164 164 0.565428913 
-0.117283441 0.0326824114 0.151371181 0.000607980066 130 144 136 0.341309726 
-0.425260037 0.146533206 0.323292494 -0.00229135342 179 179 179 0.161075741 
0.0803151578 -0.0147071816 -0.0438870303 0.000416546623 160 160 160 0.546009004 
-0.111240841 0.0901767164 -0.015752621 0.000879199535 196 182 201 0.516514242 
-0.083025299 0.00595426839 0.142024279 0.000443699595 194 177 183 0.351108551 
-0.357374907 0.1693746 0.272301555 0.0011544415 0 131 165 0.214532137 
-0.0905150846 0.0567364506 0.00152459112 0.000842319219 168 168 168 0.498401642 
0.12805602 -0.0071545206 -0.0623779148 0.000622427091 165 176 189 0.565393984 
0.0761521906 -0.0413660966 -0.10785301 0.000250770478 171 169 119 0.613067865 
-0.386969596 0.159206405 0.287351459 0.000169594598 178 178 178 0.198754549 
0.0975751951 -0.06236149 -0.0070688827 0.000811460253 182 182 182 0.507410645 
-0.0934744552 0.0112651493 0.167008162 0.000877280894 180 180 180 0.324916661 
0.408870071 0.0537781678 -0.338262796 1.56354508e-06 215 180 175 0.85461843 
-0.143693149 0.165178865 0.0556445867 0.000778262387 207 152 0 0.441664845 
-0.21622327 0.195955142 0.12188904 0.000600730709 231 0 0 0.372217417 
0.0401670858 -0.0618679263 0.0436461531 0.000914071396 163 163 163 0.454243451 
-0.0746173188 0.0413660519 0.0724223107 0.000868589967 182 182 182 0.424075931 
0.0893575624 -0.159164533 0.0422057062 0.000580764899 188 188 188 0.455753565 
0.0575424656 -0.0137598757 -0.0132912099 0.00106960628 175 175 175 0.513933837 
0.117057689 0.0745261908 -0.0560681447 6.86363637e-05 172 172 172 0.558779061 
-0.369202256 0.1096562 0.372344375 6.12395816e-05 110 137 135 0.109652117 
0.195042342 0.000347490422 -0.178568184 0.000851119054 162 162 162 0.687202215 
-0.0644340143 0.0152386427 0.12406189 0.000731862965 170 170 170 0.369939446 
-0.160263002 0.0457818322 0.0445584618 0.00104513811 191 163 199 0.453287005 
0.286379963 0.0781143159 -0.221627235 0.000938410638 168 160 96 0.732343316 
0.228938043 0.0606583692 -0.161501095 0.000891560048 159 159 162 0.669309914 
-0.0139207803 0.0706455857 -0.0791999102 0.000997106894 97 176 210 0.58302933 
-0.317324251 0.121656984 0.215168819 0.00105100521 179 179 179 0.274427354 
0.120544292 -0.0316683315 -0.0531816669 0.000142475124 212 90 0 0.555753052 
-0.138696343 0.128428698 0.015865013 0.000865032314 159 133 83 0.483367831 
0.181265652 0.0391146652 -0.142871812 0.000586915005 172 172 172 0.649779856 
-0.461264282 0.133867502 0.34381175 0.000237783359 102 102 102 0.139564306 
0.172385097 -0.0393969789 -0.118753172 0.00101717049 179 181 181 0.624495089 
-0.315010011 0.194519505 0.194111869 0.000910524046 208 198 0 0.296502441 
-0.329925388 0.0366969928 0.337055802 0.000392037153 177 178 170 0.146646947 
0.0146010071 0.0799246281 0.0528004915 0.000956584467 157 192 221 0.444646478 
0.257380635 0.0973380655 -0.262482464 0.000750710082 176 140 106 0.775173903 
-0.231099933 0.18522878 0.109008446 0.000969160523 220 197 186 0.38572076 
-0.366601527 0.143589899 0.287442297 7.29560634e-05 177 177 177 0.198659316 
0.0582081713 -0.042549558 0.014164173 0.000921549799 174 174 174 0.485150933 
-0.359673321 0.0097041484 0.369387597 0.000728401996 187 187 187 0.112751819 
-0.042678684 0.0430079326 0.0545105487 0.000496542547 166 166 169 0.442853719 
0.00915151462 0.0355453417 0.0392118655 0.000360490259 202 204 211 0.458892137 
-0.283696294 0.115943164 0.173322022 0.000746792532 159 159 159 0.318297505 
-0.383136868 0.167483345 0.30205211 1.70024578e-05 172 172 172 0.183343112 
-0.0240270216 0.116954267 -0.0505826846 0.000571952784 167 167 186 0.553028405 
-0.0141791441 0.0321409777 -0.0396790095 0.000510725484 172 172 170 0.541597545 
-0.359489202 0.141156822 0.227906823 0.000624061737 179 179 179 0.26107347 
0.0520925447 0.0190534443 0.0101513173 0.00101733056 157 178 196 0.489357829 
0.0575066172 -0.0742043555 0.0472988561 0.000933417294 160 160 160 0.450414151 
-0.165720344 0.156791374 0.0474074073 0.000941868988 132 156 172 0.450300336 
-0.169488966 0.14315246 0.0373622589 0.000963640632 135 138 107 0.460831165 
0.0310337096 0.0688999593 -0.109297313 0.000652599381 185 192 206 0.614582002 
-0.289470166 0.202133611 0.183396041 0.00110380317 225 174 0 0.307736427 
0.0289942063 -0.0986909717 -0.104828909 0.001052476 108 167 198 0.609897554 
0.204020649 0.0330415219 -0.199161649 0.000784148637 178 178 178 0.708791435 
-0.205006361 0.0229506753 0.29509142 0.000694907212 0 153 185 0.19064036 
-0.370101213 0.150605127 0.300741285 0.000629567367 164 164 164 0.184717327 
-0.460900098 0.134627208 0.366637737 0.000358844671 174 174 174 0.115634643 
-0.19985956 0.133948803 0.0516283512 0.000822135073 202 194 0 0.445875287 
0.435470283 0.0416274853 -0.34341383 0.000500114518 0 160 199 0.860018492 
0.23030746 0.0455899872 -0.240561128 0.000750454667 181 181 181 0.752192616 
-0.0469883718 0.0451748185 0.0299942233 0.000664466934 161 173 183 0.46855548 
-0.250590265 0.138036788 0.107132256 0.00117173267 178 178 178 0.387687683 
0.459816068 0.0336246789 -0.403659344 0.000449567655 0 193 219 0.923177004 
-0.163336277 0.0736935288 0.0712042749 0.000849822944 179 179 179 0.425352812 
0.318187624 0.0776219517 -0.263021171 0.00065434823 154 172 201 0.775738716 
0.495041251 -0.0345333591 -0.473696649 0.000275750383 99 99 99 0.996600628 
-0.128112644 0.0279977955 0.171678409 0.00102831738 132 154 170 0.320020586 
0.0207209438 -0.0993950516 0.0642269328 0.000891414413 166 166 166 0.432667524 
-0.0213751085 0.0438664518 -0.074946411 0.000916467863 156 188 209 0.578570187 
0.121061616 0.0395941176 -0.149902433 0.00101360655 184 184 184 0.657150447 
0.428675622 0.0422102213 -0.383906245 0.000347332563 0 182 208 0.902468741 
0.17169109 -0.0539221466 -0.113388866 0.00087012921 160 160 158 0.618871391 
0.309191018 0.0843230635 -0.258482099 0.000934692449 175 200 219 0.77098006 
0.154343426 0.0518281274 -0.106235527 0.00071982306 173 173 173 0.611372173 
0.066204153 -0.0289221928 -0.0225368775 0.00114218832 179 188 200 0.523626566 
-0.302003235 0.14689523 0.157071158 0.000907884736 187 187 187 0.335334152 
-0.19094643 0.118430018 0.183922708 0.00083403883 159 159 159 0.307184279 
0.275472075 0.028939914 -0.201569319 0.00126070273 155 145 131 0.711315513 
-0.210810721 0.0871833265 0.253020704 0.00104057137 166 166 166 0.234745294 
-0.191945016 0.0858939737 0.237162232 0.00119764381 184 184 184 0.251370519 
-0.178821772 0.090564236 0.182086602 0.000769129023 180 180 180 0.309109181 
-0.363488227 0.161775708 0.280543804 1.36626186e-05 163 163 163 0.205891371 
0.116692938 0.0306612067 -0.108620323 0.000478963659 183 183 183 0.61387229 
-0.170422465 0.171793059 0.0677198619 0.000899278384 151 131 0 0.429005712 
-0.0463746861 0.105459332 0.0900772139 0.000726742786 174 174 174 0.405567348 
-0.325771004 0.149449065 0.29058364 0.000802188762 174 174 174 0.195366085 
0.064929381 -0.0174604058 -0.0937941074 0.000451832719 161 167 153 0.598329186 
-0.172335953 0.0792608112 0.21160695 0.000835672487 183 183 183 0.278161466 
0.0345083699 0.00719622895 0.017738428 0.000575321261 157 182 182 0.481403887 
0.295217901 0.0522426218 -0.230866641 0.00095406035 169 169 169 0.742029428 
-0.283895224 0.0732099414 0.305304825 2.94078782e-05 168 168 168 0.179933116 
-0.321787596 0.14746584 0.270190895 0.00107986596 159 159 159 0.21674487 
-0.0448414162 0.0975113958 -0.0559152067 0.000573201745 160 172 157 0.558618784 
0.120514311 0.0264418237 -0.165630385 0.000917219673 0 154 175 0.67363888 
0.173960894 0.0340135954 -0.171407536 0.000822386064 175 175 175 0.679695368 
-0.218726337 0.119014487 0.198859841 -0.000175404188 176 176 176 0.291524917 
-0.237504274 0.12214157 0.207587093 0.000594397774 173 173 173 0.282375723 
-0.320493996 0.158930466 0.170338899 0.000975041243 198 198 200 0.321424901 
-0.0450421348 0.0740328133 -0.0608200133 0.00104713102 0 200 218 0.563760757 
-0.412227422 0.0994310975 0.460199594 0.00111340825 94 94 94 0.0175489578 
0.247659028 0.049847763 -0.177530169 0.000913270575 207 175 171 0.686114013 
0.0410559438 0.113914743 -0.00979524944 0.00101230468 131 177 170 0.510268867 
0.228013694 0.0478468277 -0.177936479 0.000718926662 171 171 171 0.686539948 
0.247463673 0.0365149155 -0.188854814 0.000765109784 178 178 178 0.697986245 
0.361299843 0.0527066179 -0.330944926 0.00097729906 175 175 175 0.846946716 
0.229542613 0.0328731909 -0.183253825 0.000702147256 172 172 172 0.692114413 
-0.223066479 0.121760711 0.212899238 5.10198079e-05 185 185 185 0.276806682 
-0.317331105 -0.0663928688 0.334418803 0.000632461277 164 164 164 0.14941144 
0.150566906 0.0792404115 -0.191766351 0.000481213501 178 163 76 0.701038539 
0.0887393951 -0.0357795581 -0.108692959 0.000687486783 204 160 0 0.613948464 
-0.133408993 0.0564567223 0.172378331 0.000437011011 205 168 205 0.319286853 
0.241345406 0.0388271213 -0.262940764 0.00101860671 183 133 0 0.775654376 
-0.214065641 0.0972596556 0.105969496 0.000783326221 176 176 176 0.388906658 
-0.114418395 0.0523446538 0.130587891 0.000343007618 205 207 221 0.363097936 
-0.16772452 0.0763108879 0.0740923509 0.000816265936 179 179 179 0.422325134 
0.373405159 0.0569977351 -0.337321997 0.00113453611 181 164 158 0.853632152 
0.278387308 0.0328459777 -0.265275657 0.00100321614 172 172 172 0.77810216 
-0.370460302 0.144412532 0.294387221 2.8043869e-06 161 161 161 0.191378638 
-0.220101267 0.0993177593 0.0720760748 0.000946951099 224 194 0 0.424438864 
0.156084746 0.0660280511 -0.197578281 0.000206626137 157 152 121 0.707131565 
0.20951876 -0.00675429963 -0.150441915 0.000436153787 123 142 158 0.657716036 
0.124306284 -0.109514341 0.00876393728 0.000777235255 173 171 171 0.490812272 
0.143361479 0.00494582718 -0.0799191445 0.00054314977 151 183 185 0.583783388 
-0.249843597 0.144669995 0.0929284841 0.000326689682 185 154 0 0.402578264 
-0.150274634 0.160982773 0.0496007614 0.000531126803 178 172 173 0.448000908 
0.176634938 0.0811490119 -0.211598307 0.00103284616 214 0 0 0.721829414 
-0.238990217 0.0933619142 0.202621162 0.000587224436 166 166 166 0.287581712 
0.255866647 0.0293745957 -0.237902865 0.000961730781 187 187 187 0.749405861 
-0.326723844 0.130659074 0.225419596 0.000826636911 164 164 164 0.263680965 
0.248794794 0.104661524 -0.250347108 0.000505336677 133 146 154 0.762451768 
-0.0360233709 0.0407230966 -0.0652136058 0.000543839007 129 173 200 0.568366766 
-0.297410429 0.141759962 0.255350918 0.000272008328 156 156 156 0.232302383 
0.122065596 -0.018066071 -0.0501940623 0.000733912049 176 177 176 0.552621007 
0.224977136 0.0816870481 -0.248559177 0.00040048972 196 143 0 0.76057744 
0.184827209 0.00717606582 -0.147087216 0.000741344295 146 185 183 0.654199123 
0.219701022 0.0752816945 -0.161340415 0.000823866285 161 161 161 0.669141471 
-0.394037694 0.124170497 0.395256847 0.000927436049 175 175 175 0.0856317282 
-0.0339519791 0.0515444204 -0.0572261736 0.000963077531 183 183 183 0.559993088 
-0.166369557 0.0733707249 0.115151234 0.000992426998 163 163 163 0.379280955 
-0.129873812 0.0545923337 0.0543867387 0.000866493327 178 178 178 0.442983568 
-0.161084354 0.0832931697 0.136607975 0.000980917714 174 174 174 0.356786758 
0.192472011 0.116074085 -0.187224612 0.000430454063 174 148 67 0.696277261 
-0.188147634 0.0927023143 0.157936454 0.000949813984 178 178 178 0.334427029 
0.137825698 0.0967777073 -0.0880772471 0.000877754472 157 146 139 0.592335939 
-0.233978093 0.193405584 0.123134971 0.000911149487 218 210 110 0.370911211 
0.305714935 0.0585119389 -0.306926399 0.000971214438 0 96 194 0.821766853 
0.244473368 0.0313779078 -0.208832189 0.000895906473 186 186 186 0.718929589 
0.116450973 0.046837531 -0.168660611 0.000532247359 167 184 211 0.676815629 
-0.297142714 0.158428475 0.272598684 0.000805353455 143 151 180 0.214220658 
-0.36950466 0.144291088 0.28323704 -0.00281185308 175 175 175 0.203067929 
-0.160840929 0.080406636 0.0223669726 0.00084821519 0 179 216 0.476551503 
-0.025569804 0.0582780093 -0.0683140755 0.000987763051 167 167 167 0.571617126 
-0.0722719282 0.12224859 -0.0044337078 0.000967727625 176 148 128 0.50464803 
-0.105591215 0.0548919179 0.119750462 0.000986486324 185 185 185 0.374459356 
-0.270372629 0.150730923 0.247655123 0.000988621265 184 184 184 0.240370288 
0.409018964 0.0400609635 -0.314013004 0.000311632117 193 203 219 0.829195976 
0.106832616 -0.00202522893 -0.120259643 0.00104910054 175 175 175 0.626074374 
-0.219437718 0.126120433 0.0795530006 0.00135074707 181 181 181 0.416600466 
-0.274957687 0.142563209 0.131074935 0.000998014351 176 176 176 0.362587333 
0.0974089876 -0.0370148458 -0.0460273549 0.000853178382 132 146 136 0.548252821 
-0.285308927 0.206222281 0.190813333 0.001006776 206 162 0 0.299960494 
0.109333105 0.0253135804 -0.158791095 0.000536139007 146 179 219 0.666468918 
0.437871605 0.0387731045 -0.39254424 0.00115263741 173 233 249 0.911524355 
-0.249543965 0.176192403 0.112035483 0.000815021922 213 188 0 0.382547379 
-0.0802261457 0.0728992671 -0.0274963807 0.000933474745 175 175 175 0.528825819 
-0.0765401348 0.140947953 0.01796248 0.000802198425 189 161 0 0.481168956 
-0.385689825 0.124524847 0.259102345 0.00051898032 180 180 180 0.228369594 
-0.304159909 0.0908539146 0.242777333 0.000644109154 172 172 172 0.24548392 
-0.365772933 0.150985569 0.306916267 0.000548179203 62 118 131 0.178243771 
-0.0722205415 0.00911075622 0.124093056 0.000466542784 206 131 0 0.369906783 
0.366174012 0.0336620249 -0.361868411 9.44379717e-05 174 174 174 0.879365325 
-0.214453846 0.0439775921 0.0873648897 0.000664946449 190 172 191 0.408410847 
0.445944756 0.0073105786 -0.437698781 0.000531485653 204 208 219 0.958862185 
-0.379125923 0.0276218094 0.226900309 0.000412939989 210 214 217 0.262128651 
-0.372502297 0.129762575 0.352145761 0.00104337349 181 181 181 0.130827323 
0.0642659441 0.048733864 -0.132933348 0.000691497407 152 155 164 0.639360845 
-0.389104575 0.142369494 0.273030639 0.000109800167 177 177 177 0.213767812 
-0.111882582 0.0469541103 0.0923916847 0.000762099633 169 169 169 0.403140962 
-0.0661676973 0.0744830519 0.0923801661 0.000953236362 175 175 175 0.403153092 
-0.0238403287 0.0717964917 -0.0709315166 0.00121630821 175 175 175 0.574361145 
-0.0662110299 0.0963655114 -0.0322990716 0.000945688167 185 185 185 0.533860743 
-0.428139657 0.139164358 0.308102071 -0.000853252073 177 177 177 0.177000597 
-0.179764718 0.189432517 0.107696727 0.000475975743 219 206 0 0.387095928 
0.383384287 0.0585181303 -0.319191992 6.52580638e-07 203 175 206 0.834625423 
-0.479272962 0.133198842 0.358393133 0.000648678746 92 92 92 0.12427792 
-0.187637508 0.0846524835 0.202428952 0.000512995815 176 176 176 0.287783235 
-0.0143593149 -0.0164387822 -0.0312935933 0.000712845474 145 145 145 0.532806635 
-0.247432947 0.114381388 0.208028406 7.28962914e-05 180 180 180 0.281913042 
0.50637126 -0.00863879733 -0.465348661 0.000744562247 118 118 118 0.987848997 
0.134315461 -0.00260313787 -0.0691095516 0.000974275637 138 156 166 0.572451115 
-0.320754617 -0.0748128295 0.335257858 0.000785899756 161 161 161 0.148531795 
-0.0290600639 -0.0837443322 -0.0493637398 0.000650524977 132 164 154 0.551750541 
0.312034637 0.0357402265 -0.318196416 0.000959688041 0 146 187 0.833581746 
-0.0247490071 -0.0150786862 -0.0321072824 0.000986625208 178 178 178 0.533659697 
0.0788930431 -0.106250212 0.0417356119 0.00102489581 166 166 166 0.456246376 
-0.207212478 0.095341444 0.0584064089 0.000925369095 223 198 0 0.438769519 
0.10531608 -0.0691418499 -0.0101456922 0.000455335015 173 197 219 0.51063627 
-0.365702599 0.154583856 0.311024249 -0.000698697288 178 178 178 0.173937157 
-0.297107637 0.201434091 0.189842686 0.00110178837 234 214 0 0.300978065 
-0.341827691 0.153536946 0.224473417 0.000920034305 174 174 174 0.264672875 
0.0646473318 0.0171573795 -0.0251131393 0.00105416612 163 155 133 0.526327372 
0.136678696 0.0651508868 -0.181862056 0.00023173471 185 185 185 0.690655351 
-0.250339061 0.187455878 0.124120831 0.000966015854 210 190 0 0.369877696 
0.0814392716 0.0458281077 -0.14447324 0.00104895292 0 175 193 0.65145874 
-0.240905613 0.0996488035 0.213393211 0.000890302064 202 182 192 0.276288837 
0.00595447142 0.0272572506 0.0123018119 0.000902872067 160 160 160 0.487103343 
-0.17946595 0.156125531 0.202900052 0.000687528751 200 185 0 0.287289351 
-0.555379927 0.0530274212 0.302876025 0.00107594091 113 113 113 0.182479382 
-0.130467564 0.0872102827 0.0119057745 0.000526399701 160 160 160 0.487518519 
-0.392269105 0.122247562 0.400573522 0.000654229603 177 177 177 0.080058001 
-0.181924254 0.160819039 0.201536715 0.000909907627 209 169 0 0.288718611 
-0.278574347 0.102591783 0.130050421 0.00106026407 242 227 242 0.363661408 
-0.378753066 0.14273572 0.290827066 -0.00256276759 179 179 179 0.195110917 
-0.0261966698 0.0895018131 -0.0660607517 0.00110475812 170 170 170 0.569254875 
-0.298019946 0.12474072 0.239507288 0.000828732445 174 174 174 0.248912081 
-0.0530823804 0.0522141717 -0.0363009349 0.000746728794 176 176 176 0.538056135 
-0.173694551 0.0873323828 0.163457185 0.000884486944 178 201 224 0.328639358 
0.196296573 0.102930173 -0.216154352 0.00101555057 150 158 152 0.726605713 
0.189295262 0.00186784426 -0.131824583 0.000865338603 131 157 156 0.638198495 
