ply
format ascii 1.0
comment created by gply, a Houdini tool.
comment converted from .[b]geo
comment for more information about Houdini, try:
comment www.sidefx.com
element vertex 619
property float x
property float y
property float z
property float depth
property uchar red
property uchar green
property uchar blue
property float length
element face 0
property list uchar int vertex_indices
end_header
-0.00549569074 -0.0614383817 0.0192504041 -0.0453008041 43 43 43 0.478746861 
-0.0157044716 -0.0673170388 0.0100582801 -0.0798912719 40 47 44 0.470789433 
-0.0175448805 -0.0616432503 0.0275385678 -0.0472232178 40 40 40 0.464253217 
-0.0192578789 -0.0634285659 0.0153323635 -0.0837043971 43 43 43 0.466060996 
-0.00989957154 -0.0662705377 0.0278332345 -0.022517493 40 40 40 0.471286774 
-0.0180933196 -0.0583040938 0.0203911774 -0.0750243291 40 40 40 0.466209024 
-0.0102724889 -0.0733666271 0.0176712237 -0.0357060619 42 42 42 0.473267496 
-0.0101647042 -0.0567638278 0.0162587315 -0.0716241524 43 43 43 0.475489527 
-0.0128256958 -0.0672019795 0.0210515112 -0.0462003909 43 43 43 0.470336437 
-0.024053609 -0.0606478155 0.0240867361 -0.0723810568 40 40 40 0.45893383 
-0.017428834 -0.0713185519 0.0167706721 -0.0588113964 41 41 41 0.466640502 
-0.0239412561 -0.0555270836 0.0168595165 -0.10255345 40 40 40 0.461751163 
0.00421524001 -0.063028641 0.00695764273 -0.0584126562 43 43 43 0.491946518 
-0.00248537119 -0.0659647137 0.00845684297 -0.060333766 46 46 46 0.484539896 
-0.0108213127 -0.063965492 0.0146598443 -0.0651626959 45 45 45 0.474588662 
0.00618608063 -0.0671181977 0.0230448805 -5.20781032e-05 43 43 43 0.488624126 
-0.0042419238 -0.0544767156 0.0212723576 -0.0468507707 0 0 54 0.480088472 
5.89344418e-05 -0.0644918531 0.0153055936 -0.0399057865 48 48 48 0.485145867 
0.000905428606 -0.0571495369 0.016937498 -0.0466885529 42 42 44 0.486239612 
-0.00242757774 -0.071409896 0.0163666494 -0.0269086026 44 44 44 0.4816522 
0.00410576817 -0.0701186806 0.0130969863 -0.0256730784 46 46 46 0.489260763 
-0.00505065778 -0.0599939004 0.0121842325 -0.0677734166 47 47 47 0.481472194 
0.00953341555 -0.0529414117 0.0162111185 -0.0398938805 0 0 53 0.4954561 
-0.00787542574 -0.0700356439 0.0114778057 -0.0532154292 44 44 44 0.477859408 
0.00656823162 -0.0734855533 0.00690368563 -0.0268421602 162 153 142 0.493236661 
-0.0111934077 -0.0571328998 0.00895182975 -0.0949790478 44 44 44 0.476639569 
0.000855718623 -0.0559442192 0.00980945304 -0.0708989725 42 42 42 0.488467932 
-0.0987960622 -0.0611223429 0.0442169718 -0.117720068 208 189 180 0.378567278 
-0.103497945 -0.0612342432 0.0382610187 -0.141537219 53 45 55 0.375686914 
-0.105153054 -0.0571293086 0.044460278 -0.131494418 249 161 0 0.372586071 
-0.104315065 -0.0661098957 0.0438727103 -0.11263936 53 45 55 0.372682989 
-0.102107905 -0.0519051626 0.0490441583 -0.118831486 242 151 0 0.374755591 
-0.0990744308 -0.0539524853 0.0415938012 -0.138608754 208 186 145 0.379812837 
-0.102697395 -0.0594568551 0.0510254242 -0.101876982 249 161 0 0.37280336 
-0.0975029394 -0.0477504656 0.0448729321 -0.132269233 237 171 0 0.381012678 
-0.107173704 -0.0542702004 0.0378532074 -0.161559775 249 161 0 0.372867554 
-0.0965969414 -0.0541073382 0.0346262865 -0.159515917 147 113 215 0.384364307 
-0.0881378427 -0.0632889867 0.0422620438 -0.106600918 56 41 40 0.389523476 
-0.0885331035 -0.0605819225 0.0349386968 -0.136125669 54 48 8 0.391620338 
-0.0885784999 -0.0588493049 0.0482189022 -0.0943666995 181 187 185 0.387736112 
-0.0932879224 -0.0584235564 0.0400135629 -0.129561275 39 0 72 0.385583043 
-0.0862816647 -0.05632893 0.0407820046 -0.120543353 61 52 57 0.392522067 
-0.0932403803 -0.0488244668 0.0389419682 -0.146300375 212 196 194 0.386930168 
-0.0819147751 -0.0514360741 0.0370888375 -0.132039383 0 34 74 0.398473173 
-0.0892265737 -0.0531776398 0.0343663134 -0.151468962 61 52 57 0.391857445 
-0.0711143315 -0.0580215901 0.0368753225 -0.106854245 54 39 33 0.408594877 
-0.0764664337 -0.0607809499 0.0282328688 -0.140363991 60 47 43 0.405611873 
-0.0680243596 -0.0523560867 0.0407457948 -0.0943185464 49 40 54 0.411069483 
-0.0812849402 -0.0597403944 0.0339081883 -0.131508112 52 37 22 0.399216115 
-0.0706325546 -0.0490799174 0.0323227942 -0.131563708 97 89 99 0.411358893 
-0.0777990818 -0.0569856614 0.0398710854 -0.109437823 55 41 30 0.401155353 
-0.0759983212 -0.0548332781 0.032516446 -0.134392872 54 40 0 0.405386299 
-0.0748934746 -0.0503619537 0.0383057222 -0.116261773 86 81 87 0.405187786 
-0.0735269114 -0.0570479035 0.0225019716 -0.161237165 57 44 48 0.410643607 
-0.0650930181 -0.0532969758 0.0340443738 -0.112407491 56 35 51 0.415911376 
-0.0637065843 -0.0584804639 0.025456775 -0.133159563 63 51 54 0.419357777 
-0.052624438 -0.0561274812 0.0308429338 -0.101348281 50 38 53 0.428974956 
-0.0595233813 -0.0541256145 0.0290804654 -0.1204824 60 35 37 0.42285955 
-0.0626997948 -0.048037827 0.0384757407 -0.0982278883 138 142 139 0.417483062 
-0.067284286 -0.0520614237 0.0264125727 -0.144139245 57 29 43 0.416168153 
-0.0574623831 -0.0509084985 0.023087848 -0.142326146 54 40 59 0.427045405 
-0.0461340696 -0.053684555 0.0267271586 -0.109297432 54 49 47 0.436913788 
-0.0510995984 -0.0541168898 0.0213541575 -0.135107607 51 43 47 0.433562726 
-0.0457686372 -0.0583577752 0.0329667591 -0.0811893344 51 43 47 0.434915036 
-0.043634899 -0.0542399585 0.0198449977 -0.12928398 50 42 47 0.441420227 
-0.047709845 -0.0510543436 0.0335770957 -0.089665547 171 167 169 0.433545083 
-0.0521767586 -0.0492821485 0.0279332809 -0.118491828 178 174 176 0.430995226 
-0.0423157364 -0.0470629409 0.0197009705 -0.135346189 130 123 133 0.443503588 
-0.044791311 -0.0463452861 0.0266665295 -0.114079304 149 145 151 0.439011842 
-0.054452315 -0.0497292802 0.0162246563 -0.163477883 59 53 60 0.432229906 
-0.0389233753 -0.0533657447 0.025072515 -0.10458193 51 48 40 0.444607884 
-0.0244281217 -0.0516693965 0.0235441253 -0.0859398395 0 0 52 0.459638685 
-0.0420119204 -0.057103917 0.01301823 -0.146018147 42 42 42 0.444805026 
-0.0228803679 -0.0514709577 0.0101016704 -0.126496837 40 40 40 0.465260416 
-0.0300489999 -0.0518265963 0.018862702 -0.11198052 0 0 52 0.455455661 
-0.0283007063 -0.0455194488 0.0224325694 -0.10276138 70 70 92 0.45675388 
-0.0354090594 -0.047616981 0.0223049335 -0.114152767 86 86 105 0.449519455 
-0.0335579738 -0.0409188718 0.0195691809 -0.12595202 62 62 85 0.452865988 
-0.012602739 -0.0458938852 0.018667601 -0.082616888 47 47 47 0.473444909 
-0.0158406589 -0.0516916215 0.0072857216 -0.118928336 43 43 43 0.473080993 
-0.0178649742 -0.0509232581 0.0199816525 -0.0848770887 41 41 41 0.467310011 
-0.0169203114 -0.0549174324 0.0139783248 -0.0966431871 43 43 43 0.469657272 
-0.0145550426 -0.0470878929 0.0256782919 -0.0632266924 45 45 45 0.469264865 
-0.0174736753 -0.0476775169 0.0134394765 -0.108426064 43 43 43 0.470006615 
-0.0240644384 -0.0481707752 0.0169856083 -0.110827819 40 40 40 0.462338567 
-0.0208669584 -0.0468905717 0.00457866862 -0.144797325 41 41 41 0.469395608 
0.00138028653 -0.0487280637 0.00893718936 -0.084471412 0 0 54 0.489986271 
-0.00430075312 -0.0493344143 0.00437203981 -0.108901717 0 0 55 0.485662699 
-0.00369437831 -0.0521307141 0.0142439455 -0.0716752857 0 0 54 0.482995838 
-0.00525565352 -0.0449859872 0.018073814 -0.0709022805 62 62 83 0.481013626 
-0.00489046751 -0.0458399504 0.0106218029 -0.0945356116 35 35 64 0.483542621 
-0.0107267722 -0.0503290519 0.01247162 -0.0937916636 0 0 55 0.476730525 
0.000890226918 -0.0434876159 0.0142161213 -0.0750031322 61 61 83 0.488436252 
-0.0114190662 -0.0456285551 0.00676469505 -0.119736262 17 17 57 0.478246301 
-0.00215289905 -0.0456197336 -0.00194520317 -0.130894527 0 0 54 0.490083545 
-0.098373957 -0.0469681248 0.0337377489 -0.174395308 231 187 133 0.383593857 
-0.0953964815 -0.0355512947 0.0420304053 -0.150337085 229 0 0 0.385204375 
-0.102639221 -0.0477361679 0.0399470888 -0.157301143 240 162 0 0.377402246 
-0.103422783 -0.0361082107 0.0296578892 -0.207230866 235 0 0 0.380917132 
-0.107359745 -0.0503087714 0.0441127829 -0.145261064 246 151 0 0.371192932 
-0.109491847 -0.0395529121 0.0468612127 -0.149558768 223 0 0 0.369337887 
-0.108425982 -0.0431984812 0.0404568352 -0.168169394 234 148 0 0.371962249 
-0.105522886 -0.0334199332 0.0362277217 -0.188814893 236 0 0 0.377118289 
-0.102881052 -0.0382188335 0.0420272425 -0.159740135 233 0 0 0.377500713 
-0.103284724 -0.0416308567 0.0354038216 -0.180918679 237 153 0 0.37875551 
-0.0971982554 -0.0424348339 0.0397257842 -0.15589343 234 121 0 0.383411914 
-0.110182777 -0.0389433801 0.0345768295 -0.196412653 237 106 0 0.372427851 
-0.0998983309 -0.0434303731 0.027659554 -0.202422097 240 214 154 0.384277314 
-0.0902269781 -0.0420408919 0.0374598391 -0.153119192 238 198 0 0.39106074 
-0.0938889384 -0.0321460143 0.0359747596 -0.171263546 236 0 0 0.388878793 
-0.0880756304 -0.0480570793 0.0271169655 -0.180904001 0 34 74 0.395712942 
-0.0913034454 -0.0432639122 0.0446395576 -0.12831609 249 180 0 0.387696475 
-0.097214438 -0.0380518585 0.0333826914 -0.182669744 249 180 0 0.385759294 
-0.0849429965 -0.040747501 0.0423175953 -0.127458885 238 198 0 0.394971371 
-0.0902086049 -0.0366471484 0.032275591 -0.175057799 242 175 0 0.393194795 
-0.0830559134 -0.0359739438 0.0339194797 -0.15716137 230 178 0 0.399870038 
-0.0871105865 -0.0407439768 0.0267820992 -0.186356544 211 189 158 0.397516131 
-0.0780930892 -0.0475948602 0.0321585648 -0.14593114 86 81 87 0.40414995 
-0.0775904506 -0.0344040394 0.0290934034 -0.166157454 222 189 144 0.406916946 
-0.0810607448 -0.0473877713 0.0253347494 -0.175254926 49 40 54 0.403286785 
-0.0795948654 -0.0316253677 0.0226231851 -0.194658592 252 183 0 0.407165021 
-0.079538703 -0.0445930138 0.0386237241 -0.127989411 203 191 178 0.401064634 
-0.0678947121 -0.0368481874 0.034335006 -0.129958212 233 204 159 0.414713174 
-0.08784502 -0.0345573574 0.039267879 -0.147296533 238 108 0 0.393640548 
-0.074280113 -0.0331492424 0.0356027074 -0.137989342 252 183 0 0.408364147 
-0.0850761905 -0.0457157418 0.0335131325 -0.155159384 203 191 178 0.396996051 
-0.074630253 -0.0509478226 0.0261837803 -0.158189997 56 43 34 0.409054726 
-0.0852169469 -0.0335941389 0.0269839093 -0.187065884 230 178 0 0.40006271 
-0.0703288317 -0.0348243639 0.027679354 -0.159451798 233 204 159 0.414513767 
-0.0788425505 -0.037139684 0.039821472 -0.127995029 230 178 0 0.402151644 
-0.0804972574 -0.0413787663 0.0295406766 -0.164261833 209 189 169 0.403185695 
-0.0748947337 -0.0405176431 0.0345005579 -0.137806922 222 189 144 0.407337874 
-0.0748148486 -0.039996013 0.0248907357 -0.172840208 219 208 198 0.410375774 
-0.0639899597 -0.0468484685 0.0304748863 -0.129897833 50 66 85 0.418741703 
-0.0638886169 -0.0322826803 0.0304451771 -0.140171051 242 194 0 0.420332164 
-0.0644323379 -0.0429865569 0.0237516575 -0.158197001 177 177 173 0.42072773 
-0.066911675 -0.0287180319 0.0245984495 -0.167626604 246 188 0 0.419459909 
-0.0554796159 -0.0388809368 0.0324382521 -0.114736781 217 190 153 0.427410305 
-0.0566935949 -0.0312900841 0.0297184922 -0.130208671 233 206 148 0.427798659 
-0.0577581003 -0.0445682481 0.0270986445 -0.134163365 177 177 173 0.426183641 
-0.0591454506 -0.0300372522 0.0228175782 -0.159809738 233 206 148 0.427577406 
-0.0625053942 -0.0394717976 0.0300620869 -0.134713665 223 207 181 0.421090871 
-0.0695974454 -0.0422532335 0.0295426175 -0.145854697 183 181 177 0.413921565 
-0.057097815 -0.0373213664 0.025348682 -0.14408648 217 190 153 0.428105265 
-0.0640043467 -0.0354376063 0.0237535276 -0.162678391 217 190 153 0.421919674 
-0.0508903265 -0.0418607593 0.026830554 -0.125850618 171 158 139 0.433360785 
-0.0524055138 -0.0322812647 0.0203164779 -0.156880766 210 195 172 0.434799403 
-0.0498879589 -0.0467448831 0.0213727057 -0.14095749 173 171 169 0.43550995 
-0.0587135181 -0.0300392639 0.0136330035 -0.192374393 231 204 160 0.430783153 
-0.043076925 -0.0361954719 0.0270726457 -0.115975015 178 172 165 0.441623569 
-0.0454209819 -0.0292288419 0.0279430561 -0.118412659 201 182 163 0.439740628 
-0.0457541086 -0.0407312736 0.0217752643 -0.137215495 165 163 157 0.4401052 
-0.0476868376 -0.0285857338 0.0157986172 -0.167345613 184 168 161 0.441227525 
-0.0505720116 -0.0345811397 0.0271476805 -0.127929568 221 202 165 0.434321135 
-0.0358536504 -0.0353666842 0.0249826312 -0.1132451 98 111 145 0.449513704 
-0.0586986691 -0.0357096866 0.0184415467 -0.172781229 205 181 149 0.428767562 
-0.0526243299 -0.0397202075 0.0199003294 -0.155195013 171 158 139 0.433951616 
-0.0389582887 -0.0421273038 0.024851609 -0.114862226 99 88 129 0.445782572 
-0.0258613899 -0.0408981144 0.0171939395 -0.12019448 76 76 76 0.461230278 
-0.043017745 -0.0308235902 0.0211385377 -0.13962476 174 162 163 0.444022685 
-0.0281092972 -0.0275041983 0.0171835106 -0.130931437 0 92 143 0.460362554 
-0.0376085117 -0.044513464 0.0145264082 -0.148008868 73 73 93 0.450002372 
-0.0235612113 -0.0440835282 0.0107151829 -0.134278044 45 45 45 0.46514976 
-0.0463721827 -0.0295636877 0.00852494128 -0.191781059 174 162 163 0.444632977 
-0.0293060448 -0.0258038696 0.010070676 -0.158924505 0 131 185 0.461497426 
-0.0337135978 -0.0414001346 0.0298741981 -0.088689521 72 72 92 0.449546754 
-0.0352419801 -0.0268366206 0.020662941 -0.130165815 181 182 170 0.452294469 
-0.03082137 -0.0434192792 0.012185581 -0.144984379 70 70 92 0.457562149 
-0.0324314721 -0.0333965942 0.0189680345 -0.13039577 117 129 163 0.454931289 
-0.028458979 -0.0334895924 0.0125508662 -0.146395326 44 0 91 0.460807472 
-0.0397953503 -0.0371550992 0.0188769251 -0.140998542 130 126 144 0.447263181 
-0.0414845236 -0.0332144871 0.0127565823 -0.168004289 98 111 145 0.447836637 
-0.0183191262 -0.0413059667 0.017333217 -0.103736065 72 72 72 0.468637437 
-0.0141520593 -0.0291576292 0.0110685546 -0.12547785 42 0 101 0.47590521 
-0.0170957204 -0.0212939996 0.00172166899 -0.166018486 62 84 134 0.476607174 
-0.0215514768 -0.037853837 0.024704922 -0.0882851705 66 0 88 0.463549286 
-0.021863874 -0.0366355032 0.0126450397 -0.130599871 70 70 71 0.467009217 
-0.0193356238 -0.0241139065 0.010031689 -0.14000985 97 54 124 0.471583337 
-0.0198745355 -0.0295887832 0.0155976377 -0.120658122 0 52 102 0.468808621 
-0.0172144696 -0.0345456004 0.00722823665 -0.141043141 60 60 82 0.473477095 
-0.0248355158 -0.03398031 0.0190104991 -0.116541542 44 0 91 0.462403208 
-0.0232109949 -0.030232843 0.00874758139 -0.150728762 0 52 102 0.467500627 
-0.00325961388 -0.0379612371 0.0168442763 -0.0790971965 61 61 76 0.484081954 
-0.000973049086 -0.0244709216 0.0132617634 -0.0967437252 40 0 106 0.488807589 
-0.00292802742 -0.0384330973 0.00954991393 -0.103195563 61 61 82 0.486568779 
-0.00221217168 -0.0281563979 0.000466072932 -0.143711701 43 0 94 0.491071016 
-0.0101822373 -0.0379310548 0.0194640085 -0.0827756748 67 67 70 0.476417601 
-0.00802157819 -0.0261188354 0.0140891261 -0.104785889 0 0 115 0.481389493 
-0.0104383966 -0.041503489 0.0131452661 -0.101393089 43 43 68 0.477710515 
-0.00778185949 -0.0335528478 0.0123472437 -0.106527209 47 0 92 0.481398463 
-0.00965282507 -0.0299647674 0.00514600426 -0.137786984 47 0 92 0.482082337 
-0.0145390453 -0.0357653126 0.013754664 -0.112555996 60 60 82 0.474036962 
-0.00294466363 -0.0296546202 0.00832495838 -0.115545183 0 0 97 0.487815082 
-0.0105140982 -0.0374910682 0.0067047365 -0.127490222 62 62 83 0.479990542 
-0.00436390517 -0.0347755253 0.00320920907 -0.132013187 65 65 70 0.487431675 
-0.103015244 -0.0235279482 0.0401826389 -0.172731757 201 91 0 0.379418701 
-0.10682752 -0.0265118983 0.033910349 -0.202454075 219 65 0 0.377225518 
-0.112115972 -0.0257096738 0.0459443182 -0.164560556 206 140 0 0.36841625 
-0.114081047 -0.024929082 0.0329187959 -0.216557682 206 140 0 0.370482266 
-0.104841463 -0.0278295558 0.0457435511 -0.155474171 194 0 0 0.375486284 
-0.111655615 -0.02832512 0.0390572958 -0.190020084 191 63 0 0.370689899 
-0.118814528 -0.029359214 0.0392398797 -0.198106229 227 154 0 0.363419533 
-0.100463159 -0.0304885078 0.0405537598 -0.166693658 215 0 0 0.381133497 
-0.111744158 -0.0319786929 0.0324870683 -0.21236223 208 0 0 0.372217029 
-0.100237012 -0.0292154122 0.0331169665 -0.193867609 217 0 0 0.383736074 
-0.0900988355 -0.0206818003 0.0372819714 -0.159768179 218 132 0 0.393413246 
-0.0952017531 -0.0249459017 0.0254891701 -0.212539405 221 148 0 0.391477227 
-0.0973351374 -0.0193310753 0.0375784449 -0.169966936 223 112 0 0.38627404 
-0.101973973 -0.0241377354 0.0280243494 -0.215243012 209 128 0 0.384066939 
-0.0933525488 -0.0253684577 0.032428693 -0.184339195 221 148 0 0.391172677 
-0.0873467028 -0.029903993 0.0331721641 -0.170562431 235 0 0 0.396451622 
-0.0923497453 -0.0312609076 0.0277237296 -0.198227361 235 0 0 0.392992139 
-0.0792812109 -0.0196612328 0.0286581554 -0.173711747 255 154 0 0.40686816 
-0.0781823546 -0.0237966757 0.0226822123 -0.195049182 255 154 0 0.409345955 
-0.0840763524 -0.0232935268 0.0336969718 -0.163818359 226 135 0 0.400213003 
-0.0705976561 -0.0221491531 0.0284732208 -0.159895033 245 0 0 0.415295362 
-0.0850857422 -0.0188831575 0.0239700861 -0.19927378 225 138 0 0.402599812 
-0.0727129951 -0.0188790876 0.0224335007 -0.182427004 244 169 0 0.41535306 
-0.0806703418 -0.0295122694 0.0360059738 -0.149105191 238 135 0 0.40226537 
-0.0810933635 -0.0275800917 0.0285399817 -0.177742183 250 153 0 0.404299051 
-0.0760748535 -0.0245014839 0.0330479443 -0.153558508 255 159 0 0.408233285 
-0.0769840106 -0.0278759636 0.0167080238 -0.213929161 253 183 0 0.41192764 
-0.0673467442 -0.0157652739 0.0276016481 -0.151795015 245 169 0 0.419436634 
-0.0706487522 -0.0247746054 0.0187379643 -0.195284635 248 0 0 0.417921185 
-0.0615292937 -0.0147834513 0.0325676687 -0.123052068 245 169 0 0.423812658 
-0.0653197616 -0.021528136 0.0233880319 -0.167265236 241 129 0 0.422137886 
-0.0696256831 -0.0282924082 0.0326978415 -0.143382907 255 130 0 0.414358854 
-0.0740196109 -0.0285485853 0.0265876837 -0.172910288 253 183 0 0.411816329 
-0.0615209453 -0.0253260843 0.0286560506 -0.143363193 237 155 0 0.423931837 
-0.0633970872 -0.0267096963 0.0181408487 -0.184611127 233 193 0 0.425107121 
-0.0554160252 -0.0238613244 0.0247653946 -0.146317229 227 192 125 0.43132031 
-0.0592333972 -0.0205920134 0.0193600506 -0.170924425 210 155 0 0.429495692 
-0.0451045446 -0.0179002434 0.0262890048 -0.121038936 115 103 96 0.441706747 
-0.051217936 -0.0191065669 0.0210533552 -0.150710225 161 159 149 0.437095463 
-0.0575030297 -0.0210387744 0.0328933746 -0.119758442 236 174 0 0.427077025 
-0.0415776521 -0.0242343228 0.0242545418 -0.125884339 120 99 74 0.445180684 
-0.0542100295 -0.0256947335 0.0175821427 -0.170966581 213 187 155 0.434503525 
-0.0413860083 -0.0249730647 0.016801022 -0.153457522 120 111 85 0.447549492 
-0.0485470742 -0.0259488616 0.0224949978 -0.143940181 182 161 149 0.438616574 
-0.0528303832 -0.0257385373 0.0103490986 -0.195538133 168 138 128 0.438056231 
-0.0439682305 -0.0184792932 0.0189985931 -0.146214947 122 96 84 0.444980681 
-0.0296202768 -0.0207611416 0.0196296163 -0.123560593 189 181 169 0.458807856 
-0.0472451821 -0.0218115561 0.0131945405 -0.174938112 114 107 89 0.443142205 
-0.0312684402 -0.015936885 0.0141069517 -0.143622622 130 107 104 0.459331185 
-0.0370223187 -0.0196413938 0.0208326466 -0.129838213 95 79 19 0.451206475 
-0.038794335 -0.016222205 0.0144844055 -0.153214037 120 97 92 0.451713562 
-0.0347282514 -0.0227448847 0.0144709256 -0.151600629 116 99 55 0.455092847 
-0.040730603 -0.0247536916 0.00951564685 -0.179704919 120 111 85 0.450425506 
-0.0136690652 -0.0157339592 0.00820448995 -0.135379642 78 140 162 0.478615612 
-0.017543979 -0.0121183852 0.00271314662 -0.159854472 91 141 156 0.476795018 
-0.0243243687 -0.0155930808 0.0189492516 -0.115033418 160 153 146 0.464798719 
-0.025105793 -0.0139295142 0.0117532499 -0.14071247 154 152 180 0.466367453 
-0.0182807744 -0.0158696361 0.0140511021 -0.122397393 99 144 182 0.472253859 
-0.0206670593 -0.0175455716 0.00693398155 -0.152985632 0 127 174 0.471865356 
-0.0249506086 -0.0210432727 0.0138502084 -0.1367535 101 101 175 0.465164363 
-0.0283640176 -0.0189053658 0.00737235695 -0.165459648 125 129 173 0.463950187 
-0.00675746985 -0.0129537582 0.00906625576 -0.120561428 89 155 157 0.485502064 
-0.00741596147 -0.0103985919 0.00210671499 -0.145913005 91 145 153 0.487212062 
-0.0121423397 -0.0112050474 0.0141042881 -0.10930685 91 141 156 0.478808522 
-0.0126545588 -0.00841343775 0.0071596615 -0.133126959 97 146 153 0.480683327 
-0.00536940433 -0.0201704353 0.017403055 -0.0891852155 0 84 139 0.483626336 
-0.00599459466 -0.0202924069 0.00984383188 -0.118061759 0 57 136 0.485278547 
-0.0120705422 -0.0198572241 0.0141968168 -0.111717448 44 123 158 0.477972239 
-0.00440517394 -0.0172568671 0.00333069265 -0.139078662 117 116 137 0.489134967 
-0.0124834422 -0.022854507 0.00728914142 -0.138065934 0 0 127 0.479345948 
-0.00668388139 -0.0183563624 -0.00375913084 -0.168986216 108 100 112 0.488903701 
0.0195468031 -0.0320891105 0.0295951776 -0.000360181846 46 0 96 0.503474295 
0.0147842001 -0.0179403089 0.0279231407 -0.018497603 104 96 107 0.500688255 
0.0133583201 -0.0295952763 0.032785207 -0.000129921827 50 0 97 0.496617138 
0.00822505914 -0.0170136243 0.031272836 -0.01571141 108 100 112 0.493255317 
0.0218042936 -0.0191797465 0.0298942439 -0.000155510497 71 70 94 0.506938398 
0.0130309286 -0.0222693402 0.0335025154 -0.000133289723 65 72 93 0.496819913 
0.0351974741 -0.0319328383 0.0220248997 -6.27390691e-05 110 110 89 0.521322846 
0.0248890035 -0.0271337014 0.0279705003 -0.000190729625 49 0 97 0.509775043 
0.0322948992 -0.0251093321 0.021471303 -0.0115185585 83 68 82 0.519301236 
0.0443623327 -0.01668985 0.0191894732 -4.43258323e-05 93 82 82 0.532832086 
0.0392021425 -0.0214691814 0.0216582939 -0.000103563478 84 74 87 0.526474833 
0.0510791913 -0.0178909823 0.0157734603 -0.000115208153 92 79 68 0.540413797 
0.0575348698 -0.0192563944 0.0122064427 -0.000102648977 75 69 72 0.547765076 
0.0155400019 -0.00550091639 0.0315596648 -1.54708978e-05 121 134 135 0.501604021 
0.0140544008 -0.0108093526 0.0258180574 -0.0260933898 123 132 144 0.501324832 
0.00821086019 -0.0087248385 0.0303150639 -0.0174092539 87 153 152 0.494373471 
0.021453049 -0.00712954905 0.0235790312 -0.0207960568 128 128 128 0.509724021 
0.0139258467 -0.0126602575 0.03299639 -4.98162117e-05 117 117 130 0.498838633 
0.0204670783 -0.0118201412 0.0295466334 -0.00263364939 117 117 119 0.506463647 
0.0304470658 -0.000630725175 0.0242291652 1.43283978e-05 141 135 132 0.519120753 
0.0270780921 -0.0144923907 0.0274175219 -2.1023443e-06 95 88 108 0.513401568 
0.0283442102 -0.0073663909 0.0263057426 1.90222636e-05 129 131 128 0.515719652 
0.0371665359 -0.00252500316 0.0215991996 -3.56207602e-06 131 129 119 0.52639693 
0.0437250473 -0.000566429226 0.0187266655 -7.42002157e-05 134 125 128 0.533978283 
0.0370525792 -0.012068701 0.0226215497 -0.000226550299 98 89 102 0.525004327 
0.0424721465 -0.00769786257 0.0198668577 7.95780215e-06 118 113 119 0.531664193 
0.0489737913 -0.00401820662 0.0147545002 -0.00824696571 110 111 133 0.540041268 
0.0617484525 -0.00940036401 0.0114210099 -0.000120694283 73 52 107 0.553189337 
0.0563024879 -0.00492851669 0.0139034279 8.04563751e-06 0 0 153 0.547484636 
0.0554045253 -0.0123435808 0.0141006336 1.20974582e-05 60 64 86 0.545779347 
0.0725219473 -0.00188867433 0.00243922044 -0.0142019652 125 96 148 0.567368567 
0.0664131194 -0.00415363349 0.00920065492 -0.00168812508 109 100 118 0.559026837 
0.0164818093 -0.0585886613 0.0218417235 -9.8526245e-05 0 0 54 0.500080466 
0.00923426822 -0.0575654134 0.0232266709 -0.0105454307 0 0 55 0.492567748 
0.0230281446 -0.0556576028 0.0198323466 -4.90596285e-05 0 0 51 0.507487595 
0.0143116191 -0.0527149662 0.0258772895 -0.000181489624 37 37 66 0.497302115 
0.00791443046 -0.0502130687 0.0227538459 -0.0249412842 22 22 59 0.492147326 
0.0172605459 -0.0664276332 0.0146735553 -0.00559809618 41 41 41 0.502224267 
0.0286309347 -0.058045432 0.0155370831 -9.51927213e-05 37 25 38 0.514108062 
0.0345906578 -0.0536896288 0.0144713074 -5.19490568e-05 0 0 67 0.520792186 
0.0307634547 -0.0489496589 0.00999470055 -0.0287504513 0 0 67 0.518826485 
0.0437089428 -0.0520767793 0.0104946233 9.32335388e-06 0 0 67 0.531214476 
0.0378439762 -0.0477041751 0.011599116 -0.0128531307 0 0 108 0.525500178 
0.0450737104 -0.0450014248 0.0126303025 -0.000141421449 73 69 71 0.532643497 
0.0817871094 -0.043487519 -0.00569268549 0.000109276851 0 0 54 0.574799955 
0.0188594777 -0.0467973053 0.0259372108 -4.84860866e-05 50 50 75 0.502402425 
0.0142373471 -0.0475201011 0.0202341303 -0.0263617504 41 41 68 0.499462664 
0.00922209024 -0.049127318 0.0299227498 1.38296746e-05 61 61 83 0.491388917 
0.0260143988 -0.0440810993 0.0232366733 -5.20772592e-05 55 55 80 0.510601103 
0.012359756 -0.0432687476 0.0268446431 -0.0121374819 54 54 79 0.496031433 
0.0215293504 -0.0484083667 0.0192038864 -0.0160241053 43 43 69 0.50692606 
0.0184750501 -0.039322637 0.0285021886 -3.27155285e-05 41 0 93 0.502004981 
0.0121927895 -0.0401665941 0.0200677067 -0.039166972 51 51 77 0.49823001 
0.0194716584 -0.0410490632 0.0214998387 -0.0210528225 52 52 78 0.504936397 
0.0208950453 -0.0411255881 0.0141703617 -0.0435730033 55 55 80 0.508558393 
0.0289660953 -0.0512965322 0.0187282525 -1.33609865e-05 0 23 85 0.514162183 
0.0269334093 -0.0452117845 0.0151709728 -0.0243821125 43 47 77 0.513837576 
0.0328172855 -0.0447648913 0.0194267929 -0.000186835299 42 0 89 0.518439949 
0.0250100736 -0.0369116217 0.025986135 -0.000111562025 19 0 89 0.509501219 
0.0258856583 -0.0382542759 0.018714916 -0.0224365517 0 38 92 0.512432754 
0.0327918753 -0.0422802866 0.0118325688 -0.0282906126 64 54 98 0.52096343 
0.0393543653 -0.0424882025 0.0167312883 -9.64693027e-06 0 54 82 0.525978744 
0.0397913828 -0.0407632291 0.00949990563 -0.0256209876 73 69 71 0.528774619 
0.0501738265 -0.0491483063 0.00830981508 1.88546255e-06 60 50 59 0.538593531 
0.0332087278 -0.0375189036 0.0176593233 -0.0136964377 79 79 63 0.520099759 
0.0489989445 -0.0371982604 0.0130181015 0.000158729381 89 86 76 0.537217975 
0.0426585004 -0.0340492129 0.0104941409 -0.0242536478 87 77 74 0.532004118 
0.0528473333 -0.0422848761 0.00923507661 8.03652219e-05 94 84 87 0.541666806 
0.0583818927 -0.0376884118 0.00747884065 5.19683235e-05 75 63 60 0.548161805 
0.0643154234 -0.0336412042 0.00545750931 0.000134082977 97 80 86 0.555077374 
0.0513726771 -0.03572689 0.00612548925 -0.0198883936 81 79 67 0.541809022 
0.0694852173 -0.0366988033 0.0010562595 -0.00485687796 72 65 69 0.561231792 
0.0805556402 -0.0342228711 -0.00292106625 -0.000619930797 27 54 73 0.573680818 
0.0957366154 -0.0295131709 -0.00885723718 2.01038492e-05 39 39 66 0.59103173 
0.102273412 -0.0311750155 -0.0116927419 -8.8843517e-05 0 0 52 0.598212242 
0.113793872 -0.0330652073 -0.0171708595 -9.60973775e-05 0 0 54 0.611118138 
0.015060408 -0.0343502611 0.0238932073 -0.0264696609 42 0 95 0.500512719 
0.0147133581 -0.0171098895 0.0204382055 -0.0462972224 97 76 116 0.502965391 
0.0135857612 -0.0364056081 0.0139224697 -0.0626174882 41 0 93 0.501853824 
0.0109633217 -0.022973828 0.0141952783 -0.0747264028 54 0 99 0.500532329 
0.0118929967 -0.0363857672 0.0303525664 -0.00741118053 58 58 82 0.495206982 
0.0278174244 -0.0310401153 0.0223673768 -0.0125321057 70 70 74 0.513980448 
0.00789551903 -0.023892412 0.0284101889 -0.0266761445 69 82 99 0.493094206 
0.0193528552 -0.0220297407 0.0236041956 -0.0266749188 61 59 87 0.506115735 
0.0090130819 -0.0335307866 0.0197385512 -0.0522468947 57 56 83 0.495846152 
0.0196982734 -0.0345546901 0.017787911 -0.0403492935 19 0 89 0.50694406 
0.00969583541 -0.0225944743 0.0215530656 -0.0495084524 65 72 93 0.497087479 
0.0200653039 -0.015637327 0.013622554 -0.0624115951 91 91 110 0.510491192 
0.0141788963 -0.0268313345 0.0260735713 -0.024302315 47 0 96 0.499742389 
0.0203308668 -0.0293757077 0.0226188712 -0.0258553308 64 0 96 0.506638169 
0.0141268801 -0.0280774068 0.0188051239 -0.0506106392 53 0 100 0.501761675 
0.0258609913 -0.0317743979 0.0152242221 -0.0406915247 67 72 70 0.514122486 
0.0265519097 -0.0212126449 0.0241960958 -0.0127248084 67 49 82 0.513169765 
0.024276264 -0.0312525705 0.00803778321 -0.069202289 77 79 62 0.514774442 
0.0223484728 -0.0248258077 0.0109286048 -0.0664742813 63 0 97 0.512639165 
0.034479335 -0.0170218181 0.0174331218 -0.0237120669 86 72 96 0.523513854 
0.0350056067 -0.0351424217 0.0108536649 -0.0361995474 98 86 80 0.524183631 
0.032941699 -0.0183337238 0.00923179649 -0.0562890396 85 76 88 0.52433306 
0.0245727189 -0.025088774 0.0182706267 -0.0362689234 63 0 97 0.512601614 
0.0180793274 -0.0223031808 0.0163369179 -0.0553403422 54 0 94 0.507020414 
0.0305699557 -0.0226357207 0.0146272033 -0.0400508195 82 72 86 0.519908845 
0.0329977497 -0.0296582077 0.0153808184 -0.0291810259 110 101 88 0.521378279 
0.0401019603 -0.0352081284 0.017481111 -0.00393429585 83 72 69 0.527234674 
0.0382305831 -0.0218715183 0.0133268014 -0.0315123051 95 70 60 0.527988017 
0.042622678 -0.0296923276 0.00441230834 -0.0488370098 81 73 63 0.534250319 
0.0399128497 -0.0159628242 0.00842125714 -0.0468108058 93 82 82 0.531742692 
0.0462239459 -0.0311009642 0.0163167547 -7.62488926e-05 94 82 71 0.534084439 
0.0450172424 -0.0193234533 0.0119087659 -0.0241967179 88 75 64 0.535416126 
0.044885546 -0.0266301259 0.0107912868 -0.0250415877 100 83 74 0.53488034 
0.0395138785 -0.0138157587 0.00129371136 -0.07339748 92 81 77 0.533719778 
0.0332877375 -0.0180696938 0.0245540999 -7.23080011e-05 92 83 96 0.520070851 
0.045994021 -0.0238744169 0.0177642647 3.15365614e-05 99 79 68 0.534153163 
0.0377008989 -0.0284871776 0.00991772674 -0.0407756269 96 84 72 0.52782011 
0.049782753 -0.0283854213 0.00571380928 -0.0310936105 85 72 61 0.54110086 
0.0396923348 -0.0277314875 0.0176972896 -0.0106927631 104 84 73 0.527522624 
0.0359150134 -0.023546854 0.00471859425 -0.0654320195 99 78 66 0.528120637 
0.0640207976 -0.0264443681 0.00731210224 8.96200072e-06 98 68 63 0.554955721 
0.0514974147 -0.0233285017 0.0106589571 -0.0146386074 92 71 63 0.541822731 
0.0588397831 -0.0143557712 0.00674491003 -0.0196035057 65 55 81 0.551210523 
0.0477449968 -0.0329871923 0.000107627362 -0.0499610119 81 79 67 0.540304184 
0.0588364527 -0.0343820378 0.000495512038 -0.0264849141 83 70 74 0.551060796 
0.0502195507 -0.0213031862 0.00351849012 -0.043109078 106 86 79 0.542918444 
0.0643239394 -0.0194077808 0.00143977907 -0.0257314872 93 74 70 0.557747662 
0.0518052243 -0.0161089692 0.00862038136 -0.0246758331 81 75 78 0.543478787 
0.0571282469 -0.0289494935 0.00692930445 -0.012221287 90 73 72 0.547971308 
0.05757403 -0.021211395 0.0039994698 -0.0274840873 95 65 60 0.550086558 
0.0641609952 -0.0191320721 0.00885125995 1.19208707e-05 87 75 78 0.555373013 
0.061504364 -0.0262118522 0.00031548366 -0.0292938519 91 64 68 0.55459553 
0.0526469648 -0.0303729903 0.0127281696 5.93151781e-05 85 72 61 0.541622639 
0.0479121804 -0.0253166649 -0.00232811924 -0.0647785068 89 75 64 0.541986525 
0.0724899098 -0.0154202823 0.00526726246 -1.60838536e-05 100 80 72 0.565105975 
0.0740819946 -0.0305817705 -0.00259525143 -0.0143782198 69 63 74 0.567523062 
0.0727127269 -0.0169585478 -0.0073748026 -0.0422702953 94 82 97 0.56899327 
0.0699381083 -0.0223151557 0.00535966828 3.77518591e-05 88 73 61 0.56184274 
0.0658207536 -0.0121514723 0.00590898469 -0.0121565852 87 76 79 0.558620691 
0.0701677203 -0.0295698922 0.00361846387 6.05019159e-06 100 88 80 0.561859667 
0.0658311099 -0.0157588571 -0.00480532181 -0.0477072634 103 82 74 0.561503708 
0.0736244023 -0.0197315775 -0.000485896133 -0.0155530684 79 68 79 0.56753391 
0.0685093626 -0.024901012 -0.00196574721 -0.026472576 80 67 64 0.562375724 
0.0873529315 -0.0303114671 -0.00556259695 1.99896749e-06 42 42 68 0.581627965 
0.086774081 -0.0208642688 -0.0098556364 -0.0223379005 67 57 71 0.583311558 
0.0777331367 -0.0109235467 0.00276799127 1.85077079e-05 87 76 66 0.571526229 
0.0785058737 -0.0253164265 0.000144501217 0.000123665552 64 0 86 0.571623623 
0.0841384232 -0.0112273404 -0.000978106633 0.000296646147 95 71 66 0.578989506 
0.084898591 -0.0237365384 -0.00320742652 0.000318595208 76 66 80 0.579146743 
0.0808185413 -0.0178436451 -0.00114513002 -0.00395390159 89 72 79 0.575070202 
0.0879109725 -0.016908532 -0.00362741202 7.13418704e-05 79 80 79 0.582959712 
0.0743277594 -0.0242513455 -0.00642011734 -0.0314775035 94 85 98 0.569567144 
0.0856818184 -0.0114773195 -0.0082148537 -0.0235595163 105 77 84 0.582685053 
0.0988231301 -0.00939044263 -0.00541659445 5.669659e-05 74 74 74 0.595102668 
0.100376166 -0.0191695429 -0.00858793035 -0.00303716492 39 39 61 0.596609771 
0.10502506 -0.0129117165 -0.00759013742 -2.33309111e-05 52 52 54 0.601561368 
0.0943943486 -0.0152163114 -0.00670481473 -0.00454885652 67 62 65 0.590501368 
0.099365674 -0.0126020098 -0.0124059729 -0.0241083447 54 54 54 0.597428262 
0.0933724642 -0.022593556 -0.00662766304 0.000285219285 72 62 76 0.588713109 
0.102918245 -0.0190179832 -0.0158904884 -0.0281262659 33 33 62 0.601357818 
0.10929928 -0.00683845999 -0.0078752609 -0.000263851951 36 36 64 0.606510043 
0.109937981 -0.0157939736 -0.0123163015 -0.00957195554 32 32 61 0.607576728 
0.109428905 -0.00969928596 -0.016593799 -0.0310372524 31 31 62 0.608984053 
0.106884502 -0.0221533459 -0.0104695959 -0.000184158562 30 30 60 0.603339195 
0.115086481 -0.0106850788 -0.0105371773 4.58792783e-06 32 32 63 0.612671554 
0.116957903 -0.0181192458 -0.0131700346 5.62978676e-05 31 31 63 0.614570439 
0.00909560546 -0.0104394527 0.0186551735 -0.0600028634 128 139 137 0.498603255 
0.00649023475 -0.0126305884 0.0111322235 -0.0926277488 128 139 137 0.498067498 
0.00349304569 -0.00933598168 0.023578722 -0.0496229641 87 153 152 0.491662502 
0.0165362358 -0.0101821637 0.0188737251 -0.0471308343 128 128 128 0.505953133 
0.00837578531 -0.0155905262 0.0240596421 -0.0422493704 121 121 138 0.495730609 
0.0069810343 -0.0173848979 0.0168514531 -0.0714443251 112 104 115 0.496342391 
0.0129587334 -0.0145024424 0.0140371136 -0.0725109428 117 117 119 0.503423214 
0.0143254101 -0.0130200954 0.00679994747 -0.0960773006 116 116 116 0.507119417 
0.0236646719 -0.0104188137 0.0170816444 -0.0424772613 125 124 124 0.513550639 
0.017959496 -0.00888071582 0.0117481351 -0.0706809983 128 128 128 0.509653449 
0.0298470631 -0.0122862356 0.0209378116 -0.018672524 98 89 101 0.518335044 
0.0251320917 -0.00817517284 0.0100432634 -0.0645970032 137 137 123 0.517364204 
0.0213449579 -0.0146476533 0.0227022916 -0.0269063544 85 85 105 0.509117484 
0.0258804224 -0.0178224649 0.017746862 -0.0376131572 87 78 90 0.514797449 
0.029649511 -0.0129997954 0.0134077482 -0.046661552 101 93 105 0.520343006 
0.0259675216 -0.0184126664 0.0100094341 -0.065496169 87 78 90 0.517163396 
0.0417720005 -0.00492339255 0.0130641423 -0.0256590415 117 114 116 0.533307672 
0.0402054228 -0.00876078289 0.00687340274 -0.0515128002 104 99 101 0.533233464 
0.0344994366 -0.00781812519 0.017070055 -0.0232722741 127 120 130 0.524579287 
0.0487096682 -0.0110105285 0.0172571316 -2.15333421e-05 96 91 93 0.538311422 
0.0290060826 -0.0129163153 0.00607318059 -0.0742780268 104 96 108 0.521930099 
0.0465734079 -0.0147991162 0.00363555178 -0.0526556782 91 81 76 0.539923012 
0.0398588702 -0.0125702629 0.0149158258 -0.0234445017 112 107 114 0.530070364 
0.0325380862 -0.00767124677 0.00958445668 -0.0537620746 131 129 119 0.524909556 
0.0470952466 -0.00553822424 0.00764472783 -0.0377142951 110 111 133 0.54017067 
0.058241792 -0.000445512589 0.00320590287 -0.0365969948 102 105 132 0.553100884 
0.0446099229 -0.00816399138 0.0010458352 -0.0661176518 87 87 97 0.539430559 
0.0531067848 -0.00134492293 0.00830028765 -0.0257729162 131 117 136 0.546369255 
0.051385887 -0.00515037589 0.000225555152 -0.0584000014 0 85 118 0.546714544 
0.0602563098 -0.00756177446 0.00444086269 -0.0287766643 73 52 107 0.554004788 
0.055020988 -0.0116099399 0.00102908909 -0.0479999483 65 55 81 0.549425185 
0.0458304249 -0.0122405589 0.0105718821 -0.0292260423 97 87 80 0.537348032 
0.0538238101 -0.00878851581 0.00776830316 -0.0265129711 0 85 118 0.546485424 
0.0778591484 -0.0060386057 -0.00288490299 -0.0206994396 83 74 87 0.573857129 
0.0653220266 -0.00255460455 0.00187819451 -0.0302819777 109 100 118 0.560319781 
0.0582738221 -0.00543319155 -0.00248632766 -0.0577701181 83 64 117 0.554346681 
0.0721140876 -0.00805755984 0.00649933144 -0.000149787287 99 88 91 0.565108776 
0.0716165155 -0.012442098 -0.00149430148 -0.026768906 93 80 69 0.56658572 
0.064809829 -0.00933005847 -0.00122999772 -0.0405954905 87 76 79 0.560062051 
0.0847748443 0.00208998239 -0.0049475343 -0.0185659677 0 102 150 0.582175672 
0.0822786838 -0.00482475571 -0.00858825818 -0.032964658 61 68 96 0.580094337 
0.0799209625 -0.00111469231 0.00213898532 0.000227537705 96 130 135 0.574886501 
0.0751693621 -0.00312118558 -0.00915951282 -0.048575487 0 0 109 0.573379517 
0.0859044418 -0.00404694537 -0.00106573291 0.00010292849 61 68 96 0.581499934 
0.0908841193 -0.0092369169 -0.00338702276 5.79870539e-05 83 72 75 0.586619854 
0.0785804018 -0.0125526395 -0.00617731316 -0.0280517358 97 85 76 0.574906707 
0.0857650265 -0.00926258042 -0.015277952 -0.0509806611 105 77 84 0.585128367 
0.0998401716 0.00323136616 -0.00461222697 -0.000124941231 81 117 126 0.59715271 
0.0970536992 -0.00635215454 -0.0174289271 -0.0499695055 62 62 62 0.597286165 
0.092751503 0.00350740738 -0.00689229462 -0.0165069327 119 142 151 0.590829968 
0.0894300118 -0.00309185777 -0.00756879896 -0.0212971363 84 71 75 0.587064743 
0.103636496 -0.00657490548 -0.0134067712 -0.0281407908 39 39 67 0.602585256 
0.0956625044 -0.00290056504 -0.00380352512 1.25170918e-05 89 62 68 0.592135727 
0.0977081805 -0.00284561492 -0.0108995195 -0.0257911664 67 67 67 0.596318483 
0.103112437 -0.00338017219 -0.00576171326 -3.79479025e-06 66 66 66 0.600078046 
0.0918302909 -0.0113090742 -0.0190920159 -0.0573878437 67 62 65 0.592097342 
0.107245669 -0.000456256792 -0.0111585166 -0.0169982258 45 45 72 0.606112063 
0.108347453 -0.00261701667 -0.0182172917 -0.0416689776 42 42 69 0.609120846 
0.112083435 0.00449183257 -0.00858445372 6.46217959e-05 0 0 92 0.610641539 
0.113403149 0.00219849404 -0.0153272934 -0.0233465768 0 0 79 0.613757789 
0.114972629 -0.00232966291 -0.00966058206 -0.000304922403 37 37 66 0.613142848 
0.116373979 -0.0122407638 -0.0177097395 -0.0225407407 35 35 66 0.615960658 
0.0731384158 -0.0787148029 -0.0126745477 -0.000229730736 0 28 56 0.564740002 
0.016652355 -0.0768055469 0.00731791183 0.000309264375 41 41 41 0.50278914 
0.00966484379 -0.0711828843 0.0178222805 -2.89729214e-05 44 44 44 0.493244976 
0.0109874699 -0.0758508667 0.0122957602 -7.07056606e-05 44 44 44 0.495754927 
0.0269191451 -0.0726107955 0.00593622215 -7.43498094e-06 42 42 42 0.513830006 
0.03297773 -0.068408899 0.00662161969 -9.53942072e-06 41 41 41 0.520067215 
0.0383414775 -0.0706877187 0.00198771991 0.000153029687 38 38 38 0.526563644 
0.0562857985 -0.0663820654 -0.00338536408 0.000185369223 45 45 45 0.546447694 
0.0761774629 -0.0642169118 -0.0125521105 0.0018394877 0 0 56 0.569195211 
0.0680248514 -0.0738038346 -0.0102953073 -3.64682055e-05 0 0 56 0.559441328 
0.0136165172 -0.0599828288 0.0151510462 -0.0234800819 41 41 41 0.499115944 
0.015540286 -0.0626763329 0.00840989873 -0.0348751731 40 40 40 0.502790928 
0.0074723959 -0.0581500158 0.0112914667 -0.0498993509 41 41 41 0.494367093 
0.024393905 -0.064497292 0.0138959046 -3.86266038e-06 39 39 39 0.509740233 
0.00937456358 -0.0652136579 0.0118373707 -0.0303060617 43 43 43 0.49537307 
0.0208277144 -0.0578964204 0.0049087368 -0.0468467325 39 39 39 0.509586751 
0.0127742719 -0.0648619011 0.0203578845 3.26955342e-06 41 41 41 0.496209145 
0.0169088431 -0.0533673987 0.0164987426 -0.0251397528 0 0 52 0.502650857 
0.0142180528 -0.070152387 0.00901548378 -0.017584106 40 40 40 0.500534594 
0.0101631684 -0.0593497008 0.00454437733 -0.062774606 41 41 41 0.498957485 
0.0212218501 -0.0710663497 0.0104574263 -0.000106976717 40 40 40 0.506961644 
0.0142363021 -0.0552968457 0.00929345936 -0.0493543707 39 39 40 0.501978934 
0.0191257559 -0.0710880086 0.00324036926 -0.0220590401 40 40 40 0.507059753 
0.0151188876 -0.054294154 0.00202232599 -0.0722035095 39 39 39 0.505155861 
0.0269900784 -0.0599507242 0.00860472396 -0.0214766469 36 36 36 0.514380753 
0.0233819075 -0.0628140196 -0.000537518412 -0.0478304625 41 41 41 0.513270259 
0.0398966596 -0.0582847297 0.00954072177 1.36109884e-05 48 8 0 0.527085483 
0.0323866569 -0.0618229657 0.00324591249 -0.0259275567 40 40 40 0.521170318 
0.0203480329 -0.0585007221 0.0123096295 -0.0235460605 39 39 39 0.506811261 
0.0246175993 -0.05314558 0.00981230661 -0.0336458459 37 25 38 0.512351155 
0.0221799202 -0.0651166886 0.0062993858 -0.0245769378 38 38 38 0.509775221 
0.0201867111 -0.0498245731 0.0047939159 -0.0631113574 0 0 50 0.509805501 
0.0336598307 -0.0622231513 0.0105616525 -6.02435321e-05 40 40 40 0.520182192 
0.0276598632 -0.0562873557 0.0022579506 -0.0472594462 40 40 40 0.517337322 
0.0296443179 -0.0602984205 -0.00366827007 -0.0539438091 41 41 41 0.520692229 
0.0347109884 -0.0554439873 0.00026743114 -0.043583028 36 36 36 0.525027812 
0.0407825522 -0.0536056831 0.00388756767 -0.0248508025 49 37 18 0.530150294 
0.0379121974 -0.0627259836 -0.00162983499 -0.0301831625 40 40 40 0.528040528 
0.0505527556 -0.0560540706 0.00557937101 -0.000335416989 40 40 40 0.539093375 
0.044979658 -0.0594883561 0.00203046575 -0.0147714959 39 39 39 0.534282148 
0.0330273956 -0.0555697083 0.00739830732 -0.0229932927 48 17 0 0.521186948 
0.054258056 -0.0482656956 0.00219127256 -0.0152946347 54 46 50 0.54458952 
0.0403528363 -0.0643741935 0.00524351373 -0.00197836733 38 38 38 0.528218806 
0.0478922613 -0.0660265535 -3.94983217e-05 -0.00345873716 41 41 41 0.537136018 
0.0350150056 -0.0488955379 0.00389601476 -0.0414496958 0 0 67 0.52489841 
0.0511321872 -0.0542081222 -0.00359389465 -0.0328104943 48 41 45 0.542630017 
0.0425593555 -0.0464980751 0.00573920831 -0.0254985914 61 45 68 0.53207773 
0.0430745669 -0.066201508 -0.00569910323 -0.0259607267 38 38 38 0.534044623 
0.0419441685 -0.0523184389 -0.00337347109 -0.0494943298 39 39 38 0.533630192 
0.0472397953 -0.0506905317 0.00166190509 -0.0261717774 49 42 47 0.537532687 
0.0641554892 -0.0546343699 -0.000334978104 -0.000163328121 0 0 57 0.554535687 
0.0573002845 -0.0623561442 -0.00980095379 -0.0261689797 0 0 59 0.54980433 
0.0587110855 -0.0588676259 -0.00336155761 -0.01239298 40 40 49 0.549613178 
0.0573890209 -0.0549948439 0.00276636612 -0.000353275449 43 43 43 0.546841085 
0.0631343797 -0.0644682199 -0.00562846893 3.30589246e-05 0 0 59 0.554122269 
0.058953844 -0.0512312427 -0.00439053029 -0.0272171069 0 0 55 0.550941765 
0.0536003336 -0.0615049526 0.00151958503 -5.50911063e-05 40 40 40 0.542793393 
0.0501194671 -0.0465297103 -0.00368044525 -0.0447454005 54 46 50 0.542430997 
0.0512440726 -0.0613947511 -0.00556933414 -0.0255663544 38 38 38 0.542607725 
0.0554273799 -0.0551775768 -0.00966007262 -0.0445832685 40 40 49 0.54863143 
0.0745514929 -0.057259433 -0.0146844462 -0.0215723999 0 0 56 0.568932354 
0.0684938803 -0.0518408343 -0.00571919605 -0.0149105899 0 0 56 0.560756326 
0.0718416721 -0.0460028946 -0.00251844525 -0.00463563204 0 0 60 0.563707054 
0.0748415962 -0.0569348112 -0.00724881561 -0.000258481072 0 0 56 0.567005336 
0.0737854466 -0.050454922 -0.0106754992 -0.0232279785 0 0 54 0.567651212 
0.0682231635 -0.0592056885 -0.00465387851 -0.000164177094 0 0 58 0.559416652 
0.0643066615 -0.0461492985 -0.00355390832 -0.0211940296 33 33 66 0.556521654 
0.0695269182 -0.064972356 -0.00928070024 0.00103782106 0 0 56 0.561524153 
0.0629606172 -0.0554195717 -0.00961201265 -0.0317287929 0 0 58 0.556074023 
0.0864826292 -0.0514789745 -0.0117773907 4.44741454e-05 0 0 53 0.580490768 
0.0882236511 -0.0567190722 -0.0167685393 0.00064440578 0 0 54 0.583196223 
0.0812625065 -0.0567699745 -0.0114815105 -0.000115526025 0 0 53 0.574678898 
0.0884040296 -0.0445949659 -0.0095933266 -0.000281606975 0 0 51 0.582438529 
0.0816340894 -0.0598703101 -0.0182303004 -0.0121028041 0 0 54 0.576773286 
0.0866828039 -0.0458899438 -0.0167102944 -0.0246451236 0 0 52 0.582749248 
0.0804624334 -0.0505802482 -0.00750382757 -5.34476858e-05 0 0 52 0.573310912 
0.0886858031 -0.0509435907 -0.0217814092 -0.0241811387 0 0 54 0.585757971 
0.0990861431 -0.0502611771 -0.0199538991 -5.02218609e-06 0 0 53 0.595604122 
0.0937950462 -0.0477510095 -0.0153662013 -0.003568738 0 0 52 0.589217246 
0.0973662063 -0.0524241105 -0.0269030258 -0.0148699954 0 0 53 0.595777094 
0.107104398 -0.04560747 -0.0213703476 -7.83873984e-05 0 0 52 0.604469001 
0.0134054068 -0.0480540544 0.00788370892 -0.0678686202 0 0 52 0.502316296 
0.00753193907 -0.0524690598 0.00665653124 -0.0746723041 40 40 43 0.496405125 
0.00281539978 -0.0501147807 0.0171002615 -0.0531822816 0 0 55 0.488802493 
0.0195719525 -0.0482360348 0.0120543279 -0.0432123505 47 47 73 0.50716126 
0.00771868601 -0.0468065068 0.0124643482 -0.0648150295 37 37 66 0.495410293 
0.017967172 -0.0428702906 0.00555672869 -0.0755046681 47 47 73 0.508077502 
0.0138928629 -0.0437224656 0.0138599947 -0.0537161045 50 50 75 0.501433849 
0.00650880206 -0.0447905883 0.00528357923 -0.0935524106 0 0 52 0.496584773 
0.0114811705 -0.0400708541 0.00802863948 -0.0824062824 50 50 75 0.501173019 
0.0118910037 -0.0470914543 0.000667273998 -0.0954258889 0 0 52 0.503091991 
0.0247007124 -0.0444086269 0.00813110545 -0.0528275035 0 0 85 0.513830245 
0.0217797346 -0.0557152331 -0.00233508088 -0.0722544864 39 39 39 0.512944221 
0.0272952653 -0.0489054173 0.00295558013 -0.0579090118 0 0 67 0.517514765 
0.0314840898 -0.0460281 -0.00248830114 -0.0729813501 0 0 67 0.523613453 
0.0267530829 -0.0379355103 0.0112528093 -0.0469784923 81 69 69 0.51558286 
0.0238887761 -0.0388136804 0.00341873616 -0.0777127594 42 0 89 0.515017509 
0.0304465331 -0.0422705188 0.00399893522 -0.0587617271 0 64 104 0.521003604 
0.0241617598 -0.0445306078 -0.00228664652 -0.0873886868 0 0 67 0.516432405 
0.036293529 -0.0491520539 -0.00706324913 -0.0756380036 46 42 27 0.529455721 
0.0430776961 -0.0451757833 -0.00154011697 -0.0508936904 60 50 59 0.534927845 
0.0423694476 -0.0453734919 -0.00892855413 -0.0772595853 49 42 47 0.536438227 
0.0377325416 -0.0419848487 0.00245830975 -0.0512974933 73 69 71 0.528734684 
0.0501570925 -0.0390968174 -0.00322586671 -0.0508013964 79 68 71 0.543086588 
0.0286241043 -0.0409092382 -0.00704310788 -0.100702867 0 0 92 0.522670567 
0.037262816 -0.0346955433 0.00380787998 -0.0564053617 69 54 66 0.52860117 
0.0354904011 -0.0419833437 -0.0121495817 -0.104043633 39 29 59 0.530924678 
0.048766505 -0.0434162095 0.00298709609 -0.0274422988 70 58 62 0.539387882 
0.0489160642 -0.0440687612 -0.0122652324 -0.0791057274 55 49 52 0.544081628 
0.0552304536 -0.0448269397 -0.0161380898 -0.0814171955 38 38 69 0.551446795 
0.0616071559 -0.0475153327 0.00320511311 -0.000138582196 32 32 64 0.551658154 
0.0546181798 -0.0477674305 -0.00930406433 -0.0553607196 32 32 64 0.548473477 
0.0630601719 -0.0402886719 0.00226888247 -0.00737149082 84 71 82 0.554118991 
0.0578018129 -0.0422509983 -0.00556208473 -0.042522423 65 53 69 0.55106473 
0.0556321517 -0.0410357565 0.00146286283 -0.022463996 79 68 71 0.546909511 
0.0532250404 -0.0384822637 -0.00999180228 -0.0690991804 60 53 61 0.548241735 
0.0754475743 -0.0412354916 -0.00878804363 -0.0248753317 30 30 63 0.569668651 
0.0733093023 -0.0444226414 -0.0150618982 -0.0464644507 0 0 53 0.569117904 
0.066546008 -0.0495931506 -0.0125477733 -0.0442868099 0 0 56 0.561114907 
0.0683064684 -0.0429212227 -0.00976083241 -0.0391496159 25 25 62 0.56269902 
0.0708336607 -0.0357865021 -0.00673496677 -0.0307851825 65 65 78 0.565019488 
0.0643955842 -0.0388043895 -0.00491986331 -0.0322622731 46 46 74 0.557769716 
0.0612443611 -0.042970933 -0.0121352635 -0.0595425256 26 26 63 0.556397974 
0.0849301666 -0.0394699201 -0.0134867914 -0.0253653582 0 0 51 0.580686569 
0.0827731565 -0.0464881361 -0.0229065344 -0.0495105013 0 0 54 0.58067894 
0.0757858679 -0.0397624671 -0.00147111341 -0.000107781729 44 44 72 0.567942083 
0.0803439841 -0.0453005657 -0.0127826501 -0.0248286147 0 0 51 0.575326085 
0.0861779004 -0.037610203 -0.00641929079 -3.42834974e-05 19 25 59 0.579978049 
0.0789808705 -0.040125221 -0.023116149 -0.0683812648 0 0 51 0.577622771 
