ply
format ascii 1.0
comment created by gply, a Houdini tool.
comment converted from .[b]geo
comment for more information about Houdini, try:
comment www.sidefx.com
element vertex 588
property float x
property float y
property float z
property float depth
property uchar red
property uchar green
property uchar blue
property float length
element face 0
property list uchar int vertex_indices
end_header
0.576408386 -0.122228846 0.0151183913 -0.000278736115 108 83 23 0.985581219 
0.552594006 -0.105934449 0.014334539 -0.0293345507 151 124 56 0.963271201 
0.564784646 -0.116171449 0.0221321788 -0.000208114157 121 88 27 0.975045919 
0.565056801 -0.115579627 0.0132534616 -0.024812147 105 75 20 0.975155532 
0.569392264 -0.107836887 0.0114627816 -0.00764237903 112 112 112 0.97721678 
0.580988467 -0.127466097 0.00958045479 -0.00109049247 114 82 19 0.990264893 
0.581601024 -0.116804682 0.00750003662 -0.000724988873 189 182 114 0.988769174 
0.575906694 -0.113481075 0.0134962816 -2.04093521e-05 108 82 28 0.983541489 
-0.564435244 0.0453920513 0.000518405635 -0.00761285331 131 132 126 0.0312962085 
-0.569253027 0.0528088883 -0.000562321453 -0.00446418766 144 147 109 0.0260131918 
-0.55346638 0.0483792871 0.00178509287 -0.00490369275 109 110 103 0.0396124087 
-0.541983843 0.0492186248 0.00384132215 1.28723914e-05 136 137 128 0.0487453528 
-0.546449184 0.0460979566 -0.00320920954 -0.000755135494 138 141 95 0.0457156077 
-0.558921516 0.0574339479 -0.000896992511 -0.00243019359 128 131 94 0.0335077383 
-0.542715549 0.0553644672 -0.00256814761 -0.00195747335 170 169 119 0.0470054746 
-0.541722178 0.0399407521 0.00116472878 -0.00168767618 208 202 148 0.0506900139 
-0.534341931 0.0446375795 0.0038925861 -0.000416241062 127 129 117 0.0557835624 
-0.522456527 0.0467521884 -0.00254926807 -0.00679690251 138 139 89 0.0650042593 
-0.536067605 0.0484996736 -0.00399401365 -0.000231202692 139 138 95 0.0536660776 
-0.528163016 0.0401615314 -0.000709006155 -0.00107118313 181 167 135 0.0616184846 
-0.516761124 0.0429597944 0.00316565903 -0.00384871103 144 146 129 0.0703202859 
-0.495952785 0.0389003269 -0.00122717209 -0.0053616981 150 152 120 0.0879131258 
-0.501038015 0.0438827388 0.00413043797 -0.00344050606 145 147 118 0.0828684047 
-0.504310489 0.040878538 -0.00359852356 -0.000759389717 151 153 114 0.0807819888 
-0.479207218 0.0418743417 -0.00489571691 -0.000796513166 137 131 90 0.100905322 
-0.487416148 0.0414420292 -0.00145855255 -0.0111207273 146 145 105 0.0943447873 
-0.559781969 0.0778873861 -0.000741646974 -0.00117296691 153 154 142 0.028991431 
-0.551135302 0.0715188757 0.00140105013 0.000638166501 127 127 122 0.0371763147 
-0.547338843 0.0616973713 0.00166358496 -0.00267692632 129 130 121 0.0420822203 
-0.543554425 0.0755168274 -0.00103503419 -0.00111940876 148 151 130 0.0425627492 
-0.541151643 0.0669885278 -0.00197463715 -0.000370074471 160 162 138 0.0460995659 
-0.534530044 0.0592748299 0.00373592228 0.000263705035 127 129 117 0.0528974272 
-0.529223204 0.073277913 -0.00169925275 -0.00107955583 132 134 116 0.0545753352 
-0.529629588 0.0524765626 0.0007097419 -0.0136336153 140 143 125 0.0581317618 
-0.532464385 0.0650430024 -0.00273318239 -0.000452493783 141 141 118 0.0534912236 
-0.505700886 0.0534169152 -0.00434530852 -0.00327248545 149 140 80 0.0773152262 
-0.518178225 0.0658050105 0.00112641219 -0.00637345621 146 147 131 0.0649068058 
-0.513433158 0.0490476713 -0.0050592823 8.37871485e-05 137 132 79 0.0718756691 
-0.508099973 0.0698047429 0.000514031213 -0.00764646428 144 146 124 0.0723133087 
-0.507859409 0.0608984455 0.000604080153 -0.0116194813 132 135 112 0.0741714835 
-0.515384972 0.0586923808 -0.00362522667 -0.00197793334 173 169 99 0.0684951022 
-0.492238283 0.044542402 0.0053622108 -0.000421209639 142 145 108 0.0898644626 
-0.489248335 0.0543399118 0.00478410721 -0.000155816975 139 142 107 0.0904534087 
-0.49444744 0.0478591174 -0.00524334749 0.000124516722 133 127 79 0.0874576718 
-0.497733831 0.0528768525 0.00249416381 -0.00999394897 144 147 113 0.083861649 
-0.492304534 0.0616199821 0.000655120239 -0.00820841547 150 154 122 0.0866211131 
-0.500020802 0.06023895 -0.0035803495 -0.000166857499 170 157 97 0.0806363299 
-0.476389468 0.0398975611 0.003322626 -0.00448538084 134 137 98 0.10355413 
-0.472204596 0.0563505143 0.00210480136 -0.00278892997 156 157 117 0.103866771 
-0.483317554 0.0450355411 0.00559522631 1.03672501e-05 129 132 97 0.0969894528 
-0.474188358 0.0492359921 -0.00482296944 -0.000544331037 136 131 92 0.103590705 
-0.481990457 0.0519877486 0.000182101096 -0.0158894733 145 148 113 0.0967645943 
-0.465799272 0.0431845784 0.0045466451 -0.000538121792 140 140 96 0.111508012 
-0.464411527 0.0523660555 0.000437086506 -0.011329405 160 158 108 0.110915802 
-0.473249733 0.0480352789 0.00514121447 -0.000606304267 161 162 118 0.104574367 
-0.468469173 0.0421276987 -0.00426297542 -0.000411495566 147 141 94 0.109545387 
-0.451653779 0.0538477749 -0.00192827731 -0.000124603801 204 190 143 0.120960504 
-0.458073914 0.0461561009 0.00124861568 -0.00951241143 150 146 99 0.117203027 
-0.450179905 0.0442404784 -0.00241246447 -0.00158117642 157 148 107 0.1239473 
-0.442845464 0.0542302877 -0.000615881057 -0.00287335599 205 190 139 0.128015235 
-0.565763891 0.0841608495 0.00131943787 -0.000337609003 126 134 122 0.0229800977 
-0.554755032 0.0852584988 0.00083453604 -0.00309742708 118 120 116 0.0316815786 
-0.51953119 0.0873280466 0.00144355278 -0.000306476548 161 161 123 0.0597921498 
-0.53633213 0.0800082833 0.00162076089 0.00025089574 161 162 156 0.0475669056 
-0.514607787 0.0758854076 0.00076460297 -0.00549269561 154 156 136 0.0659126043 
-0.492725611 0.0705182478 0.000477552472 -0.00741605926 146 145 113 0.0846184269 
-0.469995975 0.0674733073 0.00193710218 -0.00104755175 147 152 115 0.103576094 
-0.445417017 0.0662532076 0.00306963385 0.0013037211 162 156 108 0.1236891 
-0.451899201 0.0627543852 -0.00194299337 -0.000128544285 164 153 101 0.119098336 
-0.459483325 0.059697926 0.00159639283 -0.00113131688 160 153 101 0.113533452 
-0.440084159 0.073209092 0.00146892341 -0.016154401 163 154 114 0.12670435 
-0.434631884 0.0653361231 0.00655321311 -0.000765192613 166 155 110 0.132585898 
-0.434001982 0.0607004985 -0.00561247673 0.000124023762 193 177 125 0.133961335 
-0.430020988 0.0471891873 0.00327175669 -0.00180998247 136 127 79 0.139705718 
-0.422509879 0.0449521989 -0.00411309022 -0.000157681061 182 160 126 0.146200284 
-0.410286516 0.0402247235 -0.00258440548 -0.000770480372 166 149 122 0.156972334 
-0.38889268 0.0363421626 -0.00137353991 -0.00110609643 169 151 119 0.175005749 
-0.425400615 0.0626409948 -0.00181950908 -0.0238061417 183 169 117 0.140557677 
-0.418365866 0.060424529 0.00448853103 -0.0202225521 153 143 105 0.146662995 
-0.421766371 0.054606393 -0.007033139 -0.00336000766 200 184 133 0.14499855 
-0.427547455 0.0555641167 0.00504114712 -0.00649944087 163 151 105 0.140142649 
-0.414519072 0.044450745 0.00463050138 -0.00139557035 141 136 97 0.152758732 
-0.429729879 0.0532380566 -0.00327843381 -0.00658234581 199 183 138 0.138811454 
-0.414196849 0.0473415144 -0.00625148462 -6.83569815e-05 161 143 114 0.152479485 
-0.419559181 0.051698558 0.0058363406 -0.00609950116 160 147 109 0.147327408 
-0.414810866 0.0548337251 -0.00146932714 -0.0245872084 173 159 127 0.150583357 
-0.394486487 0.0542005152 0.00267668301 -0.0318853036 187 176 138 0.167144641 
-0.406526864 0.057097286 -0.00384115707 -0.0232778974 156 149 116 0.156862557 
-0.395460606 0.0519881062 -0.0117229689 -9.54787247e-05 162 147 120 0.166769803 
-0.404875517 0.0497843251 0.00916905608 -7.19855889e-05 175 165 121 0.159564465 
-0.404246032 0.0504111424 -0.00927005988 -0.000150863547 153 137 114 0.159956664 
-0.398638427 0.0463951863 0.00378372706 -0.0130911097 146 139 105 0.165243462 
-0.402150869 0.0436054058 -0.00391476136 -0.00532887131 166 146 124 0.162922874 
-0.407526374 0.0494786315 0.000668183784 -0.0233672149 157 153 109 0.157476932 
-0.382101655 0.0528218895 0.00632273918 -0.022833975 181 166 125 0.177421853 
-0.379848093 0.0437119827 -0.00907543767 -0.000129501539 179 167 152 0.180946618 
-0.387313604 0.0500571728 -0.000601875014 -0.0317892432 154 140 117 0.173721611 
-0.382751167 0.0424953327 0.000576889259 -0.0206229482 149 143 108 0.178825125 
-0.390999079 0.0420436859 0.00522998674 -0.00377970631 145 138 104 0.172236726 
-0.361748427 0.0413611718 0.00659194775 -0.0102139125 164 152 118 0.196028844 
-0.362178266 0.0501116514 -0.0150641827 -0.000130315369 182 169 139 0.194046691 
-0.370827019 0.0542024039 0.00046763086 -0.0474863015 182 167 123 0.186285511 
-0.372859985 0.0475767851 -0.0051266239 -0.0210719705 168 156 132 0.185878307 
-0.370238662 0.0415774882 0.00928413775 -9.06701316e-05 168 155 120 0.189119592 
-0.369354963 0.0386684574 -0.00695743877 -0.000178080241 163 150 132 0.190377861 
-0.374241233 0.0398628265 0.000396797201 -0.0183105152 142 139 104 0.186201647 
-0.344990849 0.0363802202 -0.0066771959 -0.00496717123 185 170 139 0.210516587 
-0.352829456 0.0394640863 -0.00957774092 -0.00181129435 157 145 127 0.203598902 
-0.356014192 0.0475201979 0.00951668713 -0.0158701576 172 157 118 0.199517652 
-0.357029378 0.0429270193 -0.000815827632 -0.0297600292 148 135 121 0.19955422 
-0.349936992 0.0347965434 0.000620966137 -0.00852693897 151 142 116 0.206810758 
-0.365854859 0.0441899374 -0.000790048856 -0.0287983473 167 153 133 0.192178294 
-0.359912694 0.0358168259 -0.00559019204 -0.000361445593 148 135 121 0.198549598 
-0.332546115 0.0385321453 -0.0017633643 -0.0251265485 179 164 131 0.220182791 
-0.341185749 0.0429759324 -0.0113544799 -0.00763923861 177 163 127 0.212363064 
-0.341336429 0.0369680077 0.00142578105 -0.0181585215 149 142 127 0.213363335 
-0.327468574 0.0372654647 0.00544807594 -0.0168570634 132 127 117 0.22452727 
-0.339101672 0.0444700792 -0.00282127224 -0.0348861292 190 170 133 0.213770077 
-0.325072646 0.041292347 -0.00574817555 -0.0249136779 189 172 136 0.225713521 
-0.335297883 0.0332388282 0.0068018185 -0.000523917843 106 105 101 0.218945235 
-0.330496967 0.0300441347 1.10701449e-05 -0.00013675206 153 142 118 0.223425999 
-0.336484224 0.0357119255 -0.00923896208 -0.000276757346 194 178 141 0.217523515 
-0.318920135 0.0343777016 -0.00941313617 -0.00360747799 195 178 138 0.231982604 
-0.315402031 0.0351937935 0.00220645731 -0.024216827 142 139 104 0.234676421 
-0.311031073 0.0331650227 -0.00528619112 -0.0142106283 177 159 130 0.238591582 
-0.322852492 0.0296928026 0.00461196247 -2.97028892e-05 142 139 104 0.229676247 
-0.318122745 0.0283709317 -0.0028203493 -0.000603535853 192 177 143 0.233749673 
-0.301594347 0.0297313668 0.00146388647 -0.0173030756 115 115 115 0.246867508 
-0.30553174 0.0338750109 -0.0122591201 -0.000244923256 142 125 105 0.242908105 
-0.30977115 0.0263106301 0.000552063109 -0.00105439464 164 152 129 0.240891129 
-0.30043301 0.027254859 -0.007015788 -0.000469064515 173 157 138 0.248269618 
-0.387070924 0.0486148223 -0.0108532589 -7.82298157e-05 160 145 119 0.174187392 
-0.370937854 0.0493271314 -0.0136472499 4.18961281e-06 163 147 114 0.187106431 
-0.361515343 0.0440552011 -0.0085683018 -0.00927497633 182 170 145 0.19571425 
-0.32803607 0.033191856 -0.00795051735 -0.000379310863 188 173 137 0.224829033 
-0.188606113 -0.0437765568 0.000464023673 -0.000937723205 95 102 109 0.352008164 
-0.171624333 -0.0500424094 -0.00154096424 -0.00488584209 96 106 108 0.366917282 
-0.179354966 -0.0460579991 0.000396140356 -0.00891020522 112 124 125 0.359918743 
-0.19574368 -0.0345142372 -0.00152255944 -0.000939643825 126 133 127 0.344503671 
-0.200530574 -0.0280604158 0.00232401583 0.000137374736 107 117 120 0.339425474 
-0.186990738 -0.0350753143 0.00149694318 -0.00581608247 103 112 112 0.351689845 
-0.178647488 -0.0332810655 0.00405796943 -0.000536938896 100 109 106 0.358104646 
-0.184369177 -0.0282081887 -0.00353874499 -0.00099396368 128 131 131 0.352528125 
-0.165631071 -0.0441553146 0.00142735674 -0.0095586516 122 126 126 0.370666414 
-0.170755997 -0.0374152921 0.00420130789 5.4767821e-05 113 117 117 0.365261286 
-0.175114483 -0.0377149433 -0.00374166574 0.000997391064 110 112 114 0.361791104 
-0.210626841 -0.00388610922 0.00446742913 8.03836156e-06 126 131 131 0.326742023 
-0.21474582 -0.00324208196 -0.00338606024 0.000180100033 110 108 104 0.323289365 
-0.21599111 -0.0116326036 -0.000673850242 -0.00268163392 112 112 112 0.323849022 
-0.207394928 -0.0186806209 -0.00240453403 -0.000126218161 112 112 115 0.332120031 
-0.201973021 -0.00179063668 0.00479393126 -0.00195757137 115 115 114 0.333351821 
-0.196705654 -0.00895071775 0.00506341411 -0.00240940927 118 124 125 0.338950634 
-0.199055269 -0.021575626 -0.00359716779 -0.000450251973 130 131 131 0.339407802 
-0.198494613 -0.00585316541 -0.00536893681 0.000467638602 112 113 114 0.336924762 
-0.20841068 -0.0124989394 0.00392283266 -0.000482730189 114 117 119 0.33014369 
-0.189879119 -0.0146745704 0.00487392768 -0.000297767459 114 118 120 0.345542639 
-0.206429243 -0.00970601663 -0.00426268205 -0.000102266204 112 104 105 0.331225038 
-0.194374099 -0.0140016424 -0.00345474249 -0.00252152141 130 123 112 0.341780365 
-0.200646788 -0.0168678574 0.00398321962 7.86942546e-05 113 116 119 0.337240905 
-0.192644894 -0.0231129061 0.00416317023 0.000478429254 104 110 111 0.344881147 
-0.175490528 -0.0288158953 -0.00397309987 0.000312388293 128 130 130 0.359824717 
-0.188880175 -0.0075965873 -0.000619227882 -0.0170889217 112 118 120 0.345028758 
-0.174806133 -0.0146394689 -0.00559461396 5.28908568e-05 138 145 147 0.357730567 
-0.182848215 -0.00627226941 -0.00703275111 0.000838026812 125 131 137 0.349661469 
-0.173998803 -0.013957452 0.00566416048 -0.0012293742 136 140 139 0.35825631 
-0.184676573 -0.0163803697 -0.0021521803 -0.0101939617 111 107 101 0.350070238 
-0.16121541 -0.029840285 0.00415345747 -0.0040914081 121 122 121 0.371565074 
-0.158487871 -0.0127416803 0.00265841372 -0.016999118 125 126 121 0.37057808 
-0.159789294 -0.0307961032 -0.00479512895 0.000503059709 102 103 106 0.372897357 
-0.170991719 -0.0277134962 0.00475103781 0.000315352518 125 128 129 0.363258511 
-0.167023584 -0.0256535895 -0.00302835228 -0.00407585967 124 128 132 0.366084069 
-0.166865557 -0.0179796871 0.00148968818 -0.0142548485 131 134 133 0.364778608 
-0.15865618 -0.0220502652 -0.00354724284 -0.00547007658 119 124 124 0.372180551 
-0.175205603 -0.021120118 0.00050318602 -0.0161771532 120 123 124 0.358617842 
-0.291732728 0.0277613401 -0.00886514038 -0.00102099183 160 146 127 0.255213827 
-0.274186343 0.0240565315 -0.00789025612 -0.00139961496 179 163 133 0.270101368 
-0.277338058 0.0275732484 0.000989327324 -0.0257974826 108 108 108 0.266894639 
-0.282641828 0.0265239216 -0.0092326263 -0.000125371269 176 160 136 0.26279977 
-0.283190489 0.0224579033 0.00535455626 -0.000216926521 107 107 107 0.263115346 
-0.276481926 0.018926546 -0.000974230585 -0.000542707043 176 161 139 0.269202352 
-0.287437022 0.0233315676 -0.00243981229 -0.00485229772 202 182 154 0.259516567 
-0.259151578 0.0256293286 -0.00103879883 -0.0287556183 174 160 127 0.281971157 
-0.260615081 0.018511381 -0.00618977705 -0.00034153997 190 176 143 0.282116622 
-0.272199482 0.022018211 0.00726451585 -0.000246249285 108 108 108 0.272089511 
-0.26792255 0.0212299749 -0.00187715411 -0.0128393574 170 156 127 0.275696903 
-0.262138247 0.0167685933 0.00322431372 -0.00307558849 104 104 104 0.281209856 
-0.242839128 0.0187752489 0.000130981236 -0.0270889755 150 139 121 0.296448618 
-0.25368312 0.0193256065 0.00206860714 -0.0175510254 111 111 111 0.287572712 
-0.250723839 0.0231139809 -0.0108100567 -4.08834312e-05 188 168 131 0.289259285 
-0.247329444 0.0157772005 0.00720083341 -0.000329856703 119 117 111 0.29337579 
-0.246360928 0.0107292105 -0.0012716885 -0.000801261398 195 176 140 0.295102239 
-0.252033681 0.0157768056 -0.0059314575 -0.000410552602 179 159 138 0.289570004 
-0.233891279 0.0167444386 0.000447355094 -0.0274383575 114 113 110 0.304067016 
-0.227748737 0.0160460901 -0.0105529455 -0.000194165215 182 166 143 0.309166968 
-0.237740695 0.0144688133 0.00816696975 -6.34004828e-05 131 126 115 0.301377803 
-0.225216642 0.010642482 0.00766398897 -0.000310624484 143 136 119 0.312224805 
-0.241882414 0.0166780893 -0.00845226366 -7.55618094e-05 188 177 151 0.297614366 
-0.225289419 0.0162155051 -0.0020010036 -0.0255019963 179 162 145 0.31112498 
-0.232926995 0.00845816545 0.00368501619 -0.000444483536 107 107 107 0.306394875 
-0.237721801 0.00984833017 -0.00369495759 -0.000361654296 163 154 143 0.302256078 
-0.224598318 0.00809469074 -0.00560092553 -0.000127167092 160 152 139 0.313200921 
-0.217848703 0.0131090395 0.00183481083 -0.0245769285 148 139 123 0.317724973 
-0.207919389 0.0042765676 0.00209639128 -0.0158094391 133 128 120 0.327407807 
-0.211040974 0.00925291516 -0.00897474494 1.90357532e-05 153 133 120 0.323952883 
-0.223067343 0.00401128223 0.00214204215 -0.00080258341 102 86 58 0.315202206 
-0.215539634 0.00556205586 -0.00231053866 -0.011752055 132 123 114 0.321002722 
-0.19850862 0.00853473414 -0.000677751785 -0.0309248529 134 130 123 0.334226102 
-0.20265159 0.00622559339 -0.00926871598 0.000116051349 156 140 126 0.331305593 
-0.19576931 0.00361192552 0.00816957653 -0.00532377325 151 141 121 0.337361723 
-0.190205842 0.00714936852 -0.00359677197 -0.0283083245 136 130 121 0.34120208 
-0.203933656 0.00699546468 0.00970057398 6.43764506e-05 169 155 125 0.330124587 
-0.20585379 -0.000846125651 -0.0048971856 0.000128821586 111 122 127 0.330035746 
-0.19072479 -0.00218466669 -0.00768337213 5.01546601e-05 126 131 131 0.342525572 
-0.194281757 -0.000594592304 0.000463383622 -0.0226149745 112 112 110 0.339350849 
-0.185815156 0.00173900416 0.00194896571 -0.0268113818 132 127 118 0.345764756 
-0.170814574 0.00223305123 -0.0040905294 -0.0317692235 137 129 115 0.357808411 
-0.183214039 0.0115902033 -0.00770577975 -0.0294573046 158 138 116 0.346029162 
-0.168559253 0.000251943653 -0.0125513272 -0.00821884349 140 124 106 0.360003084 
-0.177896008 0.00586978113 0.00659063878 -0.0281328466 175 161 130 0.351400048 
-0.17742756 -0.00105907978 0.000868792296 -0.028399488 122 121 118 0.35307321 
-0.17287603 -0.00488337502 0.00750293117 -0.00708595105 125 123 118 0.357469827 
-0.174022853 -0.00581058208 -0.00618740497 -0.00675649615 134 133 129 0.356715202 
-0.180408701 -0.00943633821 0.00144249771 -0.0147860069 143 143 140 0.352226079 
-0.157933369 -0.00732457219 -0.0122146625 -0.00217258115 123 120 109 0.370014846 
-0.16446504 -0.0033894619 0.010029586 -0.0118082622 155 145 126 0.363995552 
-0.162896976 -0.00143966917 -0.00579044316 -0.0269469898 112 108 102 0.364899993 
-0.160154313 -0.00400296925 0.00226709899 -0.033072006 110 110 109 0.367597669 
-0.159700185 -0.0135931 -0.00612523593 -0.00417173794 148 152 152 0.369756311 
-0.167704195 -0.00915537868 -0.000256158353 -0.0237772204 132 139 137 0.362451971 
-0.166317225 -0.00872434024 -0.00954395998 0.000805802061 133 132 128 0.363493532 
-0.204513431 0.0148579255 -0.0113043422 -0.00614193594 183 162 131 0.328186959 
-0.194072261 0.00518560177 -0.0113762235 -0.000189852202 143 132 120 0.338440776 
-0.177393749 0.00100261834 -0.0134128351 0.000118195429 147 134 114 0.352715492 
-0.150572032 -0.00503765699 -0.0166816674 -3.56272794e-05 144 131 112 0.375543267 
-0.161429361 0.00558955222 -0.0127968695 -0.022092022 161 141 115 0.364774406 
-0.0905579627 -0.144482881 -0.00399159454 -0.000294911035 104 104 108 0.450141966 
-0.0900216699 -0.152026802 0.000719030329 -0.000478934147 78 83 92 0.451984853 
-0.0766732842 -0.15341115 -0.00109632523 -0.00332165253 121 123 126 0.463042676 
-0.0838525146 -0.141421914 0.00634217542 -0.000584519177 116 119 120 0.454995126 
-0.0748316497 -0.145246342 -0.00469080359 0.000411710353 111 114 115 0.463007599 
-0.0826247931 -0.146794781 -0.00065875001 -0.0118542574 102 102 102 0.456991941 
-0.070781678 -0.147418648 0.00368492561 -0.00381900277 110 114 117 0.466689914 
-0.104249299 -0.118313782 -0.000662388455 -0.00742810639 106 107 113 0.434177369 
-0.096478492 -0.131694645 0.0021951138 -0.00406445004 119 124 124 0.442963481 
-0.097255826 -0.121500209 0.00450148759 -0.00670666806 116 122 122 0.440430462 
-0.0919729844 -0.12393567 -0.00774867646 -0.000322408479 124 129 129 0.445159346 
-0.0995610729 -0.125410125 -0.0033175922 -0.00262380205 113 112 118 0.439295769 
-0.0922268704 -0.139462918 0.0031779604 -0.0059844777 104 107 108 0.447854102 
-0.0773086101 -0.136485115 -0.00561530702 -0.00673144963 102 104 105 0.459367245 
-0.0838310421 -0.123159707 0.00141334289 -0.0238967016 115 120 120 0.451601505 
-0.0712499917 -0.123008072 0.00117333827 -0.0272564571 130 132 132 0.46175164 
-0.0846711844 -0.118736401 -0.00874698069 -0.000772083993 120 122 120 0.450095594 
-0.0756111518 -0.124896504 -0.00878952071 -0.00128796604 124 124 122 0.458576053 
-0.0758593008 -0.140182704 0.00256820442 -0.0128305443 128 133 133 0.461230397 
-0.0861056298 -0.1359514 -0.0070746867 -0.000103380095 104 104 106 0.452150494 
-0.0838487446 -0.127354845 -0.00644721463 -0.0064065652 124 124 122 0.452370733 
-0.0727430806 -0.131791472 0.00127457245 -0.0241987891 126 129 128 0.46218425 
-0.0693883151 -0.131190464 -0.00776468636 -0.00106829149 134 133 134 0.464786083 
-0.081439428 -0.133236483 0.0025682922 -0.0189785697 115 119 119 0.455418497 
-0.0592947379 -0.145048127 0.00095242972 -0.0106593156 189 175 119 0.4755404 
-0.0556995012 -0.127740592 -0.000343299384 -0.0219292734 134 132 131 0.475216389 
-0.0656689107 -0.140264347 0.00512248185 -0.00255835196 124 127 129 0.469489992 
-0.0617434792 -0.122853607 0.00825212151 -0.000679523975 136 140 139 0.469413817 
-0.0660914481 -0.14696528 -0.00448055426 -0.000232338381 109 113 115 0.470399737 
-0.0563716516 -0.122702911 -0.00766165089 -2.32876482e-05 127 125 124 0.473731637 
-0.0571644828 -0.137642458 0.0055565415 -0.00206339778 130 133 136 0.475880623 
-0.0617597774 -0.133345559 -0.00369668007 -0.00997663103 109 112 113 0.471360296 
-0.0690427348 -0.138694495 -0.00297325524 -0.00966240279 125 129 130 0.466467232 
-0.0436875261 -0.133081272 0.0014389148 -0.0110659488 117 120 120 0.485931963 
-0.0510420874 -0.131225139 0.0064061028 -3.23910499e-05 138 142 139 0.479635209 
-0.0504372343 -0.143947825 0.000464512064 -0.000306989008 151 155 154 0.482500881 
-0.0490221418 -0.13396813 -0.00564228976 -7.8698853e-05 112 114 117 0.481781721 
-0.0557856858 -0.139758587 -0.00530023128 -0.000368353212 117 119 118 0.477391362 
-0.118547127 -0.104365364 0.000211444712 0.000134394373 103 111 111 0.420004725 
-0.111009777 -0.103637502 -0.00448395172 -0.000225420983 108 115 115 0.42596674 
-0.101038009 -0.100506373 0.00449572783 -0.0103575578 134 140 138 0.433449358 
-0.111152649 -0.109825306 0.00245555071 -0.000559919048 107 116 116 0.427006871 
-0.100003123 -0.103211164 -0.00393129978 -0.0102247475 114 121 121 0.434791803 
-0.0930738375 -0.101397716 0.00839005224 -0.000222058443 127 131 129 0.440059096 
-0.103289351 -0.112297118 0.0058388859 -0.00184837659 99 105 102 0.433830231 
-0.0898878574 -0.11652942 0.00274883513 -0.0207598228 124 127 127 0.445462942 
-0.105213962 -0.110402912 -0.00464641908 -0.0029426571 107 111 113 0.431919336 
-0.0875640512 -0.111095771 -0.00518447533 -0.0114038633 120 126 126 0.446328074 
-0.0959932506 -0.112534061 -0.00236479496 -0.0167576857 135 134 133 0.439777225 
-0.0851432756 -0.105788201 0.00183832808 -0.0231292043 113 118 116 0.447295219 
-0.0706404075 -0.112347171 -0.0044656028 -0.0127424588 121 124 124 0.460253567 
-0.0783977881 -0.10720595 0.00801196881 -0.00326161669 124 128 127 0.453017324 
-0.0789842531 -0.109371081 -0.0035111506 -0.0177900679 119 123 122 0.452947289 
-0.0724257976 -0.118668616 0.00886586402 -0.000171816675 125 128 127 0.459989846 
-0.0773175657 -0.118121952 -0.00325952028 -0.017901836 125 127 124 0.455930144 
-0.0812727138 -0.114561543 0.00388665451 -0.0190089699 129 132 133 0.452065319 
-0.0513779521 -0.115931891 -0.00272421842 -0.0148768323 124 127 128 0.476507008 
-0.0573597178 -0.115117259 0.00769027043 -0.00182945374 130 136 134 0.471515447 
-0.0627586395 -0.114266515 -0.00815094076 2.23683892e-05 116 121 120 0.466988623 
-0.0598039478 -0.117886379 -0.000564475311 -0.0253862552 132 132 130 0.470055193 
-0.0642763004 -0.124745354 -0.004093308 -0.0138840917 129 129 126 0.467718035 
-0.036253985 -0.122289568 0.00372690917 -0.00675222743 136 137 137 0.489930242 
-0.0429790542 -0.115765244 0.0045546554 -0.00770524237 124 125 124 0.483270854 
-0.0430263989 -0.114142209 -0.00526075764 -0.00387905282 122 125 126 0.482929409 
-0.0441932939 -0.125531852 0.00614404771 0.00016946299 138 140 139 0.48411271 
-0.0518199727 -0.121269584 0.00439626304 -0.0107483948 134 136 135 0.477146357 
-0.13825953 -0.0796802491 -0.00332374731 -0.000642159313 105 111 113 0.39944616 
-0.135924056 -0.0871486962 0.000937220233 -0.000721246935 207 201 139 0.402730554 
-0.12845163 -0.0838762596 0.00458712317 -0.0011953389 116 122 124 0.40816474 
-0.116470993 -0.0882342756 0.00614536135 -0.000905182678 110 117 116 0.418671459 
-0.111895755 -0.0840315819 -0.00181959313 -0.0145078208 112 116 117 0.421587974 
-0.125114426 -0.0916957185 0.00192120089 -0.00489700586 111 118 119 0.412325174 
-0.116606824 -0.079469353 0.00454982789 -0.00559694879 121 125 124 0.416924417 
-0.105127551 -0.0888477117 -0.0050419108 -0.00628625788 113 119 117 0.427963197 
-0.117155433 -0.0956045389 0.00104739575 -0.0123520773 103 114 111 0.419494301 
-0.109132931 -0.0965085775 0.00481691025 -0.00458152592 100 108 105 0.42615363 
-0.0981615633 -0.0863445699 0.00151174224 -0.0180450901 125 132 129 0.433131367 
-0.0912142694 -0.0927164927 0.00763734244 -0.00169602339 102 106 104 0.439942062 
-0.0861654058 -0.08715038 -0.00738666672 -0.000464484096 118 127 125 0.442987144 
-0.101805568 -0.0920767784 0.00727777276 0.000410456269 115 121 119 0.43125391 
-0.0883532763 -0.0927385539 -0.000800806331 -0.0228465982 121 126 126 0.442260832 
-0.0982669443 -0.0944791585 -0.00426185364 -0.0114461649 118 123 123 0.434565485 
-0.0921622068 -0.100796863 -0.000452799926 -0.0245255269 90 97 101 0.440684408 
-0.0882140994 -0.0980500877 -0.00795318559 -9.95697919e-05 122 127 126 0.443365514 
-0.0801702216 -0.096148923 9.07920476e-05 -0.0271150023 125 128 127 0.449518144 
-0.0647473484 -0.0994718224 0.000395000592 -0.0256512128 122 126 125 0.462616384 
-0.0613516755 -0.0956605524 -0.00690781837 -0.000578623498 133 136 137 0.464651704 
-0.0718509033 -0.0966736972 0.00640154025 -0.00576907443 123 128 126 0.45634675 
-0.0703068003 -0.0927693099 -0.00149091054 -0.0207705256 132 136 135 0.456866711 
-0.0712850392 -0.104947552 0.00314408191 -0.0186370816 127 132 130 0.458349943 
-0.0667175055 -0.103214152 -0.00801000744 -0.000413420261 128 129 131 0.46172142 
-0.0750873685 -0.101483077 -0.00491915271 -0.010112376 131 135 134 0.45462662 
-0.0527017191 -0.100626588 0.00320447423 -0.0109340483 135 140 138 0.472577333 
-0.0621545091 -0.0943858176 0.00723597594 -2.20917864e-05 130 130 130 0.463764101 
-0.0550739393 -0.109056719 0.0015720732 -0.0201691911 126 133 131 0.472232699 
-0.0553368628 -0.109403081 -0.0073432494 0.000258530839 133 136 137 0.472084671 
-0.0634989515 -0.108151697 -0.0011819452 -0.0219337828 108 113 113 0.465247571 
-0.0379848368 -0.104517527 -0.00314880349 -0.00936855003 120 121 120 0.485210478 
-0.0416256972 -0.10055089 0.00395033881 -0.00755070383 126 129 128 0.48152405 
-0.0451552272 -0.0984624624 -0.00520578027 -0.00152653689 136 139 138 0.478278458 
-0.0343244597 -0.112259522 -0.00560701732 0.00031111436 122 124 124 0.489617884 
-0.0464702398 -0.106822327 -0.000405436032 -0.0211153235 144 149 147 0.478776038 
-0.032064721 -0.11121586 0.00410232367 -0.00475420011 130 131 132 0.491251171 
-0.149718791 -0.0663414001 0.00381298317 -0.000127211446 107 116 115 0.387683839 
-0.157414496 -0.0596620962 0.004034949 -0.000341989595 111 120 120 0.380210221 
-0.156402603 -0.0652718619 -0.00281301118 -0.000311756274 128 130 127 0.382076651 
-0.154205874 -0.0534936301 -0.00401547132 -0.000817742664 110 115 116 0.381653935 
-0.144164637 -0.0711489618 -0.00235633948 -0.0040261047 123 126 123 0.393075287 
-0.163161844 -0.0531848297 -0.00341516803 -0.002309673 105 115 113 0.374350637 
-0.146397635 -0.0566723719 0.00229990971 -0.00981444679 115 125 123 0.388564765 
-0.136883423 -0.0660997108 -0.00428716931 -0.000459549716 114 119 118 0.39802292 
-0.147729397 -0.062738061 -0.00408929633 7.80861592e-05 111 115 115 0.388620317 
-0.137078524 -0.0596794337 0.00411364203 -0.00348392152 109 118 116 0.396665871 
-0.140286177 -0.0578732938 -0.00465543848 -0.000144746969 135 138 138 0.393733442 
-0.133881748 -0.0729549751 0.00054849498 -0.016861733 113 117 119 0.40173173 
-0.129931599 -0.0563551784 -0.000551490695 -0.0155127728 121 124 125 0.401827037 
-0.121167921 -0.0703726038 0.00579223223 -0.000773419568 114 121 122 0.411535293 
-0.112338021 -0.0678923652 0.00285957172 -0.00999080762 116 120 119 0.418215692 
-0.114694893 -0.0693065152 -0.00580189191 0.000796833425 134 137 136 0.416573048 
-0.123170927 -0.071610041 -0.00280106766 -0.00886702724 110 116 116 0.410145909 
-0.119210646 -0.062568225 -0.00212012324 -0.0113611994 125 127 127 0.411661088 
-0.108971983 -0.0753032416 0.00648383517 -1.30920671e-06 128 130 129 0.422323138 
-0.099111706 -0.076214239 -0.00568345282 -0.00144873431 130 134 134 0.430470526 
-0.117208406 -0.0778454542 -0.00540939439 -0.00188276707 128 131 132 0.416134447 
-0.109329209 -0.0625453517 -0.00360019831 -0.00857437961 119 128 126 0.41965121 
-0.104309164 -0.079975307 0.00049939641 -0.0200756639 124 128 127 0.426968127 
-0.103857793 -0.0694290996 -0.00216724002 -0.0134748239 124 126 126 0.425363481 
-0.092746824 -0.0743582398 0.000354689866 -0.0199669339 132 135 134 0.43527326 
-0.0875429958 -0.0705704689 -0.00610092841 0.000180898001 120 126 125 0.438775808 
-0.08504311 -0.0741520226 0.0049887863 -0.00732178241 124 127 126 0.441467285 
-0.0808666646 -0.076432921 -0.00434188172 -0.00598518876 119 123 123 0.445272177 
-0.0979613513 -0.0774598271 0.00687980093 -0.000261336216 130 134 133 0.43163386 
-0.083619535 -0.0884964764 0.00566075183 -0.00747093372 123 127 126 0.445298225 
-0.0977140665 -0.0678392202 0.00408547418 -0.00779121462 122 125 124 0.430036962 
-0.0950543359 -0.0865775049 -0.00683537079 0.000699569704 122 130 131 0.435688734 
-0.0790211558 -0.0862405747 -0.00213974901 -0.0173895769 105 113 110 0.448597103 
-0.0960089341 -0.0677943528 -0.00605299789 1.80706847e-05 129 133 135 0.431408137 
-0.0808833018 -0.0678350627 -0.000860962318 -0.0171253458 129 132 131 0.443652809 
-0.0862557366 -0.0817056894 0.000406372186 -0.0214358307 123 126 125 0.441897094 
-0.0891148299 -0.0664326623 0.00222735968 -0.0124836601 122 125 125 0.436731339 
-0.0904618874 -0.078945443 -0.00694679935 -0.00015177601 107 114 113 0.437978625 
-0.0788016319 -0.0806423277 0.00516994298 -0.00654851738 127 131 130 0.447729081 
-0.0575892627 -0.0859393477 -0.00367964851 -0.0098532429 125 128 127 0.465879887 
-0.0689844191 -0.0788829029 0.00698755821 2.70979945e-05 118 118 118 0.455342859 
-0.0658112392 -0.0872626156 -0.00686252816 -0.000115710427 135 140 138 0.459475219 
-0.0706420392 -0.0839630291 -0.000142122357 -0.0208462887 120 124 123 0.45495069 
-0.0684757605 -0.0749141425 -0.00371987373 -0.00831841305 119 123 122 0.455013096 
-0.0418370217 -0.0823661089 0.00531265978 -0.000404043996 140 141 139 0.477956533 
-0.0565232523 -0.0795053169 0.00596731855 0.00045534427 129 131 130 0.465540588 
-0.0604132339 -0.0778490826 -0.00611290382 7.40769319e-05 120 124 122 0.462084115 
-0.0473988354 -0.0941551626 0.00626840908 6.24189852e-05 146 151 149 0.475658804 
-0.0478605181 -0.0757943094 0.00589335244 0.000259596505 138 139 138 0.471855849 
-0.0467522368 -0.0815318972 -0.00207121531 -0.0114169884 130 130 130 0.473824143 
-0.055125311 -0.0921051055 0.00225860626 -0.0149910357 133 135 134 0.469024926 
-0.0532812774 -0.0755291954 -0.00131216133 -0.0144598996 130 132 131 0.467420787 
-0.0299366079 -0.0856911838 -0.00290708104 -0.0060821753 135 136 135 0.488205373 
-0.0367122516 -0.088852495 0.00198937301 -0.0113598537 145 147 144 0.483314127 
-0.0343226083 -0.0964877158 -0.00193180481 -0.0118228663 130 132 131 0.486673534 
-0.0455348194 -0.0903417245 -0.00156377954 -0.0144614372 127 131 129 0.476454556 
-0.0270095039 -0.0934523121 0.00214892207 -0.0107222227 138 140 137 0.49202311 
-0.0382771827 -0.0828988254 -0.00445138942 -0.002593813 121 123 121 0.480936021 
-0.0245836787 -0.0853301808 0.00488001667 -0.000197081827 144 145 143 0.492468625 
-0.152207285 -0.0466904938 0.00137996324 -0.0141266854 122 129 127 0.382000178 
-0.158918843 -0.0452977978 -0.00431970693 -0.000577960163 116 122 122 0.376310199 
-0.148147106 -0.0396945626 0.00521025015 0.000245857227 122 131 128 0.383978307 
-0.153032064 -0.0386275202 -0.0048102662 0.000257983222 122 127 121 0.379826933 
-0.156776756 -0.0375464149 0.00466175377 -0.00227390067 120 124 124 0.376595408 
-0.145381823 -0.0426851399 -0.00271375757 -0.0101455273 125 128 127 0.386774063 
-0.130087391 -0.0480767116 0.00585811865 -0.00062406424 114 121 120 0.40015474 
-0.1385943 -0.0513111427 0.00112936134 -0.0149083668 118 126 125 0.393876553 
-0.137216136 -0.0451852828 -0.00525175733 0.000197860354 139 143 142 0.393847317 
-0.128857017 -0.0480590165 -0.00413602963 -0.00500415312 127 128 131 0.401146889 
-0.121625409 -0.0540161505 -0.00277059013 -0.00941969454 103 111 112 0.408110112 
-0.108671337 -0.0595715865 0.00562490989 -0.00244573178 137 140 139 0.419627994 
-0.122375041 -0.0463705473 0.00173682021 -0.013973902 125 129 126 0.406075627 
-0.115254089 -0.0512446426 0.00393857807 -0.00750663457 111 115 112 0.412747055 
-0.114295833 -0.0465413593 -0.00556009449 0.000160001218 115 119 119 0.41264382 
-0.105277307 -0.0546290539 -0.00413721753 -0.00515784603 117 126 122 0.421450734 
-0.108088672 -0.0466244742 0.00138357677 -0.0169268716 124 126 125 0.417681158 
-0.0974808335 -0.0511695631 -0.00139093609 -0.0153516382 117 125 125 0.427112132 
-0.100687601 -0.04748822 0.00626760069 0.000171546475 124 126 125 0.423830152 
-0.0898989365 -0.0612948388 -0.00569833117 -0.000867232156 120 123 122 0.435137331 
-0.0830150545 -0.0612485036 0.00613924302 -0.000148684136 130 131 131 0.440697908 
-0.088177897 -0.0557511523 0.00140113221 -0.0147541333 119 118 122 0.435494244 
-0.0725605637 -0.0577351674 0.0049729785 -0.00315143913 132 131 134 0.448499709 
-0.0735203475 -0.063589856 -0.00351715274 -0.00796018355 127 130 129 0.448816746 
-0.0800004452 -0.0578156076 -0.00150919519 -0.0150624281 132 135 134 0.442495644 
-0.0580001846 -0.0692767054 -0.00618559029 -0.000280693755 131 134 133 0.462435216 
-0.0653702989 -0.0667676777 -0.00189408078 -0.0131437518 126 129 129 0.456003934 
-0.0571180806 -0.0606683865 0.00671569165 -2.30862352e-05 127 131 131 0.461540997 
-0.060906969 -0.0604828373 -0.00637419848 -0.000261673646 138 139 139 0.458441019 
-0.0661643296 -0.063872315 0.00647997856 -0.000435448426 123 124 124 0.454820752 
-0.0701686889 -0.0556998774 -0.00589284953 -0.000271027035 149 152 151 0.450054646 
-0.0429014862 -0.0716740191 -0.000256111671 -0.0167927165 127 128 127 0.475098282 
-0.053056743 -0.0672103912 0.00184795645 -0.0163624585 135 136 135 0.466048658 
-0.0491072349 -0.0693371445 -0.00617381465 -7.99075933e-05 147 147 147 0.469641149 
-0.0448726565 -0.0630799085 -0.00149536959 -0.017770553 128 133 133 0.471898347 
-0.0456144586 -0.0664980635 0.00668075262 -0.000105398445 136 141 136 0.471936643 
-0.0299078207 -0.0786033273 0.00248975423 -0.00967296399 140 141 139 0.4869048 
-0.0365159363 -0.0735566467 0.00563936401 -0.000192399835 145 147 144 0.480616003 
-0.0348559283 -0.0746979192 -0.00382736046 -0.00396313611 136 137 135 0.482172191 
-0.0275112391 -0.0699600279 0.000182576579 -0.0174091849 156 158 153 0.487229317 
-0.0223525055 -0.0769180506 -0.00189595402 -0.0106476638 127 129 126 0.492702514 
-0.0379867665 -0.0666176677 -0.00588441361 0.000220799819 136 139 136 0.478130013 
-0.146091446 -0.0319414958 0.001330673 -0.0152540132 117 123 121 0.384193271 
-0.141144514 -0.0185596906 -0.000522082672 -0.0234365761 134 139 136 0.385696054 
-0.148470059 -0.0169909243 0.00843273476 0.00172193674 123 122 118 0.379476458 
-0.15162611 -0.0178272054 0.000145581478 -0.0216426663 137 140 137 0.377079308 
-0.143882215 -0.0242673364 0.00574895274 -0.00256355153 140 139 139 0.384547234 
-0.1487059 -0.0251679886 -0.00397075433 -0.00597635191 121 124 125 0.380812973 
-0.152397335 -0.0267066285 0.00482332939 -0.0031456335 122 126 125 0.378113836 
-0.13991493 -0.0265977383 -0.00418732688 -0.00722474232 117 121 123 0.388192177 
-0.129895404 -0.0364682414 -0.000532596488 -0.0196379535 123 128 128 0.398141861 
-0.13335529 -0.0300413147 0.00457316311 -0.00539179193 127 128 129 0.3941423 
-0.126754269 -0.0220659859 -0.0084244702 -0.0038199136 116 115 107 0.397993118 
-0.138074473 -0.0375035219 0.00569234556 -0.00152000843 132 137 134 0.391718149 
-0.135593042 -0.0222834852 0.00834330637 0.00201658136 126 127 122 0.390882879 
-0.138332695 -0.0359213054 -0.00333996699 -0.00689053582 114 120 121 0.391213685 
-0.13311924 -0.0224279519 -0.000214481639 -0.02366063 131 134 131 0.392911255 
-0.131663889 -0.0291941464 -0.00630954001 0.000604200468 120 126 126 0.395352453 
-0.123616442 -0.0304863714 -0.00257370481 -0.0149484696 135 137 136 0.402104437 
-0.114102349 -0.0376525559 0.00134427531 -0.0168410894 127 129 129 0.411140144 
-0.113288209 -0.0283843279 -0.00160035794 -0.0199279562 139 140 137 0.410067677 
-0.116936043 -0.0347884037 -0.00659922184 -7.19330274e-07 150 153 152 0.408312619 
-0.125826776 -0.0252809078 0.00431166682 -0.0114521217 134 135 130 0.399343938 
-0.108698368 -0.0309306085 0.00854584575 0.00172232091 128 126 123 0.414256603 
-0.123348065 -0.0407907367 -0.00514020724 -0.00155780534 115 120 120 0.404246211 
-0.109223723 -0.0392404348 -0.00628010742 4.49870713e-05 127 135 134 0.415383667 
-0.118523933 -0.0262363441 -0.0085108988 -0.000651646056 131 134 127 0.405430615 
-0.104270369 -0.0321494006 -0.00849658158 0.00205888483 146 148 142 0.418066591 
-0.118705109 -0.0309134703 0.00500704255 -0.00800436363 139 141 135 0.406157643 
-0.107176937 -0.0394985341 0.00663389917 0.000621448737 133 134 134 0.417087793 
-0.100851662 -0.0407016128 0.000478913949 -0.0212302115 137 139 138 0.42242983 
-0.0977463126 -0.0320826769 -0.00201340136 -0.0203169491 151 151 147 0.423332304 
-0.103316523 -0.0461674705 -0.0061096265 -0.000501923496 125 133 129 0.421456605 
-0.0965844393 -0.0278470572 -0.00974771008 -0.0102569051 126 118 100 0.423481166 
-0.0913604647 -0.0468049645 0.00522840396 -0.00387908611 125 126 126 0.431248486 
-0.0921288431 -0.0315379202 0.00536654238 -0.015894426 105 105 102 0.427775264 
-0.0946177244 -0.0443108566 -0.0063430625 0.000867839728 128 134 131 0.428147405 
-0.087269716 -0.0301933624 -0.00439198082 -0.0234741122 122 122 103 0.431455314 
-0.106263727 -0.0336053893 4.36573391e-05 -0.0233488828 146 146 145 0.416725874 
-0.0921855196 -0.0386994369 9.96184535e-05 -0.0233190898 142 143 136 0.429067045 
-0.0928172097 -0.0358326212 -0.00840198807 0.00171757792 143 145 134 0.428020507 
-0.0859555751 -0.0446447767 -0.00219031121 -0.0145933954 127 131 130 0.435217708 
-0.0789284408 -0.0292395987 -0.00149597786 -0.0387336835 145 140 128 0.438025504 
-0.0896459818 -0.051692728 -0.00638678484 -0.000106693158 134 138 135 0.43354848 
-0.0839356631 -0.0367170237 -0.00987064838 0.00184836378 142 138 124 0.435371131 
-0.0790590942 -0.0493569449 0.00110624218 -0.0166398771 144 145 143 0.441677302 
-0.0753164142 -0.0353340767 0.00377425225 -0.0239587743 120 118 115 0.442086071 
-0.0766137168 -0.0459493138 -0.0067506046 -0.000283085974 145 147 146 0.443019241 
-0.0765972435 -0.0372464731 -0.00484262127 -0.0157158915 144 139 132 0.441407055 
-0.0835640356 -0.0365297571 0.000663141487 -0.0257233344 122 120 116 0.435636818 
-0.0730731487 -0.0393642038 0.011358466 0.000860504922 119 118 115 0.44465369 
-0.0722395852 -0.0429874659 0.000410628301 -0.023394024 126 126 117 0.446004808 
-0.0801436305 -0.0430318527 0.00728571881 -0.000228850986 148 149 141 0.439618498 
-0.0723167062 -0.0490486696 0.00692728953 0.000674198964 140 142 132 0.447074533 
-0.0529600754 -0.0594607294 -0.00249528978 -0.0130165899 134 134 134 0.46467939 
-0.0653506443 -0.0382668003 -0.00266111013 -0.0277312901 119 114 102 0.450696439 
-0.0557537451 -0.0364708491 -0.000442633405 -0.046051994 134 128 110 0.458125174 
-0.0680357218 -0.0423434712 -0.010099994 0.00164256466 119 114 102 0.449285597 
-0.0511691198 -0.0403041914 -0.010133855 -0.0200220235 151 140 112 0.462550253 
-0.0605418831 -0.0524673983 0.00738789467 0.000744094141 135 136 131 0.45723927 
-0.0582059585 -0.0377721079 0.00795328617 -0.0247001108 128 124 119 0.456384331 
-0.0646430925 -0.0570656396 0.000952369126 -0.0175297875 133 134 135 0.454780132 
-0.0585781559 -0.0436490476 -0.00483503751 -0.017832078 130 123 108 0.457180917 
-0.0559400395 -0.0460556857 0.00332605583 -0.0202103797 128 126 121 0.459764719 
-0.0581682697 -0.0522821993 -0.00282143522 -0.0144361556 142 143 136 0.459125012 
-0.0646708086 -0.0450186357 0.0047612749 -0.0120667163 126 123 118 0.452507555 
-0.0661481768 -0.0481166765 -0.00354148122 -0.0123328529 145 147 146 0.451890975 
-0.0406193882 -0.0564607792 0.0026472148 -0.0173461754 130 132 123 0.474103034 
-0.0359454788 -0.0434036255 -0.00105637126 -0.0450908653 134 129 112 0.475445569 
-0.0377442092 -0.0443137959 -0.009708561 -0.022795517 148 136 113 0.474160343 
-0.0493846312 -0.0527774841 0.0069420347 -0.00443583401 130 130 123 0.466323733 
-0.0426711366 -0.0467943996 0.00401806133 -0.0266093202 122 122 114 0.470637619 
-0.0461144187 -0.0564522855 -0.00732218008 0.00048152433 151 153 148 0.469655812 
-0.0490920804 -0.0407199636 0.00530326925 -0.0318706594 116 114 109 0.464308351 
-0.0406527072 -0.0504166111 -0.00387746701 -0.0196350068 152 151 139 0.47294718 
-0.049147889 -0.0488496758 -0.00172326667 -0.0245467387 158 160 148 0.465781629 
-0.0520317145 -0.0491684563 -0.0101204114 0.00150224217 138 137 118 0.463508099 
-0.0267839022 -0.0611233264 -0.000724556216 -0.0199050047 147 151 145 0.486167222 
-0.0222142525 -0.05421222 -0.00387049327 -0.0239394605 146 144 130 0.488573372 
-0.0349069536 -0.0633932129 0.00216214661 -0.0142752705 148 150 144 0.480019391 
-0.0277206376 -0.045532044 0.00128815614 -0.0464123897 120 119 111 0.482497275 
-0.0335180014 -0.0589171797 -0.00612778496 -0.00384608656 146 145 134 0.480307072 
-0.0287870616 -0.0489861444 -0.00681897858 -0.024394853 135 128 111 0.482279629 
-0.0252573397 -0.0534770563 0.00442185812 -0.0225599129 122 121 113 0.485974103 
-0.0330035016 -0.0526020154 0.000134743517 -0.0306186453 137 139 129 0.479543775 
-0.0180415306 -0.0592383184 0.00214126101 -0.0224585664 144 142 132 0.492888004 
-0.0350616202 -0.0524725616 -0.0120621659 0.000484778837 133 125 105 0.47785452 
-0.138997197 -0.00534488447 -0.00837479904 -0.0313390307 150 140 111 0.384965062 
-0.143985808 -0.00325687137 0.00237049046 -0.0463863462 119 118 116 0.380539119 
-0.154054433 -0.00698763086 -0.00416518934 -0.025208829 132 130 122 0.373090118 
-0.141828865 -0.0119171552 0.00538291316 -0.0221901741 121 120 117 0.383901685 
-0.144008815 -0.0105446558 -0.00314339437 -0.0278656036 149 149 136 0.381881684 
-0.150221393 -0.00951867551 0.00346893352 -0.0245332718 110 109 106 0.376663893 
-0.148079991 -0.0140897529 -0.0102292141 0.000714855676 138 137 124 0.379250169 
-0.136996791 -0.0153472163 -0.013159683 -7.38357194e-05 120 116 99 0.388451666 
-0.12346229 -0.00820169225 0.000167331396 -0.0584822558 117 113 106 0.398066849 
-0.124749228 -0.0107306056 -0.00865640305 -0.0307076741 175 161 124 0.397498012 
-0.135828435 -0.00666922191 0.00138245407 -0.048883792 111 111 109 0.387776017 
-0.134052545 -0.0121335834 -0.00541454554 -0.027898198 136 134 117 0.390233397 
-0.133302018 -0.0146790966 0.00435107248 -0.0257279985 118 118 113 0.391316026 
-0.126990005 -0.0161484312 -0.00176764675 -0.0327636898 134 134 128 0.396697104 
-0.119276762 -0.0174362194 -0.00718477042 -0.0240206905 123 119 103 0.403177887 
-0.112753615 -0.0144143142 0.0062037888 -0.0394039229 159 145 121 0.407890886 
-0.113953315 -0.00984735694 -0.0122285243 -0.0300367512 182 166 115 0.406067252 
-0.115798965 -0.0167795569 0.0142312683 -0.0117615182 161 144 114 0.405868888 
-0.101221763 -0.0120256729 0.00386791374 -0.0589744188 159 144 115 0.416774333 
-0.115381286 -0.0106108934 -0.00272112852 -0.053234797 138 130 108 0.405054599 
-0.106423631 -0.0134121822 -0.00319845113 -0.0526376218 123 115 94 0.412824839 
-0.120101914 -0.0185564421 0.00330991531 -0.0298877507 115 114 106 0.402719557 
-0.112692237 -0.0195299052 -0.0015486707 -0.0367335528 137 139 131 0.408895999 
-0.113486454 -0.0237891749 0.00620066281 -0.0163049009 128 123 113 0.409049004 
-0.110214934 -0.0263508875 -0.011705826 0.000290654105 118 116 99 0.412174255 
-0.0908089727 -0.0162881128 -0.00229194504 -0.0593441911 148 139 118 0.425994724 
-0.0981160328 -0.0200453307 -0.00576432003 -0.0369445272 128 120 103 0.420784891 
-0.0882815421 -0.0190879423 0.0056365137 -0.047655195 141 130 111 0.428562462 
-0.0825709775 -0.0155397207 -0.00641508866 -0.0569609739 164 148 117 0.432519764 
-0.101632267 -0.0274041258 0.00441928674 -0.0206284896 119 116 112 0.419314623 
-0.10568805 -0.0244102702 -0.00408845209 -0.0245996378 143 143 132 0.415474147 
-0.0929016247 -0.0246725008 -0.00026427611 -0.041887179 122 120 103 0.425867736 
-0.0900919735 -0.0212129243 -0.0102119828 -0.030019423 158 144 118 0.427494675 
-0.0803255662 -0.0149140824 0.00712931436 -0.0588254742 174 153 118 0.434219509 
-0.075463891 -0.0235993601 -0.0160737559 -0.0212924518 170 152 121 0.43977499 
-0.0726684332 -0.0147286607 0.0116841942 -0.0518287085 166 146 112 0.440379709 
-0.065850094 -0.0232361518 -0.00616847165 -0.0545180254 177 159 126 0.44748497 
-0.0812470466 -0.0209131632 0.000548828742 -0.0598323755 130 124 114 0.434594482 
-0.0686683133 -0.0216847993 0.00768765435 -0.0526342578 163 145 116 0.444915175 
-0.0818710402 -0.0243162215 -0.00834703818 -0.033667028 152 142 114 0.434725285 
-0.0693790689 -0.0305418596 -0.000818903325 -0.0460267626 131 124 107 0.445994467 
-0.0724962503 -0.0222036317 -0.000345719658 -0.0640959293 148 136 112 0.441915154 
-0.0742296875 -0.0288510304 -0.00902186707 -0.0279142484 163 148 121 0.441754371 
-0.0497411266 -0.0254614502 -0.002009016 -0.0739742145 167 153 122 0.460933238 
-0.0591450185 -0.0202158522 -0.0136693642 -0.0455992781 200 177 125 0.452345461 
-0.0606324822 -0.0198221989 0.010943165 -0.0535406768 173 153 117 0.451068491 
-0.0571344569 -0.0216648579 -0.00516132917 -0.0679562092 179 161 128 0.454242706 
-0.053485997 -0.0294657536 0.00497467397 -0.055520989 153 143 128 0.458651453 
-0.0526399687 -0.0319929942 -0.00730538461 -0.0443036444 167 153 122 0.459807962 
-0.0606655777 -0.0293143503 -0.0022385302 -0.0537584648 124 115 99 0.452814668 
-0.0611754134 -0.0344007015 -0.00952364225 -0.0257055908 142 130 111 0.453352243 
-0.0355837345 -0.0308550075 0.00551039819 -0.065647468 174 156 124 0.473394394 
-0.0347446613 -0.0295001641 -0.010549685 -0.0550233126 182 165 128 0.47382018 
-0.0427987091 -0.0259682275 0.00367229432 -0.0748221427 171 154 125 0.466644526 
-0.0389236286 -0.0324630029 -0.00255289138 -0.0658257306 163 146 121 0.470992655 
-0.0407105163 -0.0380253866 0.00420334935 -0.0481421277 131 126 118 0.470585972 
-0.0443103909 -0.0416259281 -0.00367121911 -0.0367029905 139 129 109 0.468346059 
-0.0473496281 -0.0337980501 -1.35874279e-05 -0.060680829 138 128 103 0.464425147 
-0.0439801067 -0.0348897278 -0.00947184861 -0.0400273129 164 149 122 0.467355102 
-0.0193003528 -0.0302655939 -0.000287528033 -0.0917455405 168 151 121 0.486458093 
-0.0222661924 -0.0324398726 -0.00915461034 -0.0618176572 175 155 125 0.484464705 
-0.024621455 -0.0339831784 0.00570890727 -0.0668006316 166 149 119 0.482847512 
-0.0277952999 -0.031920664 -0.00216205232 -0.0764382705 178 159 126 0.479894519 
-0.0231860857 -0.0424415395 0.00833502412 -0.0432684794 145 132 108 0.48558861 
