ply
format ascii 1.0
comment created by gply, a Houdini tool.
comment converted from .[b]geo
comment for more information about Houdini, try:
comment www.sidefx.com
element vertex 619
property float x
property float y
property float z
property float depth
property uchar red
property uchar green
property uchar blue
property float length
element face 0
property list uchar int vertex_indices
end_header
-0.0659596473 -0.182466254 1.27446139 -7.50827312e-05 199 192 84 0.814410925 
-0.0345278904 -0.171185911 1.24891329 -0.0261495039 65 50 40 0.808110654 
-0.0424201451 -0.18830426 1.29166317 -0.00011461851 36 28 29 0.818652868 
-0.0341120102 -0.173656449 1.35991621 -0.000282286812 42 33 30 0.835484207 
-0.0771285594 -0.163788393 1.32202303 -0.000104155275 42 37 37 0.826139688 
-0.0471394137 -0.178680494 1.31993127 -0.000679494347 44 35 32 0.82562387 
-0.0429577194 -0.143135726 0.92857784 -0.0515460856 51 48 46 0.729115188 
-0.0593423694 -0.141577303 0.979186296 -0.044033207 84 71 53 0.741595328 
-0.0562860034 -0.105405219 0.942474663 -0.0724297464 118 95 67 0.732542157 
-0.0474881306 -0.099126026 1.00429106 -0.0840127394 112 88 63 0.747786224 
-0.0202096924 -0.149959862 0.947786629 -0.0547944754 49 46 41 0.733852088 
-0.0332750976 -0.155691206 0.973854601 -0.0453998148 201 196 86 0.740280509 
-0.0422358997 -0.0842729658 0.926395655 -0.0965580121 132 109 78 0.728577077 
-0.0238817502 -0.0990526304 0.985712588 -0.099277474 63 55 46 0.743204713 
-0.0621130727 -0.0892593712 0.966463089 -0.0791652724 136 110 80 0.738457799 
-0.0582698472 -0.16460298 0.959840655 -0.0256750621 46 43 41 0.736824632 
-0.0323434025 -0.0967558622 0.957119644 -0.0954992846 87 73 56 0.736153662 
-0.0778283253 -0.118902452 0.984956503 -0.048016265 102 77 56 0.74301827 
-0.0494068973 -0.113480754 0.977893114 -0.0718327761 103 84 62 0.741276443 
-0.067769371 -0.132433966 0.948415279 -0.0452907979 102 83 61 0.73400712 
-0.0387595445 -0.126552507 0.953486621 -0.0678711459 65 55 47 0.735257745 
-0.0616478585 -0.156533062 1.04737592 -0.0315298215 106 94 62 0.75841105 
-0.0534398369 -0.087087445 1.03595757 -0.0893112347 132 109 70 0.755595267 
-0.0322685353 -0.157414645 1.04108644 -0.0446099937 48 48 48 0.756860077 
-0.0262323767 -0.0957997888 1.02502775 -0.100691475 83 69 44 0.752899945 
-0.0734754428 -0.152796999 1.00349498 -0.026453292 99 82 60 0.747589946 
-0.0769802928 -0.094613649 1.00579631 -0.066165626 96 74 45 0.748157382 
-0.0448294207 -0.153911054 1.01139271 -0.0418611802 38 37 35 0.749537528 
-0.0966979042 -0.117059037 1.04027045 -0.0376927853 141 116 72 0.756658852 
-0.0489409715 -0.133812204 1.03283489 -0.0569090545 89 78 51 0.754825175 
-0.058765199 -0.12735869 1.00511622 -0.0554279238 99 82 60 0.747989714 
-0.029712243 -0.122427545 1.01191878 -0.0766437054 53 48 41 0.749667227 
-0.073183693 -0.16909945 1.07640922 -0.0159298051 120 106 73 0.7655707 
-0.051645577 -0.106525078 1.07356453 -0.07856372 142 120 75 0.764869213 
-0.0282349773 -0.149468496 1.10592628 -0.0561329275 40 40 40 0.772849739 
-0.0269261803 -0.098180905 1.09157968 -0.101238035 115 102 72 0.769311786 
-0.082049042 -0.143998608 1.06392777 -0.0298597105 123 104 64 0.762492836 
-0.0776919276 -0.113900572 1.06345856 -0.0550324693 125 103 59 0.762377083 
-0.0493280441 -0.153285205 1.08481252 -0.042214606 203 198 88 0.767642975 
-0.0507668443 -0.0797140524 1.08752751 -0.0993461534 150 125 74 0.768312514 
-0.105519444 -0.125092596 1.06821811 -0.0276002809 138 115 67 0.763550758 
-0.0384042487 -0.109901384 1.04787982 -0.0828194097 110 95 60 0.758535385 
-0.0662361085 -0.129162282 1.0863179 -0.0524925813 153 130 81 0.768014193 
-0.0488996767 -0.134000912 1.06255269 -0.0578729585 102 90 58 0.762153685 
-0.0438988544 -0.110042714 1.11345649 -0.0833118707 100 84 61 0.774706662 
-0.054060325 -0.173415542 1.13555753 -0.0247806367 154 125 61 0.780156851 
-0.0470656082 -0.118322693 1.14087319 -0.0756329894 70 60 49 0.781467736 
-0.0256580058 -0.167617738 1.14240718 -0.0401702374 87 72 47 0.781845987 
-0.0186412446 -0.110300995 1.13800681 -0.0968669578 67 57 39 0.780760884 
-0.0999027565 -0.156580552 1.12755442 -0.0127366856 118 97 68 0.778183281 
-0.0820564479 -0.153365195 1.16464269 -0.0259753782 100 85 63 0.787329316 
-0.0710008889 -0.10511224 1.12905562 -0.0701395497 122 99 65 0.778553486 
-0.0741812736 -0.0952268764 1.16258824 -0.073786445 123 97 68 0.786822736 
-0.0521212667 -0.13795507 1.11928177 -0.056233488 72 63 51 0.776143193 
-0.055723615 -0.146171346 1.17700648 -0.0468188077 105 85 65 0.790378273 
-0.0686675981 -0.102402508 1.09812558 -0.0713173896 148 121 74 0.770926058 
-0.0409530327 -0.107207842 1.16759932 -0.087557584 100 85 63 0.78805846 
-0.0775129497 -0.139905363 1.13816619 -0.0401435718 101 83 58 0.780800164 
-0.050152611 -0.147199348 1.14822745 -0.0493270643 72 62 43 0.783281267 
-0.0680819526 -0.124177955 1.16187918 -0.0574922487 109 88 66 0.786647856 
-0.0277247988 -0.152250409 1.16784978 -0.052939225 99 85 57 0.78812021 
-0.0880836248 -0.148342028 1.1935277 -0.0257644653 81 57 43 0.794452429 
-0.0672097579 -0.0946275443 1.19578063 -0.0791524053 92 63 44 0.795008004 
-0.0334061347 -0.148976743 1.19733918 -0.0531172976 91 76 60 0.795392394 
-0.0360360518 -0.0959640145 1.19613016 -0.098969914 80 57 42 0.795094192 
-0.0863058344 -0.142021969 1.22285259 -0.0291289501 77 53 38 0.801684022 
-0.0734378621 -0.115817942 1.2162168 -0.0578602739 75 51 37 0.800047636 
-0.0599480458 -0.143234447 1.20929635 -0.04562933 88 63 48 0.798341036 
-0.0505486615 -0.124827363 1.23287964 -0.0631701052 73 55 44 0.804156721 
-0.082050465 -0.119828381 1.18778491 -0.0510756373 86 59 40 0.793036222 
-0.0522142164 -0.120255694 1.19162667 -0.0699851066 78 57 43 0.793983638 
-0.0301902425 -0.123286329 1.2108444 -0.0770216435 82 65 52 0.798722744 
-0.0688027367 -0.142084375 1.24668527 -0.0368474051 74 60 49 0.807561219 
-0.0520309992 -0.10859704 1.2569139 -0.0709523708 63 51 47 0.810083628 
-0.0114536826 -0.152375013 1.24216664 -0.0497549661 59 43 33 0.80644697 
-0.0233878139 -0.109924205 1.24918377 -0.0870122984 200 194 85 0.808177412 
-0.0788853765 -0.155822709 1.27125382 -0.0157552585 45 36 36 0.813619912 
-0.0795439705 -0.108472221 1.26893902 -0.0500374809 88 70 55 0.813049018 
-0.0486314073 -0.158569098 1.27205217 -0.0292485338 197 190 83 0.813816726 
-0.0561099127 -0.104889475 1.2868768 -0.0657785758 35 30 32 0.817472577 
-0.0894111618 -0.120748498 1.24344897 -0.0389107689 71 56 43 0.806763113 
-0.0607461482 -0.131361514 1.2737385 -0.045190163 39 32 33 0.814232647 
-0.0321752019 -0.119322151 1.27661157 -0.069613874 190 182 78 0.814941108 
-0.0925696865 -0.159081236 1.29652131 -6.77658245e-05 36 31 32 0.819850922 
-0.0635066628 -0.128648683 1.30332673 -0.0399313569 32 29 30 0.82152915 
-0.0242418051 -0.166310877 1.29880345 -0.0237577371 28 23 25 0.820413709 
-0.0242815819 -0.075277783 1.31590772 -0.102396928 31 25 27 0.824631631 
-0.060013514 -0.167923898 1.3459661 -5.21792681e-05 160 153 62 0.832044125 
-0.0686641783 -0.109702565 1.32634664 -0.0471424609 29 24 25 0.827205896 
-0.0207010973 -0.173506722 1.3331008 -0.00917993113 30 24 27 0.828871489 
-0.0459246598 -0.116134748 1.34537506 -0.0512665473 68 55 47 0.831898332 
-0.0879504532 -0.131517947 1.28607655 -0.0253598504 47 40 38 0.817275226 
-0.0659551471 -0.138515562 1.33459663 -0.0245017689 41 35 33 0.829240382 
-0.0569347702 -0.157811671 1.30093694 -0.0197300483 184 176 75 0.820939779 
-0.0398387983 -0.150257885 1.32608318 -0.0278644357 57 47 40 0.827140927 
-0.0902338475 -0.122443385 1.34149742 -0.0204587225 32 27 27 0.830942094 
-0.03427184 -0.137904242 1.2991904 -0.0471600443 36 29 29 0.820509076 
-0.0611901805 -0.159376502 1.37487483 -0.000218155692 161 155 71 0.839173079 
-0.0714041889 -0.105402678 1.35719609 -0.040944647 87 66 51 0.834813476 
-0.0558553636 -0.108620696 1.40115964 -0.0341028459 80 56 43 0.845654905 
-0.0177640468 -0.14664945 1.34579885 -0.0323334932 26 21 23 0.832002819 
-0.0466313623 -0.147607625 1.42352128 -0.000109450426 162 157 66 0.851169407 
-0.0299841762 -0.0913125724 1.34011829 -0.0811966732 68 55 47 0.83060199 
-0.0477757603 -0.0817011818 1.39078164 -0.0607420728 113 85 60 0.84309572 
-0.0981379896 -0.0931995288 1.36234701 -0.0264982432 138 104 61 0.836083651 
-0.0455491655 -0.143406808 1.35568535 -0.0255195629 157 150 60 0.834440947 
-0.0458837636 -0.10570465 1.3729614 -0.0523291901 80 61 50 0.838701189 
-0.086872004 -0.132777646 1.39561546 -0.000169864332 110 79 58 0.844287753 
-0.0579528734 -0.13989763 1.39693487 -0.011029752 57 43 37 0.844613075 
-0.0702264681 -0.13194108 1.37114072 -0.0188890062 103 78 59 0.838252246 
-0.032920137 -0.124702372 1.39148998 -0.0364693701 38 31 30 0.843270421 
-0.0591799654 -0.0614323802 0.9348014 -0.0982714221 131 112 77 0.730649889 
-0.0690566674 -0.0452715643 1.00373447 -0.102916494 152 138 98 0.747648954 
-0.0267186351 -0.0409149267 0.938882768 -0.136723503 131 115 77 0.731656432 
-0.0190046858 -0.0434038229 1.00037146 -0.143095627 97 72 50 0.746819675 
-0.0574103184 -0.0597031452 0.964157164 -0.101731181 147 121 80 0.737889111 
-0.0748594627 -0.0705386475 0.986474633 -0.08216279 104 84 58 0.743392706 
-0.042319756 -0.0755439177 0.984754682 -0.103394017 102 79 55 0.742968559 
-0.0869730785 -0.0739342943 0.959210813 -0.0696619079 151 127 81 0.736669362 
-0.00779666472 -0.0789421052 0.959459245 -0.12475431 65 56 48 0.736730635 
-0.0453785881 -0.0416618511 1.05209827 -0.12647298 149 121 68 0.759575605 
-0.0325203985 -0.0664459318 1.04219949 -0.118954584 132 109 70 0.757134497 
-0.0961081088 -0.0475752503 1.01544726 -0.0787684619 173 150 91 0.750537395 
-0.0463961326 -0.0475850143 1.02349317 -0.120638631 131 106 63 0.752521515 
-0.0824761689 -0.0916458517 1.0454365 -0.0656702295 143 118 71 0.757932842 
-0.0577645749 -0.0725366399 1.01015747 -0.0953615457 104 82 46 0.749232888 
-0.0856990814 -0.0362480879 1.09936273 -0.0934153274 168 144 75 0.771231115 
-0.0368058793 -0.0557060651 1.07730901 -0.125462592 141 117 68 0.765792608 
-0.0736286193 -0.0413145944 1.06171989 -0.103056341 174 139 74 0.761948347 
-0.0657696128 -0.0556064844 1.08738089 -0.10251005 188 153 87 0.768276393 
-0.0770146847 -0.0862888992 1.07451868 -0.0749748945 141 117 68 0.765104532 
-0.0350250416 -0.0633041859 1.10584497 -0.123137757 136 112 66 0.772829652 
-0.0597252846 -0.0678780079 1.05813849 -0.0990822986 142 118 68 0.761065185 
-0.0558023304 -0.0822321475 1.11674333 -0.0960146189 119 97 56 0.775517225 
-0.031419605 -0.0854702219 1.06477499 -0.107127629 123 104 64 0.76270169 
-0.0250404738 -0.0878527984 1.11978805 -0.112697713 93 78 58 0.776268065 
-0.0581195503 -0.0554463528 1.16050434 -0.110979795 142 115 65 0.786308825 
-0.0190838668 -0.0599942096 1.13142753 -0.138657734 118 97 68 0.779138386 
-0.0740686804 -0.0584687218 1.11587381 -0.0944696292 195 155 84 0.775302827 
-0.10404516 -0.0520856045 1.1771276 -0.069609277 103 83 49 0.790408134 
-0.0517818928 -0.0392420441 1.10948503 -0.122967146 185 149 78 0.773727298 
-0.0565031916 -0.0564048178 1.18985903 -0.110560536 68 51 33 0.79354775 
-0.0776353404 -0.0775577128 1.13877761 -0.0822090134 145 118 63 0.780950904 
-0.0488211662 -0.0587512702 1.13180113 -0.116564937 144 117 70 0.779230535 
-0.0509927236 -0.0891952962 1.14508688 -0.0952759758 111 92 63 0.782506824 
-0.0261316858 -0.0791137069 1.15878665 -0.118974283 92 79 58 0.785885155 
-0.0386481546 -0.0335625 1.18046117 -0.137275994 109 85 54 0.791230202 
-0.0819205344 -0.0584651493 1.20382512 -0.0858171061 127 104 71 0.796991825 
-0.0598891526 -0.0500380434 1.22415638 -0.106288508 138 111 75 0.802005529 
-0.0789247528 -0.0688839853 1.17662454 -0.0861463919 92 71 45 0.790284097 
-0.0514787436 -0.0804458037 1.17521822 -0.100768343 106 78 56 0.789937317 
-0.0511381738 -0.0753485113 1.21205711 -0.101953126 82 58 42 0.79902184 
-0.0378196947 -0.0981142968 1.22610724 -0.092967689 71 51 38 0.802486658 
-0.082178317 -0.0690303966 1.23179722 -0.0769108534 134 107 73 0.803889811 
-0.0248364564 -0.05260133 1.23556435 -0.132345423 100 78 55 0.804818809 
-0.0736117885 -0.0575506389 1.25695443 -0.0869512185 136 102 61 0.810093641 
-0.0520810634 -0.0552627221 1.27696812 -0.103187509 81 73 61 0.815029085 
-0.0661959201 -0.0938022137 1.23513758 -0.0750512928 87 68 50 0.804713547 
-0.0480635688 -0.0709690005 1.24191201 -0.102104723 130 101 67 0.806384146 
-0.0612702295 -0.081545569 1.2669034 -0.0815313905 74 67 57 0.812547028 
-0.0321430229 -0.0889583975 1.26817214 -0.0962598398 39 32 33 0.812859893 
-0.0579269305 -0.0321565717 1.29535496 -0.107075758 43 43 43 0.819563329 
-0.0354782417 -0.0512996577 1.30206323 -0.114310808 162 131 83 0.821217537 
-0.0866176933 -0.0591098033 1.32790673 -0.0635981262 190 168 94 0.827590644 
-0.0485530309 -0.0697543472 1.3316915 -0.0872805417 67 52 42 0.828523934 
-0.0802542642 -0.0860381797 1.28822637 -0.0608435422 168 135 93 0.81780535 
-0.0734076276 -0.079386428 1.34602654 -0.0585270748 140 109 70 0.832059026 
-0.0487972796 -0.077812992 1.2966795 -0.0884091705 62 50 41 0.819889903 
-0.0473880433 -0.0781870559 1.36067295 -0.0741951838 151 108 72 0.835670829 
-0.0705532059 -0.0822376162 1.31612241 -0.0662092194 89 70 48 0.82468456 
-0.0616168454 -0.0426722541 1.33161783 -0.0906018317 118 95 47 0.828505814 
-0.0847242922 -0.0770626813 1.43193066 -0.0265672226 126 93 57 0.853243172 
-0.0383414738 -0.0502796955 1.35143459 -0.098881565 158 116 65 0.83339262 
-0.0669930652 -0.0531674102 1.3592577 -0.0708487779 177 136 71 0.835321844 
-0.0491890125 -0.0371238552 1.37618876 -0.0857207775 170 121 62 0.839497089 
-0.07247141 -0.0732381642 1.40479147 -0.0416280106 168 121 72 0.846550584 
-0.0468903705 -0.0534505732 1.40295041 -0.0735651851 168 121 72 0.846096575 
-0.0739219561 -0.0825680569 1.37612867 -0.0459134541 146 106 67 0.839482248 
-0.0307944529 -0.0607367046 1.37863111 -0.0894538239 143 102 67 0.840099394 
-0.147524342 -0.0492952988 1.56145656 -0.000165733858 162 135 79 0.885184526 
-0.100418441 -0.101214387 1.45052731 0.00012637832 127 101 73 0.857829154 
-0.122951739 -0.0760376155 1.44321954 0.000116411116 188 156 98 0.856027007 
-0.132503346 -0.0866646394 1.50638235 -0.000266865361 146 105 71 0.871603072 
-0.108163372 -0.103869319 1.51069427 -0.00433545979 111 83 60 0.872666478 
-0.118720092 -0.0918020606 1.47212684 -0.000299658364 148 114 78 0.863155603 
-0.0984702334 -0.110510528 1.483235 -0.000160965108 167 144 107 0.865894973 
-0.0716263875 -0.134775266 1.54248738 -0.000197026442 77 55 43 0.880506694 
-0.116008028 -0.10365928 1.54646802 -0.000126348605 86 57 39 0.881488323 
-0.110260777 -0.105040886 1.57573426 -5.29662939e-05 105 69 47 0.888705492 
-0.103891268 -0.104814216 1.60555661 -4.80281888e-05 88 54 37 0.896059752 
-0.104508728 -0.0970030501 1.63434577 -4.84766206e-05 86 57 39 0.903159201 
-0.0929025859 -0.0983581096 1.66915143 -0.000150421867 63 47 34 0.911742389 
-0.0757086799 -0.0989605859 1.71150053 -7.47300219e-05 111 92 49 0.922185719 
-0.126226887 -0.0530906655 1.46208477 -0.0165765733 165 141 92 0.860679269 
-0.0819490403 -0.051237084 1.44706202 -0.0469253361 176 139 74 0.856974602 
-0.110341623 -0.0484555103 1.43756986 -0.0249962043 188 150 71 0.854633808 
-0.100548409 -0.0693076923 1.46196365 -0.0253180414 178 152 109 0.860649347 
-0.108958147 -0.0911288187 1.42151487 0.000567291747 155 115 66 0.85067457 
-0.143116176 -0.0594311953 1.5064218 -0.00818202831 164 120 72 0.871612847 
-0.109160408 -0.0470367223 1.48569 -0.0403621681 143 109 71 0.866500318 
-0.153695956 -0.045473408 1.47168648 -0.000167091988 157 129 84 0.863047063 
-0.139992133 -0.0723237097 1.4803865 -0.000261911773 143 109 71 0.865192473 
-0.107672498 -0.0752809271 1.49474859 -0.0241121836 139 106 75 0.868734241 
-0.113779075 -0.0798410475 1.52858353 -0.0194237567 116 84 61 0.877077997 
-0.0835372284 -0.0847075731 1.48120248 -0.0289652348 164 141 106 0.865393698 
-0.0861205235 -0.0750840977 1.53843224 -0.0416751578 79 53 37 0.879506707 
-0.124128573 -0.0603765249 1.5764668 -0.014624848 126 95 55 0.888886094 
-0.108558573 -0.0547977686 1.54365504 -0.0367807373 94 66 43 0.880794704 
-0.136852115 -0.0609054826 1.53597212 -0.0106480084 108 81 50 0.878900051 
-0.114853166 -0.0537446439 1.51444638 -0.0352396555 163 120 76 0.873591781 
-0.103777446 -0.078583777 1.56238532 -0.0245622993 97 64 44 0.885413587 
-0.133206278 -0.0815632343 1.55735052 -0.000219033158 99 66 45 0.884171963 
-0.122636817 -0.0846258998 1.59384024 -0.000924112159 109 72 54 0.893170476 
-0.133352742 -0.0557672493 1.60787725 -0.000177086797 93 67 44 0.896632016 
-0.0966644213 -0.0652417466 1.5882864 -0.0337236561 112 78 54 0.89180088 
-0.111920722 -0.0469365902 1.62703168 -0.0193826221 103 73 45 0.901355505 
-0.105156355 -0.0738423243 1.61570668 -0.0172736663 99 66 49 0.898562789 
-0.120988876 -0.0714414194 1.64182997 -0.000206103621 105 73 52 0.905004859 
-0.124202363 -0.0502326302 1.66645741 -0.000320605002 97 73 50 0.911078036 
-0.101725496 -0.0698934346 1.66820645 -0.0123521024 91 65 45 0.911509335 
-0.11475426 -0.0585890673 1.69363892 -0.00016292918 84 56 40 0.917781055 
-0.0886060894 -0.0728659034 1.6414175 -0.0261256117 80 56 36 0.904903114 
-0.105534226 -0.0588246323 1.72810543 -0.000106105173 91 63 44 0.926280558 
-0.0986879244 -0.0838551 1.69453478 -0.000264031347 76 54 36 0.91800195 
-0.0961160958 -0.0359191447 1.71166825 -0.0198088288 92 66 49 0.922227144 
-0.0946472883 -0.0449618697 1.76303864 -0.00693217386 67 45 28 0.934895158 
-0.0812522024 -0.0696575642 1.71442556 -0.0169478338 65 46 31 0.922907054 
-0.0808036402 -0.0710458979 1.77179384 -0.000150972221 87 71 52 0.937054217 
-0.04827011 -0.10871692 1.46028829 -0.0230172351 161 158 68 0.860236228 
-0.0238620732 -0.0930737033 1.46321511 -0.0460357182 93 66 52 0.86095798 
-0.0722037703 -0.0919210762 1.45428479 -0.0247874279 97 73 55 0.858755767 
-0.0576136559 -0.104331069 1.4312917 -0.0256981533 103 76 60 0.853085637 
-0.0734566301 -0.121457472 1.45008612 0.00032436481 88 64 50 0.857720375 
-0.0448168293 -0.136960015 1.45111656 0.00016149343 144 135 55 0.85797447 
-0.0718061104 -0.12868385 1.42130649 -0.00274871406 90 63 49 0.85062319 
-0.0334136412 -0.121117942 1.42573214 -0.0264461394 80 60 51 0.851714611 
-0.055864498 -0.0964050815 1.5057143 -0.0369337536 162 156 65 0.871438384 
-0.0426332876 -0.145291999 1.52982306 -9.21264873e-05 61 49 42 0.877383649 
-0.0186433066 -0.101554252 1.51096666 -0.0448993146 69 48 36 0.872733593 
-0.0685230643 -0.110667139 1.48240888 -0.0146398097 163 159 68 0.865691185 
-0.0529881679 -0.0853558406 1.47782481 -0.0431887321 159 129 80 0.864560783 
-0.081444338 -0.12516813 1.5061456 -0.000180597475 101 72 53 0.871544778 
-0.0516543016 -0.125683084 1.50917184 -0.0126760378 71 49 36 0.872290969 
-0.0511430502 -0.134079412 1.48065042 -9.37759178e-05 84 55 43 0.865257561 
-0.0685551539 -0.10750901 1.53018761 -0.0247846209 85 58 40 0.877473533 
-0.0227165446 -0.132320851 1.47143185 -0.00803554058 92 64 48 0.8629843 
-0.0213949475 -0.124432467 1.53031695 -0.0251806956 51 43 40 0.877505481 
-0.0613731928 -0.107073478 1.56908667 -0.0284712575 49 38 35 0.887066185 
-0.0256630946 -0.102877863 1.55907869 -0.0465968177 19 18 24 0.884598196 
-0.0875397995 -0.102742784 1.55517542 -0.018934004 87 56 39 0.88363564 
-0.0878857002 -0.121671602 1.58659542 -9.2078466e-05 82 53 41 0.891383827 
-0.0453047045 -0.123964064 1.55016279 -0.0207607523 37 30 34 0.882399499 
-0.0524936765 -0.0881707668 1.59006298 -0.0466994345 50 38 33 0.892238915 
-0.0957451761 -0.120094545 1.53216994 -0.000121820252 90 60 41 0.87796241 
-0.0348437652 -0.148407146 1.5632112 -0.000303930487 19 18 24 0.885617256 
-0.0663002729 -0.136329696 1.57180679 -0.00018707721 160 155 64 0.887736917 
-0.0366351679 -0.123022184 1.57865942 -0.0230887011 26 23 29 0.889426768 
-0.0641916618 -0.112893231 1.60257924 -0.0179708637 66 51 36 0.895325541 
-0.051910691 -0.139588073 1.59787595 -0.000255389285 35 29 32 0.894165635 
-0.0354233012 -0.117879041 1.60832453 -0.0244638845 54 45 43 0.896742284 
-0.0822140425 -0.113554247 1.64558375 -0.000166435377 99 78 45 0.905930579 
-0.0368853621 -0.0841567367 1.64979649 -0.0467519872 158 155 67 0.906969368 
-0.0578655973 -0.105844744 1.63100731 -0.0224216729 97 77 47 0.902335942 
-0.0511109829 -0.13480714 1.62747908 -0.000240076683 98 75 48 0.901465893 
-0.0651914552 -0.0913979039 1.65644896 -0.0253365654 105 89 49 0.908609927 
-0.0482286438 -0.116297111 1.65719259 -0.0120456088 112 94 59 0.908793271 
-0.0517666303 -0.114752561 1.70333016 -0.000204823853 125 94 63 0.920170963 
-0.0293232612 -0.137498632 1.64791942 2.36992491e-06 118 89 64 0.906506479 
-0.068858698 -0.113529883 1.67872107 -0.000273649697 138 124 72 0.914102316 
-0.0348296762 -0.126958176 1.68180656 -0.000174698536 83 63 44 0.914863169 
-0.0560932308 -0.0858318284 1.78054464 -0.00020961347 120 114 57 0.939212143 
-0.0286906809 -0.11497584 1.72247505 -0.000833582832 96 71 51 0.924892068 
-0.0445054732 -0.104040153 1.74549866 -7.72028579e-05 57 37 22 0.930569768 
-0.0330751091 -0.0612522922 1.4702692 -0.0727159902 81 59 47 0.862697542 
-0.0522582494 -0.0477759242 1.45100963 -0.0714120418 127 101 73 0.857948065 
-0.0881282464 -0.0509250462 1.41750538 -0.0396885648 162 117 54 0.849685907 
-0.040418677 -0.0295860842 1.43010187 -0.0911306813 156 115 67 0.852792203 
-0.0293141883 -0.0571894012 1.43397593 -0.0787687376 90 66 51 0.853747547 
-0.081816636 -0.100780442 1.41390264 -0.0165481102 107 78 52 0.848797381 
-0.0480395332 -0.0779652223 1.42001188 -0.0536474586 102 77 60 0.850303948 
-0.0853951499 -0.0578136481 1.50312459 -0.0529304817 132 101 71 0.87079972 
-0.0691295788 -0.0602017492 1.47180176 -0.0544987395 160 133 100 0.863075495 
-0.0563007966 -0.0640163049 1.49888825 -0.0637138858 147 127 94 0.869755089 
-0.0836853981 -0.0866945684 1.51097405 -0.0322330371 137 108 78 0.8727355 
-0.058373671 -0.0634895638 1.52840912 -0.067508325 90 60 41 0.877035022 
-0.04612666 -0.078161791 1.45007372 -0.0507439226 88 64 50 0.857717276 
-0.0597547255 -0.0855067596 1.54842401 -0.0491250195 72 49 38 0.881970704 
-0.0161034297 -0.0811828971 1.48968756 -0.0608158819 94 62 47 0.867486179 
-0.00118864479 -0.0968491212 1.53489804 -0.0551850796 52 44 42 0.878635168 
-0.0697344691 -0.0565978251 1.5554893 -0.0650705099 98 65 44 0.883713007 
-0.0829858556 -0.0462874547 1.53058577 -0.0643764958 107 74 52 0.877571762 
-0.0782724917 -0.0415169559 1.58815253 -0.0599673167 104 77 48 0.891767859 
-0.056298919 -0.0353117213 1.53889239 -0.0910686404 85 56 39 0.879620194 
-0.0393641368 -0.049395591 1.55858827 -0.0898706019 76 49 39 0.884477258 
-0.0759084001 -0.080359377 1.57319117 -0.0414052382 102 65 44 0.888078332 
-0.0555917248 -0.0598702729 1.58162892 -0.068582356 98 61 41 0.89015913 
-0.0330787264 -0.0763049722 1.57069862 -0.0684859827 160 155 64 0.887463629 
-0.0789374337 -0.0596536808 1.61222899 -0.0470620543 99 66 49 0.897705197 
-0.0448126048 -0.0502750538 1.60789871 -0.0787721574 87 53 39 0.896637321 
-0.0811875984 -0.0446190126 1.63777971 -0.0473351777 105 78 52 0.904006004 
-0.0290875025 -0.0640478358 1.62902474 -0.0723676682 161 159 68 0.901847005 
-0.0799496025 -0.0874358863 1.60189068 -0.0292435586 81 50 32 0.895155728 
-0.0611493215 -0.075840354 1.63011301 -0.0451446474 99 78 45 0.902115345 
-0.0379659645 -0.0888331681 1.61615515 -0.048915606 163 160 68 0.898673356 
-0.0498950034 -0.0546309277 1.64790833 -0.0645552054 63 47 34 0.906503797 
-0.0211188104 -0.0594673268 1.65763831 -0.072737582 123 105 67 0.908903182 
-0.0839925483 -0.0524787195 1.69012666 -0.0304470342 91 59 42 0.91691488 
-0.0542197265 -0.0654229298 1.70222139 -0.0408934876 111 92 49 0.919897497 
-0.0701683164 -0.0847083479 1.68577218 -0.0208699051 122 101 55 0.915841103 
-0.0445391014 -0.0682163015 1.67391264 -0.0510950014 150 138 82 0.912916541 
-0.0273013469 -0.0785404891 1.70482731 -0.0402693003 112 83 57 0.920540094 
-0.0727168471 -0.0636512116 1.66464484 -0.0390939303 65 46 30 0.910631061 
-0.04363814 -0.0975385085 1.68024349 -0.0247194991 132 111 73 0.914477706 
-0.067521669 -0.0434914306 1.71698749 -0.0421880484 86 58 39 0.923538804 
-0.0316202678 -0.0509676412 1.71591151 -0.0606220216 120 114 57 0.923273563 
-0.0211355221 -0.0441830195 1.77082872 -0.0524517484 76 58 37 0.936816216 
-0.0798572674 -0.0619202852 1.74318445 -0.0149807008 67 51 36 0.929999053 
-0.051273156 -0.0562374294 1.73793054 -0.0396345109 76 60 34 0.928703427 
-0.0699466318 -0.08900287 1.7504245 -0.000198490336 53 41 22 0.931784511 
-0.040481966 -0.0767565146 1.7569195 -0.021838367 78 63 39 0.933386207 
-0.0537055209 -0.0835779011 1.72578454 -0.0202566572 45 33 18 0.925708234 
-0.0243071131 -0.0862739831 1.73368514 -0.0248997621 77 54 38 0.927656531 
-0.0691063851 -0.0554239973 1.82710457 -0.00367601449 103 86 52 0.950693965 
-0.0412766896 -0.0633660778 1.83478725 -0.00985231344 83 64 44 0.952588499 
-0.0730488375 -0.0391498208 1.7997942 -0.0184453409 72 52 27 0.943959177 
-0.0465483144 -0.0412288904 1.78670716 -0.0391733013 134 118 72 0.940731883 
-0.0706486925 -0.0689013675 1.80040526 -0.000190343126 127 112 68 0.944109857 
-0.0450008586 -0.0806679204 1.81060183 -0.000271229568 110 91 62 0.946624398 
-0.032726381 -0.0677638277 1.78538156 -0.0234038848 107 87 58 0.940405011 
-0.0188924205 -0.0462928638 1.8451941 -0.0292631295 78 56 38 0.955154896 
-0.0586126633 -0.0568328947 1.85837483 -0.00012640364 64 51 33 0.958405316 
-0.0344195366 -0.0439539738 1.91978979 -0.000190512437 120 114 57 0.973550379 
-0.0376073644 -0.0579009242 1.88600433 -0.000384933723 122 110 45 0.965218782 
-0.0249125268 0.0270212535 -1.54131114 -0.000252545811 85 79 28 0.120034754 
-0.029012844 -0.0195506774 -1.47182333 -0.00710748928 101 87 52 0.137170613 
-0.0181624964 0.0396125354 -1.59855807 -7.57999951e-05 72 72 32 0.105917528 
-0.0221569184 0.0528984219 -1.55714536 -0.0002392733 101 100 45 0.116130002 
-0.0311465561 0.0529589318 -1.49986207 -0.000295108999 95 81 31 0.130256191 
-0.0339279324 0.00993116386 -1.46926665 -0.0102533596 117 98 58 0.137801096 
-0.0442796871 -0.0123297945 -1.44702816 -0.000300943037 101 83 52 0.143285155 
-0.0518313162 0.00524107832 -1.41546154 1.94199965e-05 100 84 50 0.151069567 
-0.0288833026 -0.0232672002 -1.42371976 -0.0134486705 84 72 47 0.14903307 
-0.0407738946 0.0168130528 -1.44083381 -0.0108984578 101 89 52 0.144812703 
-0.0558566265 -0.00872589741 -1.36829484 -0.000144942431 86 72 42 0.162700981 
-0.0349525958 -0.0107064219 -1.39647055 -0.0140501633 107 89 55 0.155752778 
-0.0279450286 -0.0180203728 -1.36243188 -0.0249596667 81 69 44 0.164146796 
-0.0594407171 0.0179375634 -1.38155854 -0.000217545545 80 66 37 0.159430116 
-0.037455041 -0.0379566699 -1.38418055 -0.00603968464 91 78 48 0.158783525 
-0.0288930275 0.0184615925 -1.40135348 -0.0268768761 92 77 44 0.154548645 
-0.0591386929 -0.0158746261 -1.29838455 -4.50152729e-05 93 75 46 0.179941028 
-0.0412091985 0.00821206253 -1.29848886 -0.0241030026 109 87 53 0.179915294 
-0.04223134 0.000750894891 -1.32752955 -0.0189385619 84 70 41 0.172753796 
-0.048404891 -0.0358233601 -1.31805217 -0.00137942657 98 85 51 0.175090939 
-0.0634816438 0.0210543144 -1.32047164 -0.00322893169 96 80 46 0.174494296 
-0.0629435256 0.0153504601 -1.35188174 -1.11125992e-05 102 85 48 0.166748494 
-0.0515549891 -0.0299515836 -1.34753501 -1.5782658e-05 76 66 43 0.167820409 
-0.0402348787 0.0288963206 -1.33774221 -0.0253445171 88 71 44 0.170235336 
-0.0657479763 0.00549002364 -1.24177945 -0.00102190441 111 92 51 0.193899974 
-0.0178217944 0.00897747558 -1.24841535 -0.0487917997 111 91 53 0.192263544 
-0.0643648058 -0.0032050733 -1.27170181 -0.000125195016 104 85 51 0.186521053 
-0.0282412674 -0.0209089238 -1.27852094 -0.0282431077 96 77 50 0.184839442 
-0.0567497872 -0.0263118297 -1.23471248 -8.67120689e-05 108 88 52 0.19564271 
-0.0571484007 0.0246412028 -1.26320839 -0.0121418694 94 77 44 0.188615546 
-0.0546166636 -0.0314421095 -1.26885831 -0.000118450931 100 80 51 0.187222257 
-0.0678595901 0.0196105558 -1.29083335 -0.000185062701 104 85 50 0.181803167 
-0.0438637435 -0.049474705 -1.29027188 -0.00125543168 102 84 42 0.181941628 
-0.0308059901 0.0363254771 -1.29782712 -0.0381908156 72 57 40 0.180078492 
-0.0499623567 -0.0210486781 -1.19166529 -0.00716681732 107 88 54 0.206258237 
-0.0282988939 -0.00174594403 -1.19927454 -0.0342895836 96 79 48 0.204381779 
-0.0633965135 -0.00587392645 -1.21378291 -0.00020185957 92 75 44 0.20080398 
-0.0387116857 0.00441581476 -1.22738993 -0.0270680208 107 87 50 0.197448462 
-0.0457779169 0.0223445594 -1.20439589 -0.0229547806 92 76 41 0.203118846 
-0.0610140041 -0.0112529416 -1.16554737 -9.37286532e-05 123 102 58 0.212698981 
-0.0668605864 0.02996503 -1.22445571 -0.00301728584 105 86 53 0.198172048 
-0.0445296876 0.0265076663 -1.17474294 -0.0249924827 91 76 40 0.210431337 
-0.04095608 -0.0092715919 -1.25395668 -0.0214328971 100 81 49 0.190897048 
-0.0166805163 -0.0416372977 -1.17424047 -0.0286343768 66 57 39 0.210555241 
-0.00995635614 0.0120804338 -1.21855497 -0.0565986 95 75 43 0.199627191 
-0.0175961424 0.0247693527 -1.19023705 -0.0511509627 93 76 38 0.206610456 
-0.0323807821 -0.00792498514 -1.13164651 -0.0274377223 93 77 42 0.221059009 
-0.066452831 0.00858478621 -1.18738699 -0.000234815408 98 80 42 0.207313284 
-0.022938272 0.0192997362 -1.12350106 -0.0428924337 114 94 53 0.223067701 
-0.0689088926 0.023548035 -1.15751112 -0.000111391186 122 100 60 0.214680746 
-0.0333929025 -0.0220062472 -1.15891838 -0.0226707999 113 91 60 0.214333713 
-0.0419104844 0.016241923 -1.14666557 -0.0249875076 123 102 58 0.217355281 
-0.0558966547 -0.0248311181 -1.13933742 -0.000241325703 92 74 44 0.219162419 
-0.0416360982 -0.0512115471 -1.14030874 -0.00110343925 78 66 44 0.218922883 
-0.0587428659 0.00790449418 -1.12320268 -0.00559991132 110 90 51 0.223141283 
-0.0587484874 -0.0150744654 -1.10391617 0.000122328056 97 79 46 0.227897376 
-0.0472644418 -0.016322637 -1.0762316 -0.0113817994 124 100 60 0.234724462 
-0.049142994 0.00789293647 -1.05752099 -0.0152540924 105 85 50 0.239338547 
-0.0677972138 0.0292430259 -1.10280776 0.000125358609 108 87 48 0.228170723 
-0.0382745825 -0.0331916474 -1.11654103 -0.0122102778 85 69 41 0.224784061 
-0.0649400875 0.00692524947 -1.0829767 4.01125289e-05 121 98 54 0.233061105 
-0.0676264465 0.0304865837 -1.06406748 -5.68582327e-05 97 78 46 0.237724155 
-0.0397812948 -0.0174070112 -1.0443989 -0.0167144276 105 86 51 0.242574483 
-0.0463129357 -0.0434841663 -1.06352711 -0.000120019773 100 80 49 0.237857416 
-0.0287399683 -0.0227117054 -0.998764992 -0.0221728366 106 87 51 0.2538279 
-0.0478790551 0.0190569516 -1.00982118 -0.0152198812 106 86 51 0.251101434 
-0.0554853529 -0.0146831423 -1.01898324 4.68402868e-05 118 98 55 0.248842046 
-0.0167948268 -0.0325399302 -1.0325315 -0.029435562 84 68 45 0.245501012 
-0.0490963794 0.0404044166 -1.45738995 -0.000282433699 79 62 41 0.140729919 
-0.0536828414 0.0363919176 -1.42208564 -0.00167434663 72 61 37 0.149436042 
-0.0392071567 0.0642481446 -1.44210386 -0.00975230522 58 41 29 0.144499496 
-0.0527354479 0.067299746 -1.41550255 -0.000166460639 47 34 24 0.151059449 
-0.0192385595 0.0861845538 -1.43682766 -0.0226198919 61 46 27 0.14580062 
-0.0626184866 0.0435545444 -1.36301637 -7.12764449e-06 48 36 20 0.164002672 
-0.0314780436 0.0484418906 -1.40590036 -0.0249833222 42 32 21 0.153427377 
-0.0357821658 0.0548689924 -1.35440218 -0.026602732 55 42 26 0.166126937 
-0.0365935005 0.0371399447 -1.37859941 -0.0243027955 94 75 49 0.160159856 
-0.0295659322 0.0847797021 -1.3579874 -0.0259164982 54 41 24 0.165242821 
-0.0578077734 0.0616086498 -1.38648701 -9.88930697e-05 49 35 26 0.158214748 
-0.0277084783 0.0657989755 -1.38115513 -0.0294166002 53 39 31 0.159529597 
-0.066913344 0.0568460301 -1.31230927 -0.000199178467 37 25 18 0.17650716 
-0.0365718305 0.0657474697 -1.29626203 -0.029221192 59 45 32 0.180464447 
-0.0636045188 0.0780443847 -1.29133952 -0.000106324034 49 37 26 0.18167834 
-0.0610483438 0.0637553632 -1.34089851 -0.00219317805 44 33 22 0.169456974 
-0.0135868145 0.0683525503 -1.33863342 -0.0477078781 43 32 19 0.170015559 
-0.0687951818 0.0518103875 -1.25810444 -0.000211481005 51 39 24 0.189874187 
-0.0479631536 0.05446738 -1.23675656 -0.0207142718 34 24 15 0.195138633 
-0.0575271361 0.047240641 -1.285496 -0.0113808587 51 39 25 0.183119372 
-0.0633912086 0.0812694728 -1.26152313 -0.000123491714 106 91 50 0.189031139 
-0.0408131666 0.0618239492 -1.26495314 -0.0263440162 57 42 30 0.18818529 
-0.0116085783 0.0801489279 -1.2855556 -0.0492945239 87 81 39 0.183104664 
-0.0700665936 0.0372952372 -1.19518006 -0.000183430588 77 61 30 0.205391496 
-0.0388789363 0.0515110977 -1.20341969 -0.0307245571 58 42 28 0.203359574 
-0.0688659176 0.059074942 -1.21576059 -3.13663622e-05 46 35 24 0.20031628 
-0.0572286174 0.071880579 -1.19126153 -0.0105855921 68 49 40 0.206357807 
-0.0592622496 0.0824810565 -1.23183644 -0.00414091256 77 62 41 0.196351945 
-0.0306403413 0.0761837363 -1.22553372 -0.0334613435 77 62 41 0.197906211 
-0.0288023166 0.0848922357 -1.18390489 -0.0358818136 59 43 27 0.208171979 
-0.0368627682 0.0458159111 -1.15309 -0.0338701494 64 49 29 0.215771005 
-0.0617867671 0.0505124107 -1.16955757 -0.00882374309 38 27 13 0.211710051 
-0.043717511 0.0399529412 -1.11700988 -0.0251470488 104 85 51 0.224668443 
-0.0677707046 0.0794101357 -1.1642015 -0.000223619834 84 57 44 0.213030875 
-0.0598501451 0.0613239631 -1.14169776 -0.0101996902 52 37 28 0.21858035 
-0.0323993079 0.0644743368 -1.13005626 -0.0368309021 54 44 36 0.221451178 
-0.0686936304 0.0528753363 -1.0840261 -0.000160152442 45 32 17 0.232802317 
-0.0409259871 0.059759818 -1.09285069 -0.0275536701 62 45 30 0.230626151 
-0.0504859909 0.0562617667 -1.06041694 -0.0171833914 38 26 16 0.238624394 
-0.0691202357 0.0592275485 -1.11324954 -2.86484137e-05 61 46 31 0.225595757 
-0.0637781993 0.0809655041 -1.09328437 -0.00228530494 99 76 66 0.230519205 
-0.0650180206 0.0813518539 -1.05273497 -4.90719685e-05 66 49 42 0.240518779 
-0.0351642407 0.0799555853 -1.07060969 -0.0305451173 90 67 59 0.236110836 
-0.062355075 0.0274511166 -1.03472304 -0.0022400443 91 73 42 0.244960576 
-0.0331735909 0.0328965634 -1.05327642 -0.0334400535 101 81 48 0.240385264 
-0.0666108951 0.0424496531 -1.00847542 -0.000143826357 102 82 47 0.251433283 
-0.0664437115 0.0571556613 -1.03504956 -0.000105157029 46 33 22 0.24488005 
-0.0352069661 0.0562971719 -1.03462815 -0.0313280337 46 33 22 0.244983971 
-0.0501747988 0.0953811109 -0.974924982 -0.0159564205 58 43 30 0.259706885 
-0.0544802845 0.0698067546 -1.0106225 -0.0127417874 58 41 30 0.250903815 
-0.025009932 0.0745848268 -1.01316929 -0.0416902453 62 44 35 0.250275791 
-0.034341827 0.0910663307 -1.46226895 -6.8841211e-05 68 53 33 0.13952674 
-0.0254323315 0.142994165 -1.42075205 3.88110639e-05 171 149 67 0.14976491 
-0.0555778295 0.0928923637 -1.34545791 -0.000140100135 59 45 26 0.168332621 
-0.0455019139 0.0980844945 -1.40621841 -6.87984866e-05 46 35 18 0.153348938 
-0.0285630301 0.111154817 -1.343099 -0.019315036 105 89 44 0.168914333 
-0.022394266 0.155878142 -1.39374793 -0.00250937114 154 140 64 0.156424195 
-0.0527287498 0.0897002965 -1.37727082 1.54323134e-05 83 65 42 0.160487488 
-0.0363031179 0.125662193 -1.39881718 -5.45708463e-06 126 108 55 0.155174106 
-0.0517420731 0.111809716 -1.29246175 -0.000177898444 83 75 32 0.181401595 
-0.0505193658 0.0814794302 -1.31811774 -0.010282699 117 104 54 0.175074771 
-0.0502455495 0.111302622 -1.32239497 -7.14366324e-05 104 95 42 0.174019992 
-0.0346011482 0.132736698 -1.30542862 -0.00647088001 174 159 72 0.17820394 
-0.0370130986 0.136500955 -1.35673857 -3.90729983e-05 139 122 54 0.165550783 
-0.0531380139 0.109511927 -1.26064324 -7.92787177e-05 80 67 26 0.189248115 
-0.0299435854 0.0939613357 -1.24959171 -0.0281026978 76 61 28 0.191973448 
-0.0392694175 0.0889720246 -1.27765393 -0.0203187279 106 97 48 0.185053244 
-0.0412491523 0.134765118 -1.24600983 -6.40195794e-05 187 167 76 0.192856759 
-0.0406365804 0.134270772 -1.27599776 1.49419066e-06 148 137 61 0.185461655 
-0.0544959642 0.101652496 -1.17930222 -0.00683137868 113 96 44 0.209307 
-0.0261017606 0.114540465 -1.1802007 -0.0280138813 121 104 47 0.209085435 
-0.0241505262 0.146214768 -1.19115114 -0.0133561939 164 144 65 0.206385031 
-0.0530203432 0.111798584 -1.23072922 -0.000215365668 59 46 22 0.196624979 
-0.0296591837 0.158838794 -1.21779978 -0.00025153585 157 145 62 0.199813411 
-0.0397989377 0.102691554 -1.20540571 -0.0179378949 84 70 31 0.202869818 
-0.0318742432 0.128922746 -1.21812022 -0.0127776219 155 135 58 0.19973439 
-0.0489408374 0.129175901 -1.19301093 -0.000131169101 139 121 55 0.205926403 
-0.0587906092 0.112158857 -1.13123357 -0.000169878971 108 96 39 0.221160844 
-0.0455990955 0.0905557573 -1.14733922 -0.0197068769 117 99 50 0.217189148 
-0.0455004685 0.139664531 -1.12953603 9.4894378e-05 141 126 51 0.221579462 
-0.0540184453 0.123366334 -1.15864611 -6.85586128e-05 125 105 50 0.214400858 
-0.0473108031 0.0873152688 -1.11754417 -0.0180888865 60 48 37 0.224536687 
-0.0296811145 0.11750035 -1.14212477 -0.0248267539 138 121 53 0.218475044 
-0.0593509488 0.109515399 -1.1013757 -0.000125178136 108 90 33 0.228523865 
-0.0306506753 0.102139093 -1.09672964 -0.029596325 108 90 33 0.229669601 
-0.0317203403 0.162348554 -1.09720993 -0.000976493873 131 113 42 0.229551151 
-0.06078206 0.103988394 -1.07191885 -0.000251587539 138 113 47 0.235788003 
-0.0477222428 0.137103602 -1.09972286 -0.000125818566 143 120 44 0.228931457 
-0.0409650579 0.126503512 -1.07251215 -0.0112554925 158 129 49 0.235641688 
-0.064004913 0.0942121893 -1.02566433 -0.000131785637 44 31 20 0.247194469 
-0.0385136865 0.0858101919 -1.03906596 -0.0257242937 46 32 27 0.2438896 
-0.0433690622 0.0968599766 -1.00407302 -0.0215930492 52 38 25 0.252518922 
-0.0469922759 0.142175943 -1.04764593 -6.29803399e-05 147 124 54 0.241773754 
-0.0619490407 0.117031366 -0.991994798 -7.61240954e-05 99 81 32 0.255497426 
-0.0514656529 0.122154795 -1.02171552 -0.00606237724 104 86 31 0.24816826 
-0.0348057114 0.114862464 -1.04555178 -0.0222689435 109 88 37 0.242290184 
-0.0193726663 0.171534076 -1.28855085 -0.0010949244 120 115 52 0.182366028 
-0.028977545 0.164404228 -1.13337231 5.97373582e-06 140 124 57 0.220633432 
-0.0332291573 0.163513511 -1.06727493 2.3239525e-05 145 123 47 0.236933202 
-0.0379400291 0.170145899 -0.983072758 -0.00024475134 158 136 54 0.257697642 
-0.0435702503 0.154383242 -1.02046406 -0.000101704558 130 113 39 0.248476863 
-0.0866392404 0.0657256767 -0.527492404 -0.00261176378 48 32 19 0.370044827 
-0.0552773178 -0.0147828199 -0.987257659 -1.10198744e-05 123 100 57 0.256665617 
-0.0597261712 0.0136192013 -0.924063981 0.000164017663 103 85 48 0.272249371 
-0.0345111862 0.00675072195 -0.985984623 -0.0261528958 125 102 58 0.256979585 
-0.0533926524 0.00455699582 -0.962141395 -0.00698777288 99 81 47 0.262859374 
-0.0396297686 -0.0220955685 -0.962740302 -0.0108379265 101 82 49 0.262711674 
-0.042547714 -0.0074285958 -0.936739266 -0.0116489725 111 90 52 0.269123614 
-0.0648182929 0.0291173253 -0.949247062 -0.000156206777 112 92 49 0.266039133 
-0.064334102 0.0209234972 -0.984779716 -0.00022516388 109 89 51 0.257276714 
-0.0403197035 -0.0459977798 -0.980834842 -0.000112904003 89 72 48 0.258249521 
-0.0321662538 -0.00618500868 -0.869707227 -0.0185614992 125 102 60 0.285653859 
-0.0634566247 0.0470550284 -0.899101794 -2.81082175e-05 79 62 33 0.2784051 
-0.0432902537 -0.0314281061 -0.918770492 3.72567447e-05 129 105 66 0.273554713 
-0.0404579677 0.0337203592 -0.912916541 -0.021826759 97 74 43 0.274998337 
-0.0344501734 -0.0126036461 -0.818480372 -0.01548653 92 75 43 0.298286527 
-0.0531691015 0.000100072764 -0.849198818 9.39388992e-05 113 92 52 0.290711284 
-0.0596290343 0.0222713184 -0.88262701 -0.000109207584 106 87 50 0.282467812 
-0.0607763752 0.031371437 -0.823030949 -0.00028325367 124 99 54 0.297164351 
-0.0447520502 -0.0246738307 -0.889589369 -5.4535456e-05 111 90 52 0.280750901 
-0.0377537683 -0.0415296517 -0.825693429 -8.61894805e-05 96 78 48 0.296507776 
-0.0377401821 0.0222960506 -0.862148941 -0.0210669916 128 104 58 0.287517726 
-0.0358095393 0.0172772463 -0.831895947 -0.0211878587 107 88 48 0.294978201 
-0.0603362955 0.015269137 -0.769904017 -0.000146970735 98 80 43 0.310265571 
-0.0277566947 0.011520572 -0.773687363 -0.0311264899 110 90 50 0.309332579 
-0.0570397414 0.0022617795 -0.805509746 -0.000141563316 111 91 50 0.301485091 
-0.041111812 -0.000764065247 -0.749805987 -0.0141195823 105 88 48 0.315221786 
-0.0419462137 -0.0377329476 -0.796238422 -0.000179950497 102 84 50 0.303771436 
-0.0502745882 0.0293048508 -0.794430494 -0.0129451063 97 80 43 0.304217279 
-0.0533237197 -0.01225462 -0.779517412 -0.000135362847 125 102 60 0.307894886 
-0.0583825745 0.00390470261 -0.71464777 9.94213624e-05 112 93 48 0.323891878 
-0.0468551852 -0.0204366408 -0.727966011 -0.00234894943 109 90 50 0.320607573 
-0.0331678353 -0.0084244227 -0.704160511 -0.0208810586 118 97 52 0.326478094 
-0.0451926291 -0.0295960661 -0.756456733 0.000230397214 119 99 58 0.313581705 
-0.060993772 0.0193551574 -0.740233302 -0.000107783562 101 84 47 0.317582428 
-0.0173223447 -0.0472139791 -0.711994052 -0.0172113236 99 81 53 0.324546307 
-0.0159635562 0.03646506 -0.700467646 -0.0493943207 103 86 45 0.327388763 
-0.0295814388 -0.00993142556 -0.674408674 -0.0278662164 111 92 50 0.333814949 
-0.0680903196 0.00774062099 -0.656995773 -0.000190377439 111 89 50 0.338109016 
-0.0678471029 0.024116274 -0.681957483 -0.000133878173 110 87 45 0.331953377 
-0.0510309488 -0.030906843 -0.674254656 1.8218765e-05 101 84 46 0.333852917 
-0.0575341024 -0.0342729427 -0.622004747 -2.35832995e-05 90 75 40 0.346737862 
-0.0568562895 -0.00357427308 -0.68518728 -0.00325102382 119 98 52 0.331156909 
-0.0641298145 0.0186151545 -0.629316092 -0.0100385686 116 93 50 0.344934881 
-0.060258802 -0.0197611991 -0.647999167 -8.83397879e-05 121 100 54 0.340327591 
-0.0741285756 0.0365466066 -0.651254177 -0.000129939057 115 92 50 0.339524895 
-0.0218276884 -0.035911344 -0.661410272 -0.0252020899 117 97 57 0.337020367 
-0.0415986963 0.0167431552 -0.667758942 -0.0261709746 114 91 50 0.335454792 
-0.0698611215 -0.00606842339 -0.613774538 -0.000162530225 103 85 46 0.348767459 
-0.0736588314 0.00508053554 -0.575539351 -0.0039456035 105 85 44 0.358196348 
-0.0426380411 -0.00855233148 -0.625990212 -0.0232135747 125 104 57 0.34575507 
-0.0301673766 -0.0126264794 -0.572763681 -0.039489381 97 80 41 0.358880848 
-0.0450475365 0.0101634338 -0.602668107 -0.0294516925 102 85 43 0.351506352 
-0.0631526336 -0.036567878 -0.571512341 -0.000111641217 106 84 46 0.359189421 
-0.0532311946 -0.0164568201 -0.591287673 -0.0144737568 88 72 39 0.354312778 
-0.0451690145 0.0150920292 -0.572953343 -0.03394977 109 87 47 0.358834058 
-0.0737923607 0.0208559614 -0.601066768 -0.00378972711 95 75 35 0.351901203 
-0.0248739384 -0.0147731239 -0.602637172 -0.0400515012 101 83 45 0.351513952 
-0.0138404584 0.0218993854 -0.615053594 -0.0608937591 119 95 52 0.348452032 
-0.0584863797 0.00149211637 -0.525899768 -0.0243307818 101 84 45 0.370437592 
-0.0296813585 0.00774706388 -0.520518899 -0.0540046468 101 84 45 0.371764511 
-0.0460201278 -0.0150530152 -0.547646403 -0.0280330982 103 80 41 0.365074813 
-0.0840366036 0.00910881907 -0.539251149 -0.000166080776 103 85 42 0.367145121 
-0.0513783358 -0.0272032339 -0.520679295 -0.0205085259 115 92 49 0.371724993 
-0.0437127128 0.0265108421 -0.539342642 -0.0426283628 101 82 41 0.367122531 
-0.0753476769 -0.0155721745 -0.553878188 -3.11178155e-06 127 103 55 0.363538027 
-0.0843348429 0.0292747542 -0.561360776 -0.000113682938 109 87 45 0.361692816 
-0.0206189603 -0.0323578678 -0.551809728 -0.0413421281 117 92 54 0.364048123 
-0.0431563146 0.0420162603 -0.989792705 -0.024022352 99 80 47 0.256040484 
-0.0583131425 0.053680148 -0.93014729 -0.00687016826 58 43 22 0.270749182 
-0.039712172 0.046325013 -0.960336447 -0.0273643918 104 84 49 0.263304472 
-0.0284574796 0.0522045381 -0.93316257 -0.0368130356 77 58 31 0.270005614 
-0.0674742013 0.0575044602 -0.958453298 -5.51717239e-05 55 39 26 0.263768882 
-0.0406390056 0.0794643685 -0.936284006 -0.0248609278 68 48 36 0.269235849 
-0.0300348513 0.0745255649 -0.966124296 -0.0374730155 77 57 45 0.261877179 
-0.0327454805 0.0475640893 -0.879481912 -0.0308722779 78 63 35 0.283243388 
-0.049694974 0.072607249 -0.908515036 -0.0147472834 46 30 22 0.276083767 
-0.0617796443 0.0595600717 -0.836163342 -0.000965271029 32 20 9 0.293925881 
-0.0293346662 0.0404346064 -0.813750863 -0.0334767848 122 97 53 0.299452841 
-0.0591549426 0.043277815 -0.861220181 -0.00355400913 87 71 38 0.287746787 
-0.0360635854 0.0698361173 -0.859663963 -0.0282662138 59 43 31 0.288130552 
-0.0638390854 0.0840710923 -0.811806262 -0.000113293761 60 45 34 0.29993239 
-0.0581473485 0.0693925098 -0.879956365 -0.00695578521 66 50 37 0.283126384 
-0.0454234295 0.084877573 -0.835472286 -0.0172959603 60 44 32 0.294096261 
-0.0411856249 0.0381318219 -0.766857922 -0.0223824773 108 88 48 0.311016738 
-0.0540563613 0.0560604557 -0.807398677 -0.0107925981 59 42 22 0.301019281 
-0.0590598285 0.0583690219 -0.753826201 -0.00580981467 53 39 21 0.314230412 
-0.0656178817 0.0666955039 -0.781841218 -8.16500396e-05 66 48 33 0.307321817 
-0.0265076179 0.0657016039 -0.786078393 -0.0392718837 66 48 33 0.306276917 
-0.0635000691 0.0921877697 -0.747635543 -3.07140872e-05 68 52 38 0.315757006 
-0.0437616408 0.0809322372 -0.767024755 -0.0207635611 75 52 41 0.310975581 
-0.0647292808 0.045983471 -0.727106035 -0.000137964613 104 79 45 0.320819646 
-0.0380699225 0.031741228 -0.725376427 -0.024998853 107 89 50 0.321246177 
-0.0613469072 0.0488892347 -0.697535515 -0.006564226 96 76 43 0.328111798 
-0.0511684753 0.0726282895 -0.728605747 -0.0141052213 70 52 37 0.320449799 
-0.0669622272 0.0776457265 -0.703630388 3.90658388e-05 61 44 33 0.326608777 
-0.027252702 0.0585207194 -0.717388391 -0.0383623429 73 56 32 0.323216051 
-0.0715399235 0.0666800961 -0.675699174 -0.000110486872 45 33 17 0.33349669 
-0.0513072312 0.045378875 -0.668501079 -0.0210267939 105 86 46 0.335271746 
-0.0467328392 0.0421541482 -0.635928988 -0.029851092 127 101 55 0.343304127 
-0.0353948995 0.0608224906 -0.688663244 -0.0340410583 74 57 33 0.330299735 
-0.0450423285 0.0691770837 -0.623049617 -0.0327805094 56 39 28 0.346480191 
-0.063592568 0.0641691908 -0.646880925 -0.0119239986 73 52 31 0.340603352 
-0.0337492265 0.075404726 -0.662504196 -0.0387342237 59 41 28 0.336750597 
-0.066818364 0.0480806231 -0.614329398 -0.0120451041 101 78 44 0.348630637 
-0.0625277162 0.0386069492 -0.57965678 -0.0196535867 95 76 41 0.357180953 
-0.0168883074 0.0495963059 -0.626070321 -0.0610065199 116 88 49 0.345735312 
-0.0237809699 0.0524227656 -0.551153243 -0.0624353439 94 72 43 0.364210039 
-0.0814456269 0.0591130517 -0.590588152 -4.3387292e-05 59 43 25 0.354485303 
-0.0378567651 0.0388751589 -0.6074332 -0.0410626158 111 89 46 0.350331247 
-0.0518062338 0.0649503991 -0.58937186 -0.0293906648 52 38 25 0.354785204 
-0.0698348656 0.0815809369 -0.606729209 -0.00834743772 68 51 38 0.350504845 
-0.0230072998 0.0653440952 -0.601269007 -0.0565855578 63 46 28 0.351851344 
-0.0610485598 0.0507938676 -0.508840978 -0.0308678094 109 85 46 0.374644309 
-0.0347820036 0.0511555895 -0.523368359 -0.0550441332 105 82 43 0.371061832 
-0.0688079968 0.0429294668 -0.539651334 -0.019191077 100 80 41 0.367046416 
-0.0529186539 0.0587320663 -0.55964005 -0.032217361 88 67 41 0.362117141 
-0.0777657107 0.0860647112 -0.550019145 -0.00659492053 79 60 48 0.364489704 
