ply
format ascii 1.0
comment created by gply, a Houdini tool.
comment converted from .[b]geo
comment for more information about Houdini, try:
comment www.sidefx.com
element vertex 606
property float x
property float y
property float z
property float depth
property uchar red
property uchar green
property uchar blue
property float length
element face 0
property list uchar int vertex_indices
end_header
0.0630800501 0.0281532612 0.0266338084 -2.8104987e-05 141 138 54 0.667553186 
-0.033281073 -0.00106988696 -0.00761707406 8.56583938e-06 99 81 42 0.419528842 
-0.0267054271 -0.0269208383 -0.0128867934 -2.41753878e-05 52 56 55 0.427074432 
0.0122827822 -0.0177923366 0.00681354664 -6.74428593e-05 101 83 63 0.534629941 
-0.0144390436 -0.00255464367 0.00497797597 1.13865826e-06 118 97 49 0.475298494 
-0.112138778 -0.00366234523 -0.0704767704 -2.00580107e-05 105 88 43 0.173610523 
0.0303464904 0.0265782252 0.006324891 6.45348337e-06 149 144 50 0.572604954 
0.030890936 0.00288771559 -0.000883061206 -2.43019458e-05 131 102 43 0.564880252 
-0.023250917 0.00192473619 -0.0257142819 -6.58468343e-06 146 116 55 0.418635577 
0.039504502 -0.0205803998 0.0207273215 -3.82211292e-05 46 46 43 0.609921515 
-0.0788259059 0.0193705708 -0.0480107963 1.94386812e-05 100 89 45 0.272455603 
0.111879662 -0.0101519739 0.0792451426 1.54594891e-05 147 119 66 0.836641967 
0.0188401788 0.0303998943 0.0138946204 -8.87800124e-05 42 42 42 0.557365239 
-0.160047516 -0.00670706201 -0.0928844586 -8.97113932e-06 80 80 68 0.0436658263 
-0.0481066592 0.0126435002 -0.0182585958 -9.00903251e-06 68 51 34 0.374745637 
-0.0457864888 0.0486784279 -0.0267739631 3.63872387e-05 48 53 50 0.369201124 
0.0120884124 0.0227643605 -0.00528715085 1.40897464e-06 151 139 56 0.5192945 
-0.0572239235 0.0165914427 -0.0385403298 1.90831724e-05 179 173 84 0.330266833 
0.116703957 0.00870988239 0.0861546546 -4.22872836e-06 160 150 82 0.855464399 
0.11335171 0.0176168755 0.082762666 -4.28812345e-05 79 62 29 0.844122887 
-0.1117246 0.00674784044 -0.0566886552 2.21640803e-05 57 42 30 0.191495985 
0.124819353 0.0043674726 0.0502889194 -1.84030268e-05 104 76 49 0.828573108 
0.143987194 -0.00991305709 0.0922945142 -5.81849599e-06 111 92 49 0.921302021 
0.0524001755 -0.0188658964 0.0257728547 3.7556747e-06 82 74 69 0.643683255 
0.0808017105 -0.0177108124 0.0567515567 2.82971305e-05 84 71 53 0.74253577 
-0.00221666042 0.0242515039 -0.0107058557 2.97605293e-05 155 149 65 0.482062727 
0.0419001468 0.0144085037 0.0442197509 9.10868403e-06 53 32 17 0.644004226 
-0.0409842171 0.0168935508 -0.0314345732 -1.93294836e-05 162 150 68 0.373710483 
-0.139998868 0.0143955797 -0.0822049752 6.93835318e-07 140 123 43 0.0996504351 
-0.0303962007 0.00786298793 -0.00447311066 8.07887409e-06 73 52 29 0.429566443 
-0.130940691 -0.0101707978 -0.0762938708 2.46029231e-06 129 106 59 0.126283884 
0.0902946889 -0.00173201121 0.079970032 -8.24651215e-06 111 82 49 0.791437984 
0.0733847991 -0.0082660988 0.0245820321 -7.66012818e-08 135 96 49 0.687030554 
-0.00263263518 0.0165727176 -0.0154020935 3.9439914e-05 165 140 63 0.475383818 
-0.0161344856 -0.00933079701 -0.00110539119 3.13504279e-06 106 84 53 0.464176744 
0.058068078 -0.00182737224 0.0546654314 -1.08495005e-05 147 110 52 0.691412747 
0.0689511746 0.0310237464 0.0388419665 3.23279892e-07 148 132 59 0.695144594 
0.0770632103 0.0116996756 0.0664085001 4.02894511e-06 128 107 61 0.746458828 
-0.138469666 0.0010984391 -0.0776700452 -2.59408262e-06 91 86 25 0.108507872 
0.137924328 0.00839142688 0.0969031453 -3.42114945e-05 7 5 4 0.914036453 
-0.046161145 0.0198704805 -0.0319998004 1.60084455e-05 159 151 65 0.36195749 
-0.0209729578 0.0350263119 -0.0110622188 5.62747591e-05 93 95 79 0.441566646 
0.108329788 -0.0174492802 0.0711537302 -2.07467237e-05 41 34 34 0.819083869 
0.0278260689 -0.00788494945 0.0323440097 -8.52899393e-06 137 107 48 0.59930408 
0.0393482447 -0.00373630272 0.00504414737 1.9473955e-06 107 86 46 0.590250254 
-0.0423939824 0.0340608954 -0.0261060651 8.13369406e-05 49 52 51 0.377269834 
0.0844474584 0.0243287217 0.0638311878 3.62238861e-05 118 113 44 0.759051025 
0.110612571 0.00986295659 0.0824420601 3.85334715e-08 131 99 66 0.837877691 
-0.164366975 0.00716625387 -0.0953096077 -2.58442014e-05 53 59 44 0.0314507782 
0.0537356362 -0.00922675524 0.0482236631 2.86099967e-05 143 105 54 0.674217403 
0.0731977373 0.00234394497 0.0649227798 -3.5839912e-06 137 116 69 0.736371696 
-0.0212779287 0.0276202038 -0.0147213489 -0.000130989938 144 148 86 0.436403573 
-0.024307752 0.00619057287 0.00034345148 1.13120768e-06 115 89 42 0.448508054 
-0.152127743 -0.00293720444 -0.0883318409 -1.32758287e-05 83 89 49 0.0661930293 
-0.0822615474 0.0178952813 -0.0511058755 2.33685714e-05 103 93 36 0.261302054 
0.0511131249 0.0312369615 0.0317041948 4.30777436e-06 95 81 39 0.648248017 
0.0377238765 0.0225344542 0.00720972288 1.79046765e-07 178 166 71 0.589451432 
0.0535728633 -0.0174751189 0.0396625474 -5.0312141e-05 97 75 50 0.663313806 
-0.0405350626 0.0100781573 -0.0122251259 2.1312735e-06 69 49 34 0.398355156 
-0.011508706 0.0257515926 -0.0122336168 6.0313032e-06 125 113 33 0.460334539 
-0.106129125 0.00060068164 -0.0689995065 1.6031554e-06 138 110 61 0.188266456 
-0.133606821 -0.00384768285 -0.0785978511 5.96516184e-05 71 61 17 0.117749147 
-0.0271041486 -0.00719478307 -0.0232479721 4.55712143e-05 142 109 55 0.41344744 
0.104175217 -0.00109371345 0.0381712876 6.59818761e-06 161 146 78 0.769543469 
-0.0125116389 0.00903309137 0.00790298451 -8.83941539e-06 67 50 28 0.483021289 
-0.0932182372 -0.0028426887 -0.0600800924 -8.94092955e-06 134 115 61 0.226837203 
0.044006668 0.0237307213 0.0403189734 -7.11996108e-06 152 138 59 0.643693328 
-0.129957795 -0.0102277901 -0.0755970925 -0.000130010885 103 84 48 0.129242137 
0.0148236351 0.0302255582 0.00569575652 -6.4636115e-06 20 20 24 0.53867799 
0.0213007908 0.0160468444 0.0298444759 -7.93678919e-06 30 18 5 0.582286537 
0.0615778714 0.00815616362 0.0143589955 -1.31805427e-06 80 60 30 0.649210036 
-0.0172758009 -0.0317464471 -0.00681780279 7.09374435e-05 52 56 55 0.454695851 
-0.00590378651 -0.0281441174 -0.00561862253 -1.31355264e-05 57 62 60 0.480460972 
-0.000867518131 0.0226181336 0.0117662167 -2.92793629e-05 174 157 67 0.512652338 
-0.00234874221 -0.023941664 -0.00322965742 -5.25161158e-06 51 53 52 0.490998864 
0.00589722861 0.0290245339 0.00607167184 -2.3731729e-05 92 88 37 0.520077944 
-0.0400237963 0.0452414937 -0.0238382593 -9.35624412e-05 62 71 63 0.385127902 
0.0467381626 -0.0210846588 0.0249345638 2.3534405e-05 53 53 53 0.630557597 
-0.0182910599 -0.00656223763 -0.0195514131 -2.61524692e-05 133 104 56 0.436826915 
0.0337842517 0.0120291924 0.0392575711 -1.4207908e-05 90 60 44 0.620553195 
-0.152598396 -0.0129198208 -0.0896799937 7.42117409e-05 107 99 36 0.0635255724 
-0.0346360803 -0.0185929537 -0.0221340917 8.46236944e-05 50 54 53 0.398735374 
-0.165779456 -0.00282517821 -0.0958878323 -4.31744411e-06 42 42 42 0.0277212635 
0.146940947 0.00967235863 0.0989696905 -0.00011446909 54 38 19 0.935840786 
-0.165183976 0.0159171093 -0.0958357453 -9.54898132e-05 75 78 69 0.0290572233 
0.038912423 0.00659322878 0.0435963273 -2.51232996e-06 124 96 49 0.636854768 
-0.0617859028 -0.0022192616 -0.0293301065 -1.47375977e-05 111 92 50 0.33188042 
-0.0414646864 0.013933911 -0.0140773524 -1.21715711e-05 52 39 17 0.394086003 
0.0625549406 0.0177412275 0.0172015019 -1.70001294e-05 167 144 58 0.654801607 
-0.146179691 0.0139457798 -0.0856317505 2.35610933e-05 103 100 51 0.0822251663 
0.0351914503 -0.0201418549 0.018867135 -6.40493818e-05 39 41 40 0.598416805 
0.118986286 -0.00858811941 0.0395121761 -1.73374719e-05 40 40 40 0.802827895 
-0.0272018034 0.00667698262 -0.0277912226 -5.29224053e-07 89 63 28 0.407637 
-0.15263097 -0.00655970071 -0.0888322592 2.14157626e-05 91 99 49 0.0645013005 
0.166378021 0.0133176213 0.0847931877 3.06265429e-06 71 45 4 0.959871531 
0.124066837 -0.00583394337 0.0893513784 3.24193388e-06 130 101 58 0.875130415 
0.0166062042 -0.00914276298 0.0242944695 8.13842053e-06 136 106 59 0.565417409 
-0.018565543 0.00036954938 0.00324488082 3.82243306e-05 130 103 56 0.464348853 
0.0371716209 0.00240038545 0.0422399938 -1.50343403e-05 106 81 33 0.63146472 
0.0452156588 0.0293421913 0.0335895009 4.33158129e-06 106 91 28 0.637977719 
0.0840964168 -0.000543419563 0.0708055273 1.77772017e-05 149 124 65 0.766900778 
0.158123165 0.00455445191 0.100715309 7.1199378e-05 66 38 2 0.961874306 
-0.0242055655 0.00678718975 -0.0264124088 2.08131387e-05 122 94 44 0.41573599 
0.151433975 -0.00986558106 0.0917571783 -4.90114326e-06 48 31 16 0.936543107 
-0.155743033 0.0210652184 -0.090641804 -3.11902841e-05 69 73 45 0.0556238778 
0.000466420315 -0.012426856 0.00781731587 1.86252873e-06 101 81 52 0.510632098 
-0.0461488217 0.0357545502 -0.0251235142 -9.70853725e-05 50 57 53 0.370462328 
0.0579957515 -0.00709687406 0.0521469899 2.93704215e-06 128 94 48 0.688153028 
-0.0308966842 -0.00605846755 -0.0088347625 -3.82226426e-06 127 98 54 0.423119605 
0.12349505 0.0276976991 0.0599637553 -9.5210271e-06 158 141 61 0.837674022 
-0.0237386823 -0.00412156619 -0.0237530619 -1.09146349e-05 116 92 41 0.420012087 
0.0398236923 0.0225422662 0.0386318937 4.01752768e-05 150 137 64 0.63267982 
0.0775052905 0.0285054222 0.0357571281 4.11266228e-06 147 147 65 0.709609449 
-0.0175870601 -0.039899122 -0.00665623695 1.42854406e-05 54 58 58 0.454230338 
-0.0353664942 -0.00756283477 -0.0266204719 -1.08572422e-05 87 73 43 0.391643733 
0.0506500714 0.00645546196 0.0507810265 1.35297887e-05 86 62 30 0.670781016 
-0.00317924563 -0.00627579866 0.0106434198 8.99424776e-07 115 90 47 0.506330907 
0.0734887123 0.0235178694 0.0265863966 6.28572889e-06 192 179 77 0.689723909 
0.0731621161 0.0119770663 0.0642997399 1.83586963e-07 78 57 35 0.735527396 
-0.0735897496 0.0196958221 -0.0449957922 7.4384443e-06 99 96 63 0.287355691 
0.142775476 -0.00905647315 0.0930718631 2.15112232e-05 101 79 48 0.919672728 
-0.0523080379 -0.00543601019 -0.0355043449 -2.10164289e-05 76 56 38 0.344508797 
0.0725391805 -0.0111030852 0.0262032803 -7.77267996e-06 131 93 40 0.687223673 
0.0911764577 0.0137018831 0.0310871825 4.00753925e-06 85 63 47 0.733048022 
0.127099931 -0.00648218347 0.0901572332 -4.46237391e-06 133 106 61 0.882601678 
0.00705511589 0.00196658238 0.0222919416 4.83426265e-06 110 80 43 0.542550564 
0.0295309126 0.0291177686 0.00992654823 -6.58334466e-06 144 135 57 0.575304031 
0.101961203 0.0244955923 0.0736301914 1.18010503e-05 96 87 30 0.80853641 
-0.15081048 0.00335827353 -0.087457791 -2.90959142e-05 68 67 16 0.0700839385 
-0.0517491587 -0.00757129584 -0.0335662216 -5.9409067e-06 59 61 59 0.348092079 
-0.0414484963 -0.0265200753 -0.0227144491 5.73290745e-05 38 43 46 0.383470953 
-0.0301229656 0.0109006045 -0.0046709124 1.04464125e-05 70 48 32 0.4299061 
-0.0316291936 0.0225490201 -0.0118736513 -3.79286939e-06 157 153 73 0.417808264 
0.0737270266 0.000741646509 0.0650296882 1.93875749e-05 120 100 52 0.737633884 
0.0176491179 0.00829372834 0.0288945194 -8.11519567e-06 99 76 48 0.573316634 
-0.0500759929 0.00800667983 -0.0377710387 1.81415817e-06 45 28 15 0.346480757 
-0.0796287805 -0.00597716402 -0.0491849147 -1.50775304e-05 108 86 55 0.269293249 
0.0596861057 0.0184386298 0.0541027412 1.18650278e-05 159 137 56 0.694174469 
-0.103242688 0.0183060989 -0.0591413416 6.35767356e-06 174 160 67 0.206586078 
0.120604903 0.0315247513 0.0740748048 -4.950125e-06 102 88 44 0.848900795 
-0.020271346 -0.00977705698 -0.0174822193 2.48277502e-06 94 80 52 0.435149103 
0.0451729037 -0.0100365132 0.0108072106 -2.15645996e-05 155 120 50 0.60979557 
0.00598499132 0.0204060189 -0.00958152581 7.29842577e-06 168 161 72 0.50096482 
-0.0274069868 -0.0017336061 -0.0264665987 -2.2202963e-05 132 104 55 0.408832103 
0.123728208 0.0321802869 0.0708514079 -3.14837598e-06 112 99 43 0.851596594 
0.0275081191 -0.0115698203 0.029468501 8.31554644e-06 112 91 52 0.595079601 
0.143469349 -0.0139064258 0.0835007057 6.83433609e-06 78 54 42 0.909353197 
0.0779611617 0.0087484112 0.0674300864 2.17414345e-06 152 126 72 0.749636173 
-0.00428676093 -0.0261474214 -0.00445657643 0.000182431017 52 55 54 0.485347152 
0.106113128 -0.0192157011 0.0676566288 -3.9091392e-06 56 43 37 0.810037911 
-0.0256694239 0.00508115999 -0.000711133471 1.57894101e-06 97 75 34 0.444299698 
-0.000289380609 -0.0182863288 -0.00227879593 0.000153052737 62 65 59 0.496569335 
0.152169824 0.0225277115 0.0942959562 1.30808576e-06 42 42 42 0.94124496 
0.0794141963 0.0211273562 0.0277635399 -2.03107484e-05 148 137 63 0.703830004 
0.0567481518 -0.0133203743 0.046531681 -1.83019438e-06 109 83 49 0.678564847 
-0.124498069 0.0169295203 -0.0733756348 2.77902e-05 160 147 68 0.143641219 
-0.00857468694 -0.0195775796 -0.00715351524 -4.24740465e-05 68 69 70 0.47286436 
0.00550666545 0.0155365784 -0.011408899 -1.51700806e-06 72 54 21 0.497690082 
-0.0113320081 0.0224696118 -0.0158050619 4.0364801e-05 125 122 53 0.456308246 
-0.0434915051 0.0414849818 -0.0236878078 -3.55025986e-05 49 54 53 0.377907634 
-0.14360325 -0.00744273094 -0.0837214217 -1.17636519e-05 139 120 51 0.0900829732 
-0.0505032055 -0.0116318455 -0.0312981345 7.93369254e-05 34 38 42 0.35354957 
0.0418170691 0.0287735425 0.0167045891 5.16751315e-05 194 182 79 0.609900296 
-0.101222247 -0.00840632152 -0.0602039248 4.02444857e-05 97 71 55 0.209590837 
0.0857470259 -0.0176104214 0.0598963611 1.23295467e-05 110 95 60 0.756974757 
-0.053945668 0.0163986627 -0.0372070782 3.91991052e-05 151 143 60 0.338911891 
0.018993564 -0.0153563712 0.00415959675 -2.47848511e-05 107 81 41 0.545689404 
-0.0384483151 -0.0107240323 -0.0249073338 -0.000125486345 62 67 63 0.387174398 
0.0610697567 -0.0123856347 0.0499697551 3.35404184e-06 125 92 53 0.69203341 
-0.0622181371 0.0151771074 -0.0416694656 7.60680996e-06 206 177 74 0.315742731 
0.0800209567 0.00452078041 0.0689605325 9.80834011e-06 168 137 60 0.755922198 
0.00451679854 0.00891599245 0.0202814154 2.24984251e-06 93 69 46 0.534650624 
0.164119095 0.0108354632 0.102905229 1.67296384e-05 41 25 3 0.97737962 
0.0381617583 0.00350964 0.0430209674 4.02369769e-05 116 86 41 0.634542286 
-0.0521699563 0.0197387505 -0.0344778225 5.62240602e-05 111 109 43 0.346069366 
-0.0846654475 0.0193708278 -0.0501636006 -1.55330636e-05 89 67 46 0.25733 
-0.0157682505 -0.0317151994 -0.00587173365 -2.94076744e-05 53 57 56 0.459081948 
0.139716864 -0.0137355495 0.0856356099 1.2477627e-05 112 86 54 0.903971612 
-0.0118254451 0.0274266358 -0.00962344836 -3.55370285e-05 96 90 22 0.462876469 
0.00994001422 0.0350673348 0.00655547623 -0.000245395669 18 19 21 0.529308379 
0.0486218967 0.0191500466 0.0466380082 -2.18196074e-05 171 148 64 0.66134119 
0.00681702094 -0.00691477954 0.0188188944 -8.98097642e-06 127 104 56 0.537759781 
-0.00601565791 -0.0313458554 -0.00603871467 6.29539136e-06 73 78 76 0.479704082 
-0.121648796 0.00938355457 -0.0750967413 4.93010739e-05 121 96 60 0.147604093 
0.105798207 -0.00530275283 0.0801125243 -6.44839602e-05 100 70 38 0.824723601 
-0.0155771244 0.000708863488 -0.0218063537 -1.79670751e-05 125 94 43 0.439842552 
0.121398725 0.0243740976 0.0861133337 -1.69075793e-06 126 106 42 0.865439773 
0.0414434448 -0.0032506485 0.0437901057 6.73768227e-06 121 94 40 0.642499089 
0.0586003326 0.0074163191 0.0559036732 -2.15487089e-05 94 72 44 0.69407624 
0.166878179 -0.00417877967 0.0984694287 1.2090778e-05 40 29 31 0.977802694 
0.121014558 0.00414488697 0.0888279304 0.000100867008 130 101 67 0.867966473 
-0.00678056153 0.0235939156 0.00696348771 -6.25592656e-05 136 129 53 0.494102389 
0.0752563179 0.0263551455 0.0556934439 -1.78976916e-05 168 169 75 0.729388177 
-0.0483348146 0.0254367311 -0.0261805486 -0.000167135848 82 88 69 0.364490509 
0.109901682 0.0170226693 0.0439938493 7.53009226e-06 174 158 67 0.78895241 
-0.102328263 0.016186839 -0.0623357482 -1.12776179e-05 143 137 61 0.2046002 
-0.0228566285 -0.033359386 -0.0100211995 -1.93945598e-05 57 60 59 0.438827395 
0.0306604169 -0.0146258119 0.00840709358 -6.68945722e-06 117 88 44 0.575842798 
0.00451364741 -0.0270924475 0.0037474446 3.45675508e-05 69 71 68 0.514257312 
-0.107676767 0.00167288969 -0.0699956194 7.02973921e-07 126 103 54 0.183733031 
-0.0855355933 0.00984337647 -0.0566614754 -1.34569946e-05 62 45 30 0.247459754 
0.109526031 -0.0137751391 0.0759499669 1.98301859e-06 35 30 29 0.827552438 
0.0949487165 0.0179835837 0.073830165 1.49384141e-05 74 55 9 0.793806791 
0.0273203515 0.0145793725 0.0342906974 -1.13350106e-05 83 60 34 0.600624382 
-0.0584347807 0.0179558601 -0.0384520814 2.53240578e-05 153 150 73 0.327789664 
0.130866706 0.00116811355 0.0912305415 -1.52641442e-05 95 70 34 0.891969562 
0.0403297693 -0.0133638671 0.0372574516 1.02696358e-05 92 65 39 0.632065833 
0.00044655567 -0.00460709212 0.0146719888 4.83939657e-05 133 105 56 0.519041538 
0.0328508988 -0.0132878572 0.0318997279 2.43430259e-06 137 106 66 0.609487593 
-0.0424313247 -0.00205726619 -0.0143591892 5.34020364e-06 120 99 56 0.391674101 
-0.029313378 0.0120326513 -0.0278877672 3.73816583e-05 57 36 20 0.403008401 
0.0467801914 -0.0163861364 0.017371865 3.00105603e-05 130 99 53 0.621322453 
0.0404240862 0.0165885892 0.0425258838 2.96193175e-05 40 27 7 0.638763309 
0.103898339 -0.0204682816 0.0554802269 -6.06375397e-06 149 121 72 0.79029429 
0.132749796 0.0200793147 0.0935846791 -4.62471507e-06 144 127 65 0.898893774 
0.0645616874 0.0237796512 0.0531184562 -2.33065803e-05 193 190 86 0.703373253 
0.0762821734 0.0309467185 0.0419064276 4.43324097e-06 120 104 48 0.714579463 
0.0869427845 0.0244383644 0.0652413443 -3.90574714e-05 202 196 86 0.766118944 
-0.0985249579 0.0139619904 -0.0620088056 4.7449721e-06 166 147 68 0.213125825 
0.0219732504 0.024309095 -4.19344506e-05 7.91600905e-06 149 142 62 0.546872377 
0.116326973 0.00549724232 0.0857056603 -0.000108170381 130 123 91 0.854105711 
0.152531743 0.00819241162 0.101096503 -1.44886872e-06 86 63 25 0.950403094 
0.0493956059 0.0111348098 0.049793072 3.48404283e-05 102 76 52 0.666883767 
-0.018662218 -0.0339011885 -0.00736613199 -1.5782658e-05 47 51 50 0.451058865 
-0.137130156 -0.00936539564 -0.0799564272 -1.06922234e-05 127 115 62 0.108549438 
0.140966639 0.00981264934 0.0977992192 -1.26850791e-05 18 13 7 0.921638608 
0.00722609274 -0.00386032462 -0.00943973847 1.57317845e-05 139 104 49 0.5037902 
0.0559894294 -0.0172171947 0.0231207255 1.38219912e-05 101 81 58 0.648078501 
0.0192607511 -0.0135574937 0.021709783 5.33973798e-06 136 108 70 0.567899585 
-0.115951128 0.000512592727 -0.0737145096 -1.14564136e-06 156 130 63 0.161476552 
-0.0227790661 0.0321251787 -0.0115530603 7.52566848e-07 127 131 101 0.437104225 
-0.109624319 0.0142866867 -0.0590006411 1.08630047e-05 184 166 74 0.193130702 
0.0802282467 -0.00887286477 0.0653701574 2.39781803e-05 160 136 85 0.751937926 
-0.147711962 -0.00701008458 -0.0843086615 -1.04851788e-05 86 90 51 0.0805841759 
0.0277631413 0.00930734072 0.0355384648 1.52469147e-06 124 93 54 0.603108525 
-0.0350110605 0.0126590682 -0.0300947502 8.72195233e-06 49 33 16 0.388118953 
-0.0900015533 0.0143675106 -0.0460757427 3.57493991e-06 121 106 34 0.250974417 
-0.0106346142 -0.0470211245 -0.00468114298 1.46165257e-05 63 67 67 0.471513569 
-0.144481584 0.00419605896 -0.0844783261 4.76175919e-05 88 83 19 0.0872738808 
-0.0456859618 0.0442267545 -0.0272836555 -9.81946941e-05 54 61 59 0.368787378 
-0.0482590757 0.0292462241 -0.0289004706 -2.45722476e-05 47 59 57 0.361298591 
0.158249632 0.0132235307 0.102001481 2.42718379e-05 69 44 6 0.963730276 
0.0274759308 0.0300209988 0.0201061144 -6.41570659e-06 108 100 48 0.583466887 
0.125439063 -0.00830448512 0.0883862004 2.40889494e-05 138 100 69 0.87687099 
0.062716499 -0.0199693404 0.0348258018 -8.9759269e-06 69 57 39 0.676877558 
-0.157632753 0.00102118461 -0.0913991034 5.84160443e-06 95 92 49 0.0506543554 
0.0384027027 -0.00540032377 0.0409702621 -1.37519091e-05 141 105 54 0.632528305 
0.0973407701 0.00445781089 0.0334381871 -2.75392085e-06 109 83 49 0.749111593 
0.032793574 0.0122829592 0.000826139236 -4.12524678e-05 72 56 44 0.571051002 
0.0540031157 0.0261356905 0.0439350456 1.34749425e-05 135 127 51 0.669500709 
0.0194972623 0.0134122344 0.0293651205 -4.08451888e-06 81 57 47 0.577843785 
0.0317623988 0.0255748648 0.00606023241 6.8367226e-06 132 124 49 0.575302541 
0.0276373122 0.0249516629 0.00342862704 2.80706445e-05 168 163 72 0.563248038 
0.06966234 -0.00638478994 0.0215164572 1.95566099e-05 140 106 55 0.675300837 
0.151581094 0.00509541342 0.0999848619 1.50594278e-05 88 61 27 0.947002232 
0.0211744793 0.0217707772 -0.0021041797 -3.35159712e-07 150 138 55 0.542623699 
-0.00177794509 0.00529629877 0.015889775 7.10121822e-06 99 77 38 0.515792429 
0.137798473 0.006663932 0.0965202898 -7.60415569e-05 8 5 4 0.913295627 
-0.0257830434 0.00805918686 -0.0270232931 -1.59314659e-05 53 35 20 0.411613852 
0.12532194 -0.00687184511 0.0401519462 -6.43059466e-05 113 92 66 0.817147434 
0.0886733681 -0.00323963794 0.0801693425 -8.61589797e-07 134 107 65 0.78822124 
0.120961778 0.0144687593 0.0500403792 1.92351872e-05 161 130 53 0.820028245 
0.0314098187 -0.019994311 0.0188160762 4.82599717e-06 61 64 63 0.590277612 
-0.0643960908 0.0166303609 -0.0423052199 1.04220817e-05 158 146 66 0.310307503 
-0.00513515202 -0.0345153846 -0.000694746501 1.58729963e-05 64 65 67 0.488173693 
0.0895123482 -0.00585080311 0.0799152702 4.74217813e-05 43 43 43 0.789699674 
0.0356785022 0.0191997215 0.0379551537 3.90110217e-05 174 146 68 0.622992694 
-0.0808459222 -0.00407267548 -0.0515566804 -1.22687779e-05 91 73 47 0.263769448 
0.0718500465 0.0287052859 0.0502833053 2.61366949e-05 165 158 66 0.715442836 
-0.148918405 0.00368980388 -0.0865053833 2.4079869e-05 62 58 11 0.0752990469 
0.0278816409 0.00247255177 0.035579443 7.47421291e-06 114 87 45 0.603412151 
0.163000554 0.00439902674 0.100328289 -4.22797166e-06 65 37 4 0.97181344 
0.0548974313 0.0226103012 0.0161208212 -5.64607326e-05 169 153 72 0.637115419 
-0.0150926979 -0.00239467341 -0.0204800293 1.08727254e-05 136 104 54 0.442512482 
0.155983284 -0.001748999 0.100418583 7.52863707e-05 76 47 17 0.956938446 
0.112551056 -0.00738399103 0.0806368887 2.02857191e-05 170 132 68 0.839791834 
-0.151655897 0.00567158498 -0.0869359374 -1.97757035e-05 82 85 45 0.0689218864 
0.0183921494 -0.01266577 0.000728848157 6.77999924e-06 151 117 53 0.540174782 
-0.0819450542 0.0166458599 -0.0520382263 7.83696305e-06 134 110 42 0.260828346 
0.0151664354 -0.0106053092 0.0219887961 -6.33130549e-06 116 92 55 0.559499621 
0.0345098898 0.0215829909 0.0359878987 3.51511699e-06 160 146 64 0.618071318 
0.128451705 -0.000282887224 0.0908150449 4.81711468e-05 112 93 47 0.88629961 
-0.0272364821 0.0361629389 -0.0172302201 -1.20417681e-05 75 77 67 0.420584798 
-0.0271102972 -0.00571028935 -0.0242548473 3.94959352e-06 145 111 54 0.412192822 
-0.00488843909 -0.0361647755 -0.000558305182 -6.66012056e-06 69 71 70 0.488868803 
0.0508125201 0.0136225447 0.0502579212 2.71308236e-05 77 58 42 0.670482934 
0.0640997961 0.029362319 0.0292451512 3.98827251e-05 145 140 52 0.672950804 
0.0884775668 -0.0165968668 0.0886340216 -6.04853267e-05 42 42 42 0.798240125 
0.0396617763 0.0270272568 0.0340340436 -8.20093555e-06 127 111 41 0.626664758 
0.113044396 -0.0194204655 0.0639468729 -6.14971214e-07 40 30 30 0.820266426 
-0.124737673 0.00275712088 -0.0774152875 2.56829662e-05 102 85 37 0.138148576 
-0.155405015 -0.00550725823 -0.0903091356 -8.82225577e-05 97 100 68 0.0567559078 
0.0934622809 -0.0118380645 0.0859871507 1.65368838e-05 44 44 44 0.805622041 
0.123858154 0.0264057387 0.0586453788 1.44325895e-05 171 153 61 0.836823881 
-0.155250132 0.0174328927 -0.0906134248 -2.87832809e-05 74 79 42 0.0567115173 
-0.0230845846 -0.0379001349 -0.0104883816 5.45676448e-06 43 46 46 0.437764525 
0.0332297459 0.0221162047 0.0348495804 6.64382242e-07 173 154 70 0.613933861 
-0.0850509331 0.00374534423 -0.0566504858 -3.06175207e-06 134 108 58 0.248508349 
-0.00360629847 -0.0347986147 0.000126001396 9.79087781e-06 67 68 71 0.492450774 
0.114643537 -0.00570103154 0.0386399291 1.39544718e-05 36 36 36 0.792477846 
-0.0883908868 -0.00788420532 -0.0506127477 1.00798934e-05 119 99 77 0.248820022 
-0.0321756043 0.0123096053 -0.028921308 2.34466279e-05 41 24 12 0.395621359 
0.13417466 0.0314574055 0.0804698467 -1.70611456e-05 85 74 39 0.885766089 
0.00752153248 0.0411520824 0.00441020215 0.000265206792 81 85 64 0.521498263 
-0.0148261823 0.00456595561 0.00664345315 9.69797838e-06 119 94 54 0.476525247 
0.0908311009 -0.0192560218 0.0451434664 -1.20831828e-07 132 107 72 0.749642015 
-0.0675696656 -0.00481730327 -0.03470755 7.02416291e-05 103 84 50 0.31289795 
0.03516699 -0.0202980638 0.0224174056 2.87602888e-05 56 56 55 0.602742076 
0.0887932032 -0.0122285541 0.0682757571 -5.90886339e-05 160 129 73 0.773812175 
0.00271090167 0.0286087263 -0.00214011059 5.24875941e-06 73 73 43 0.50314784 
0.150959373 0.0204134677 0.0968719646 -4.9842929e-06 122 98 36 0.941836178 
-0.0264021829 -0.00411130907 -0.0248747729 -1.73396547e-05 131 102 49 0.412940741 
-0.0110444706 -0.00407665875 -0.0179307517 -1.82734802e-05 110 82 36 0.454301327 
0.117704645 0.0193871856 0.0854543969 3.71353235e-05 100 81 30 0.856738091 
0.0665899068 0.00608366868 0.0609899499 -2.31247395e-06 132 106 63 0.717410505 
-0.0299403649 -0.0315220356 -0.0149329072 8.39673012e-05 40 46 45 0.417642891 
0.0113973729 0.042070169 0.00621484406 3.11636832e-05 20 20 29 0.53200084 
0.0572417565 0.0312992111 0.0356918089 -3.05618742e-05 107 90 35 0.666253328 
-0.0388141982 -0.00941242278 -0.0261033699 6.37036283e-06 78 74 63 0.384918272 
0.0308844745 0.00668914849 0.0379832573 -6.16267789e-06 101 74 34 0.612789035 
0.0394092761 0.023695454 0.0374190137 1.94370514e-05 134 128 53 0.630299211 
0.0792885348 -0.0159937646 0.0339955688 9.76992305e-06 155 116 65 0.711245775 
0.109415054 0.0300397333 0.0556951016 1.99444476e-05 106 85 39 0.802340984 
0.0715905577 0.0113652144 0.0635351986 -1.04070641e-05 91 68 47 0.731228411 
0.0815718397 -0.0164662059 0.035764847 -4.21805307e-05 121 94 55 0.718303621 
-0.119463675 0.00300382683 -0.0754168257 -3.70215857e-05 136 116 58 0.151876047 
0.0238680672 0.0301263202 0.0181813911 -2.66269508e-05 46 41 8 0.573388636 
0.0702756494 -0.0206071977 0.0425725579 1.83970842e-05 45 44 41 0.702573001 
0.0793831646 0.0201593228 0.0646315143 1.32236164e-05 172 166 79 0.749222398 
0.110048093 -0.018726429 0.0551508702 -1.17874006e-05 105 76 53 0.803021789 
-0.132418826 0.000549054239 -0.0729377493 3.69315967e-06 98 86 36 0.12726526 
0.142585665 -0.00386326271 0.0958201811 1.1874974e-05 97 70 50 0.922656059 
0.161435679 -0.00148752984 0.101652645 -3.34136566e-05 26 24 29 0.970104396 
0.125003248 0.00249247253 0.0474061109 -5.22918999e-05 119 87 49 0.82541126 
-0.139148042 -0.00405113725 -0.0812234208 -5.44764334e-05 101 93 34 0.10267774 
0.0341859609 0.0260372292 0.0317431241 1.24243088e-05 170 149 64 0.612145662 
-0.125998586 -0.00520643033 -0.0758199096 2.33482569e-06 120 102 45 0.137422845 
0.113647543 -0.0140699567 0.0765013918 -2.55514169e-06 73 58 48 0.837034404 
0.00415012334 0.00287311058 -0.0128657259 8.21438152e-06 149 116 51 0.492996752 
0.105118699 0.0100068953 0.0812208205 6.36224868e-05 151 136 79 0.824638963 
0.0164220016 0.00375597249 -0.00757859927 -1.94985187e-05 137 106 52 0.525724113 
0.0940862373 0.011624217 0.0749508515 -1.18077151e-06 104 79 29 0.793346703 
0.0747826099 0.0283091441 0.0338755064 -3.29844188e-05 147 140 56 0.701474726 
-0.093090333 0.0124067636 -0.0598900653 7.9307938e-06 156 130 65 0.227344647 
-0.0671298429 -0.0025566367 -0.033215981 5.25257783e-05 110 92 51 0.315676332 
0.122446641 -0.0185160376 0.031266477 0.000102022663 114 97 55 0.800050914 
-0.160961628 0.022013871 -0.0926230326 7.8546509e-05 34 39 37 0.0420359522 
0.0876844972 -0.00565298973 0.0712360069 -1.55033194e-05 192 162 84 0.77509445 
-0.135428697 -0.00325236446 -0.0796001256 -6.30441355e-05 118 104 29 0.112622462 
0.0514436178 -0.00152161333 0.0502100773 1.56182796e-06 105 76 35 0.671771765 
0.00482371263 -0.00371639314 0.0188559983 1.15958828e-05 137 108 59 0.533548534 
0.00537232403 -0.0208125617 0.00468114251 0.000182328222 71 72 71 0.517242372 
0.118381202 0.0165280215 0.0864792392 -0.000146801583 137 111 52 0.859446585 
0.0506308489 0.0266000852 0.0176426489 -1.22201163e-05 128 121 36 0.629880011 
-0.0117498795 0.0094910441 -0.0208875146 -7.42007978e-06 70 45 30 0.449149102 
0.108786859 0.00497568212 0.0823618174 3.6857673e-06 99 71 49 0.833879709 
0.163851365 0.00775204133 0.102296919 -5.58872125e-06 63 39 3 0.976057768 
-0.00149359647 0.0197840463 0.0130114118 6.12461008e-07 140 121 51 0.512850642 
-0.134789154 0.00585155701 -0.0800714567 -1.52917346e-06 106 94 35 0.113407135 
0.0813733712 0.0163242985 0.0262366887 -1.44058249e-05 156 124 56 0.706131458 
-0.0422058739 -0.0251618437 -0.0228071418 -7.82955904e-05 42 50 50 0.381739169 
-0.124286629 0.00111378601 -0.0771515071 1.15162693e-05 90 79 33 0.139437079 
0.101137005 -0.000250323326 0.0858050138 -2.13389867e-05 118 82 47 0.821787834 
0.0217944123 0.0144595131 0.0306748431 8.33242666e-08 42 27 19 0.584364593 
-0.041303739 -0.000160910102 -0.0334243067 -1.66717291e-05 124 98 50 0.370574713 
-0.153715774 0.000776499568 -0.0883158892 9.90228727e-07 65 70 46 0.0628212169 
0.0285102315 0.0270089786 0.00595123693 9.35269054e-06 164 161 61 0.568222642 
0.0199137591 0.0102160079 0.0301706288 -5.99503983e-06 115 87 59 0.579726517 
-0.105634809 0.00472715544 -0.0527511686 1.1612894e-05 50 37 17 0.209356546 
-0.0377548747 0.0195121318 -0.0141055593 4.29149077e-06 132 125 60 0.401974052 
0.112039715 -0.0196939092 0.0623685904 2.56769563e-05 46 34 30 0.816174746 
-0.144236133 0.0155116217 -0.0848113447 3.58409015e-05 106 98 41 0.0873874426 
0.0821674392 0.00862444285 0.0253432877 7.82078132e-06 125 91 49 0.706725717 
-0.0801547989 -0.00491794432 -0.0504136197 5.20105241e-05 103 78 51 0.266654849 
-0.0204439927 -0.0107509978 -0.00624877168 1.13846618e-05 64 56 43 0.448631346 
-0.0356760733 0.0172487386 -0.0110600535 2.22213566e-06 137 118 54 0.410168767 
-0.134046927 0.0153014874 -0.0786103085 3.72075301e-05 133 114 41 0.116793908 
0.0602266714 0.0300550815 0.041037593 9.11722891e-05 134 117 43 0.679219425 
0.0514836535 -0.0182572939 0.03685195 -3.32875061e-06 194 186 80 0.655386567 
0.141336143 -0.0110337473 0.0905578136 2.83410191e-06 120 106 56 0.913498998 
-0.00748556247 0.0271670744 0.00137805543 1.23190694e-06 96 88 39 0.485709846 
0.0471111983 0.0169222578 0.00902095437 1.47745013e-05 56 39 12 0.611732662 
0.123141736 -0.000680957746 0.048172392 1.8850551e-05 44 44 44 0.822380543 
-0.0453642495 -2.88703523e-05 -0.0351603702 1.19908946e-05 133 104 60 0.359762341 
0.104779437 -0.0191516336 0.0675499439 2.2204069e-05 201 195 86 0.807058036 
0.00169813423 -0.0221482906 0.00288398843 -7.63514545e-05 69 71 68 0.507179737 
0.101924554 0.03070659 0.0651462451 7.15840724e-06 129 121 52 0.797997355 
-0.00386116863 -0.0302578937 5.64530274e-05 3.07505252e-06 74 76 73 0.491820693 
0.090674676 0.0297629051 0.0465882868 7.79795664e-06 146 132 56 0.751089454 
0.0922670364 -0.0208749697 0.0541963391 -1.79829294e-06 108 86 49 0.763870955 
0.0766766965 0.0279940721 0.0343118757 -1.31471315e-05 145 143 53 0.706057847 
0.115048803 -0.0149848703 0.0756382421 -2.14271931e-05 76 57 44 0.838962674 
-0.0460194238 -0.00457056472 -0.0334737524 2.1098298e-05 94 68 45 0.360442728 
0.124291949 0.0260433089 0.0864578113 1.60876662e-05 105 88 33 0.872043371 
-0.151160002 -0.0125651769 -0.0888676718 4.92645195e-05 103 96 32 0.0675991029 
0.106491163 0.0309370141 0.065316163 7.05478305e-06 168 162 69 0.807959437 
-0.0284885634 0.0413152277 -0.0153763983 1.07371015e-05 113 117 92 0.420196593 
0.0427572429 -0.00255529513 0.0448365621 -7.33705383e-06 131 97 44 0.64659518 
-0.0439719968 0.0119253546 -0.0152333602 8.62637535e-07 52 36 27 0.387305915 
0.0691932663 -0.0205084216 0.0383194126 1.12941343e-05 71 59 38 0.695017278 
0.0160829723 0.0303831659 0.0125060352 -3.214553e-05 100 96 36 0.549764693 
0.0177189466 -0.0106089562 -0.00145867304 -2.32403399e-05 114 88 45 0.536039829 
-0.0526913293 0.010542782 -0.0211460739 2.66887946e-05 79 61 45 0.361394137 
0.0954239294 0.0289914813 0.0471521318 -2.12696614e-06 104 83 39 0.761927307 
-0.166770056 0.0146810506 -0.0967629924 -2.00680224e-05 78 80 70 0.0245266296 
-0.163053244 -0.0198661592 -0.0951651484 0.000156918191 51 56 26 0.0344345458 
0.0599943995 0.0198674034 0.0535108112 9.39868187e-06 156 135 60 0.694102943 
-0.00298083946 0.00928783789 0.0147505039 4.29293141e-06 58 43 27 0.511818707 
0.0922687352 -0.0207486581 0.0560029224 5.36353909e-05 37 37 37 0.766102076 
0.102126271 -0.0146977277 0.0727790147 3.73764196e-05 71 56 43 0.807839453 
0.0858988911 0.0305304788 0.0481499396 -4.32630895e-06 106 84 40 0.742815614 
0.0675691813 -0.000293879362 0.0183648448 7.58853275e-06 122 91 40 0.666944623 
0.120222874 0.0287392754 0.0596787371 2.00412469e-05 131 113 43 0.830334425 
-0.0746374428 0.0189978741 -0.0462331288 7.83673022e-06 121 114 69 0.283592552 
0.157440379 0.00970784295 0.102486514 1.97916524e-05 82 54 12 0.962600052 
0.152462319 -0.00248984806 0.0993007198 -1.55703165e-05 86 59 33 0.948040664 
0.123136781 -0.0157972798 0.0721037611 -2.71509634e-07 37 34 35 0.85187763 
0.0861421525 0.0102524608 0.0716571808 1.90810024e-05 128 101 42 0.772319853 
-0.0557478182 0.0104334988 -0.0234326106 -1.50839332e-05 63 47 32 0.352047265 
0.0875694752 -0.0203941595 0.0548171997 1.30972476e-05 42 42 42 0.75460422 
-0.0139540676 -0.0317467377 -0.0111355586 -1.31725101e-05 58 61 61 0.456466019 
0.0260052998 0.018829206 0.031869214 -1.04708097e-05 143 117 54 0.594830215 
0.0123222815 -0.00860884413 0.0219714511 -1.41443452e-05 98 79 42 0.553404152 
0.0697213262 -0.0188549589 0.0335733332 2.13262392e-05 90 68 38 0.690293074 
-0.148499414 0.00763305509 -0.0865525454 1.46173406e-05 74 75 31 0.0761357173 
-0.00340215559 -0.0107366983 0.00674470142 1.87203841e-06 114 85 50 0.501047671 
0.0056148814 -0.00328922691 -0.0104945544 1.46817183e-05 146 111 49 0.499048591 
0.13160859 0.00240903697 0.092272304 -3.36156227e-05 110 88 38 0.894838512 
0.0792192295 -0.00405373238 0.0252330471 1.23298087e-05 125 91 42 0.700293481 
-0.0308568701 -0.0176559575 -0.0198670477 0.000153309433 45 49 49 0.409601718 
-0.123314179 0.0134597076 -0.0739502087 1.21071062e-05 150 127 53 0.145461112 
0.112271704 -0.00432871422 0.081524834 1.62248034e-06 122 84 49 0.84029007 
0.0924580395 0.0283519402 0.0639097691 1.77830225e-05 116 110 43 0.776255667 
-0.0470682047 -0.00725364266 -0.031834539 -5.2964082e-05 63 55 48 0.360224128 
0.0399763323 -0.0173071641 0.0311041735 1.21897901e-05 183 175 74 0.623723984 
-0.00788034778 0.00361642218 0.0110627338 2.28940044e-05 99 78 38 0.496808052 
0.0650086105 0.0160036962 0.0586754121 -8.12098733e-06 91 72 39 0.711179554 
0.0860885382 0.0285478048 0.0587350763 -1.40987104e-05 133 124 53 0.756272256 
-0.058523424 -0.00783373509 -0.0362611227 3.49796028e-05 65 67 65 0.330301851 
0.0987352878 -0.00704980968 0.0853365958 -3.44763976e-05 44 44 44 0.816081166 
0.102142192 0.0293923225 0.0503207929 1.95725006e-05 107 86 39 0.780182123 
-0.100448154 -0.00596847571 -0.0625994429 -9.51113179e-08 100 85 59 0.208290324 
-0.0247501805 0.0345734879 -0.0157637596 -5.84593799e-05 82 83 75 0.427702814 
-0.163365886 -0.0106021492 -0.0938323289 1.07221422e-05 44 44 42 0.0354102403 
0.12310046 0.0220408123 0.0886200964 1.51068671e-05 123 98 51 0.872164965 
0.0642593205 0.0200204644 0.0191724394 -1.44811347e-05 136 118 49 0.660871744 
0.0963216275 0.00104837038 0.0822757781 -1.4301273e-05 135 103 59 0.80715239 
-0.0845932961 0.0166958217 -0.0531997234 1.45427184e-05 195 173 70 0.253740549 
0.0607913174 -0.0109462207 0.0511497483 1.87006663e-06 120 91 52 0.692893684 
-0.00937302224 0.00574948592 -0.0198440924 1.23507052e-05 145 109 50 0.455511749 
-0.0214139391 -0.0249350239 -0.015046943 4.37868293e-05 51 55 55 0.435711652 
-0.0545604341 -0.00936941337 -0.0338567309 1.77125912e-06 41 45 46 0.341729999 
0.058185488 0.0228951294 0.049995441 1.94166787e-05 151 142 62 0.685905337 
0.112104245 0.0111908186 0.0442132093 -3.07228183e-05 121 95 37 0.793926775 
0.151007354 0.00180453609 0.0994751081 -2.40006484e-05 95 65 35 0.945148289 
-0.0618045218 -0.011376149 -0.0367171727 2.39649089e-05 49 47 37 0.32273227 
0.109573483 0.0310769361 0.0605278425 9.66047082e-07 121 102 45 0.808638096 
0.0904582292 0.0057402621 0.0297229756 2.61166133e-06 159 128 64 0.729832053 
0.127845451 0.023830872 0.0899489224 1.29960245e-05 89 70 22 0.883937001 
-0.121804886 0.00894348323 -0.0641572922 -6.96732604e-06 83 65 42 0.160759196 
0.0592435002 0.00512690796 0.0130137224 5.74641163e-05 121 90 48 0.642565966 
-0.137350872 0.0209845975 -0.0791912824 -8.66176561e-06 118 111 59 0.1090215 
0.0367998369 -0.0309565179 0.0221969038 2.40646768e-05 35 42 41 0.605957389 
-0.0440920852 -0.0192225445 -0.0271404851 5.29922545e-06 49 52 54 0.372367829 
0.0902271718 0.00622851355 0.0738262534 -3.14638019e-05 134 104 51 0.783718467 
-0.105386712 -0.00919762347 -0.060096141 -1.21182238e-05 71 67 35 0.200829938 
0.0105274664 0.0196980778 0.0219028145 2.80313834e-05 151 130 56 0.549486458 
-0.0484057888 -0.0137923509 -0.0297601931 1.9241008e-05 40 41 41 0.35992521 
0.055697877 0.0137435747 0.0122679966 1.22468919e-07 65 47 39 0.634074271 
0.0607649013 0.00956043508 0.0572387017 -1.51996501e-05 107 84 48 0.700345039 
0.125767156 0.00486315973 0.0533275753 -1.06281368e-05 100 75 56 0.83434391 
0.093073085 -0.0152338017 0.0680819452 -1.28542306e-05 124 101 70 0.782713532 
0.0908004269 -0.0178305153 0.0426293686 -3.62355495e-05 182 155 101 0.746476591 
-0.170477226 -0.0136083392 -0.0983641148 0.000132168978 73 76 66 0.0146352351 
-0.147261128 -0.00586242275 -0.0857413635 -1.95344328e-05 70 73 35 0.079780452 
-0.0453152061 -0.0225231927 -0.0244019739 1.91616127e-05 38 44 45 0.373132318 
0.0494207181 0.0130820395 0.0495141782 4.11100918e-05 105 76 57 0.666593552 
0.00786413066 -0.00144680624 0.0223113392 1.11589907e-06 117 93 47 0.544302225 
0.0886417255 -0.013568759 0.0670289323 -1.74234156e-05 127 104 60 0.771951318 
0.043006897 0.00459469901 0.0462365225 1.29723048e-05 117 85 36 0.648854554 
0.0893073082 -0.00526717724 0.0826997235 -7.02815596e-05 105 80 51 0.792695045 
-0.0276977792 0.0128549905 -0.026971003 -3.2944954e-05 59 40 27 0.407589138 
-0.150664806 0.000915852899 -0.0873351693 -8.9039444e-05 75 75 30 0.0705462396 
-0.00661672046 -0.0340608619 -0.00117336912 0.000126188388 52 53 52 0.484419435 
-0.0362007357 0.0209215339 -0.0268815812 1.36371236e-05 155 141 47 0.389540136 
0.0998719633 0.0257702004 0.071513705 5.95499296e-06 125 117 47 0.801464856 
-0.0410596505 -0.0236940738 -0.0252890643 6.50424045e-06 47 52 55 0.381126851 
-0.114924476 -0.000697371841 -0.0729967952 1.35006849e-06 148 120 63 0.164554074 
0.141938075 0.0146763818 0.0973803997 1.19980541e-05 134 105 66 0.923196852 
0.137869433 -0.0144276116 0.0735486448 -3.35858203e-06 40 30 30 0.885122836 
-0.0329659991 0.00654309336 -0.00616938155 2.29799189e-05 124 95 49 0.421986759 
0.0960711464 -0.0121808425 0.0725663155 -1.02304039e-05 88 70 48 0.794645548 
-0.0379106328 -0.0122520132 -0.0243691951 5.08611556e-05 48 54 56 0.38898623 
-0.0137848388 -0.046868749 -0.00614375062 -1.2742501e-05 49 52 53 0.462982416 
-0.0911671966 0.00588744879 -0.0605231971 -1.21292542e-05 76 57 29 0.230671138 
-0.110283919 0.00768411253 -0.0708964467 -5.05696516e-06 74 64 48 0.17705439 
0.153480619 0.0096209133 0.101608679 -9.21307947e-06 81 59 21 0.953061044 
0.118018679 0.00127046183 0.0873074308 4.45425976e-05 134 98 72 0.859693527 
0.0158656053 0.03464026 0.00818988401 -2.40635127e-05 55 58 56 0.543978572 
0.125569448 -0.00955419149 0.0872003213 5.18804882e-07 116 84 61 0.875687182 
0.160491094 -0.001198048 0.080400005 -1.09021785e-05 98 68 42 0.941882372 
0.0196017176 -0.0134568512 0.0019632706 -3.35914374e-05 153 117 55 0.544280052 
-0.0068039028 0.00210895948 0.0115909064 -2.00899085e-05 111 93 45 0.499758184 
0.0307631418 0.0100281183 -0.000718890456 3.62073479e-06 83 62 35 0.56480974 
-0.104067475 0.00492660841 -0.0680539384 -5.67815732e-06 123 101 54 0.193835303 
-0.143450573 -0.00227068528 -0.0819095522 -4.7218753e-05 78 71 16 0.0926430896 
0.0158438291 0.0275864117 0.00109253428 5.74434089e-05 143 144 55 0.535180986 
0.154955015 0.00426131114 0.100516573 -9.78913158e-06 52 33 11 0.95486331 
0.147006959 0.0275243688 0.08477965 3.35364166e-06 144 134 73 0.918485224 
0.136244416 0.0315841846 0.0775613561 1.42276403e-05 121 105 43 0.886600077 
-0.0572803877 0.00552981347 -0.0408398546 -2.00516079e-05 100 78 38 0.32731092 
0.115206853 0.0304473322 0.0727584362 8.21694266e-06 149 140 71 0.835749447 
0.0865439624 -0.0185411628 0.0414272696 -2.65554991e-05 155 132 100 0.735904157 
0.0782970935 -0.0207810532 0.0462519638 -1.69599589e-05 65 55 39 0.72424072 
0.017560374 0.0291350298 0.0164753664 4.87387297e-06 108 104 47 0.557814062 
0.105358131 0.0223570149 0.0774044096 1.24311191e-06 178 151 67 0.820444643 
0.0324135721 0.0143023524 0.0377750918 2.12161103e-06 57 37 25 0.615797997 
-0.0427570753 0.0232853368 -0.0279061198 -1.83871198e-05 156 152 83 0.374274909 
0.0784796029 -0.0192204304 0.0382241495 6.7265355e-06 109 81 49 0.714732111 
0.163277358 0.0160350353 0.0824594572 6.60587102e-06 80 56 12 0.950372159 
-0.0337801687 0.0411227867 -0.0204136744 -7.73416832e-06 80 82 78 0.402684629 
0.0449612029 0.0202874746 0.0435505994 -8.13111546e-06 171 152 70 0.649716437 
0.115065679 0.0124289123 0.0465228632 -3.39916442e-05 110 85 28 0.803099155 
-0.0528169312 0.010211519 -0.0386566296 3.06952279e-06 51 30 20 0.339535177 
-0.0810984373 0.00795888901 -0.0545990318 -5.42076305e-06 57 41 22 0.259478927 
-0.149969369 0.00765078096 -0.0872928873 0.000129237742 78 85 35 0.0720835701 
0.101532593 0.0312053598 0.0551971346 1.38502801e-05 96 80 33 0.784892857 
0.170446813 0.00319236214 0.103566371 1.97743866e-05 26 22 27 0.991708577 
0.0193618704 -0.017119946 0.00848955102 2.13181193e-05 84 70 46 0.551814854 
-0.0118980668 -0.018728165 -0.00424251799 2.0837826e-05 70 75 70 0.46935612 
0.0532134548 0.026800938 0.019283453 -3.49392649e-05 97 92 26 0.637418628 
-0.0264840946 -0.0318246819 -0.0127193099 7.06985011e-05 34 40 38 0.427753627 
-0.0189652313 -0.0355602689 -0.00737953745 4.57517453e-05 55 57 58 0.450395226 
0.13421075 0.0103708562 0.0585129932 1.30994886e-06 195 193 163 0.858770072 
-0.0369371697 0.0219584908 -0.015529925 -2.99647218e-06 119 113 53 0.401964128 
-0.11440523 0.0186978932 -0.0673165992 -8.87562055e-06 127 123 60 0.172666728 
-0.137318909 0.0086841369 -0.0810369998 -3.06294532e-06 111 112 42 0.106813967 
0.169286504 0.0103348047 0.102749281 1.19582983e-05 38 21 1 0.988223076 
0.0363593958 0.0133074624 0.0407822207 -1.92335574e-06 72 50 36 0.627932668 
-0.0560639687 0.00666160509 -0.0230483506 -5.77952014e-05 63 46 28 0.35184589 
0.101184756 0.0137184933 0.0374705233 1.14769209e-05 83 61 35 0.762292862 
0.0743875727 -0.00903091021 0.0255713034 3.37355305e-05 120 88 46 0.690391839 
0.0960846916 -0.00826444197 0.0890138 3.68576148e-05 143 119 71 0.8149544 
0.117328659 0.0292531215 0.0592383444 1.27695967e-06 163 146 59 0.823610365 
-0.0404233858 -0.0150496503 -0.0254743639 2.02748924e-05 38 44 47 0.382257193 
0.0496320873 -0.0146078262 0.0416709296 5.97262988e-06 95 71 43 0.657374084 
-0.0530055948 0.00712922914 -0.0391412601 -3.1364616e-06 51 33 17 0.338534713 
-0.0760423467 0.0083102528 -0.0512409583 -3.55677912e-06 56 37 19 0.27441746 
-0.136200398 0.00610378245 -0.0807088837 -4.03100858e-05 107 95 31 0.109607302 
-0.0599801205 0.0033607285 -0.0259692259 -1.94046879e-06 120 95 52 0.339880884 
-0.0244636238 0.00326510402 -0.0264779162 1.03844795e-05 163 126 62 0.415104091 
-0.0579206236 0.0150880842 -0.039412979 7.23754056e-06 170 144 60 0.32770294 
0.0339361317 0.0237329509 0.0339586101 -1.16194133e-05 161 149 67 0.614343822 
0.0500642955 0.0181460828 0.0112421149 -1.03358179e-05 178 150 65 0.620778084 
0.10956046 0.0170419738 0.0815004036 -6.59271609e-06 138 124 71 0.834469736 
-0.0445653163 -0.0167237129 -0.0235957932 3.94273084e-05 51 54 53 0.375727832 
-0.109345287 0.0112676211 -0.0689952895 -3.9716193e-05 54 42 19 0.1814031 
0.07110589 0.00578820286 0.0636863261 2.95262435e-05 98 78 47 0.730379701 
-0.107188985 -0.0084936237 -0.064390704 1.52473804e-05 92 76 59 0.191685677 
0.0520436652 0.0102541856 0.051329907 1.56357419e-05 105 81 53 0.674434006 
-0.157250524 0.0189360362 -0.0914398879 -1.59258489e-05 83 87 54 0.0514203608 
0.114349596 -0.0116176708 0.0786159486 -1.70781277e-06 151 108 72 0.841141045 
-0.0779699087 0.0200438537 -0.046470236 2.64558039e-05 102 76 53 0.276183248 
-0.0244438164 0.018205734 -0.0236335844 2.66807619e-05 184 175 82 0.418653488 
0.128064707 0.0196970273 0.0914142281 1.88569538e-06 37 25 4 0.886211991 
0.00780336326 0.0292915609 0.00399449561 3.92748771e-05 94 91 39 0.52158761 
0.0769935325 0.022401711 0.0615071431 -1.49942643e-05 183 179 79 0.740266562 
0.0512270182 0.0244334564 0.0441900417 -2.14367174e-06 157 144 56 0.663886428 
-0.071455583 0.00333772972 -0.0483133532 2.66556162e-06 131 105 55 0.287822872 
-0.113668643 0.011997777 -0.0708533898 1.21452613e-05 147 124 56 0.169878915 
0.0973488092 0.00602200208 0.0782270208 6.18747436e-06 155 128 69 0.804353893 
0.0613474958 -0.0150884362 0.0472963266 4.09145141e-05 102 78 48 0.68933022 
0.0581502169 -0.0115275122 0.0490053333 -4.0513929e-05 116 89 49 0.684609175 
0.0318963788 0.0198452733 0.0025445607 -1.00166071e-05 170 149 64 0.571253777 
-0.0420721099 -0.0181190278 -0.0221746564 -5.0373721e-05 53 61 58 0.382804692 
0.0626568347 0.0297088604 0.0431161076 3.40406914e-05 121 102 33 0.68697226 
0.0977001563 0.0242742784 0.0413946621 3.57918907e-07 178 175 83 0.75968951 
0.0822113678 -0.0187402852 0.0559129454 1.43179714e-05 43 40 38 0.74451226 
0.117313951 -0.00857479498 0.0383331589 4.69233346e-05 31 31 31 0.797802627 
-0.109183297 -0.00118994317 -0.0700528473 -1.02336053e-05 105 83 45 0.180445075 
0.0357080773 0.0208941828 0.0371225886 -1.45122176e-05 158 137 62 0.622029245 
0.036001049 0.00992250256 0.0412470661 1.95007306e-05 74 50 32 0.627740502 
0.106323279 -0.0206309613 0.0594841912 -5.38521272e-06 99 76 55 0.800410032 
-0.147776842 0.0208577532 -0.0843871012 -1.42797362e-05 42 43 43 0.0803489089 
-0.0715672746 -0.00736135757 -0.0432793647 2.02793672e-05 78 63 46 0.293791324 
0.15733777 0.00424633315 0.0784600303 -0.000135302107 84 54 23 0.932756007 
-0.0466511101 -0.011093772 -0.0291627441 4.9919443e-05 56 67 67 0.364409238 
-0.0836388692 0.0126938364 -0.0549971946 9.34232958e-06 82 68 28 0.25356254 
0.0268927906 0.0299565997 0.0107702147 -2.34956897e-05 112 113 63 0.570710242 
-0.00772543624 -0.0153612336 -0.00166472397 -3.65712913e-06 81 84 75 0.481445789 
-0.140268162 0.000718479685 -0.0823667049 -7.90855847e-06 94 83 29 0.09887591 
-0.0486960225 0.0110722817 -0.0182122085 3.90585046e-06 76 58 43 0.373544157 
-0.00344399456 0.0112534659 -0.0168062914 1.93223823e-05 76 50 38 0.471919686 
-0.0431826487 -0.00277773687 -0.0332540013 -5.21645416e-06 109 86 51 0.366771996 
0.0663784891 0.0234655906 0.05465037 -2.7934002e-06 159 156 68 0.709142208 
0.106672481 -0.0141382609 0.0462455787 1.6261125e-05 121 101 55 0.784832418 
-0.159354612 0.0159072615 -0.0912084281 -2.06165714e-06 71 72 61 0.0472121686 
0.0154061876 0.0324936435 0.00732120965 -7.62953423e-05 48 51 49 0.541926384 
0.0608069748 0.0295153577 0.0427087769 9.48223169e-06 118 102 36 0.682519317 
-0.0290744975 0.0202308577 -0.0242380165 4.98723239e-07 138 129 48 0.408018768 
0.136305749 -0.00751578808 0.0925930813 1.74589222e-05 100 69 48 0.905265391 
0.122419469 0.03030058 0.0638816431 -1.69646228e-07 145 125 57 0.840207756 
-0.0200783014 -0.0162823778 -0.0138172368 -9.12827236e-05 56 59 58 0.440080315 
-0.0137545997 -0.00147528539 -0.0202885028 1.72851142e-05 152 115 57 0.445606351 
0.0977962241 -0.0118636889 0.0396073051 1.00163743e-05 135 102 71 0.757690847 
-0.0402576439 0.0400713906 -0.0247224923 -1.52946159e-05 53 59 55 0.383538216 
