ply
format ascii 1.0
comment created by gply, a Houdini tool.
comment converted from .[b]geo
comment for more information about Houdini, try:
comment www.sidefx.com
element vertex 608
property float x
property float y
property float z
property float depth
property uchar red
property uchar green
property uchar blue
property float length
element face 0
property list uchar int vertex_indices
end_header
0.301257759 -0.0750071332 -0.00663066283 -0.00805426948 164 164 164 0.50705725 
0.297532439 -0.065179415 -0.0306299217 -0.0182134882 154 154 154 0.532601476 
0.288564801 -0.0651340634 -0.0286713354 -0.00689862156 154 154 154 0.530516803 
0.302288473 -0.0652890652 -0.0227907356 -0.0196406748 255 255 121 0.5242576 
0.301891029 -0.0752759427 -0.0251867305 -0.00200609583 189 193 189 0.526807845 
0.313708276 -0.0656901449 -0.0342715494 -0.00264510093 184 184 184 0.536477506 
0.294253439 -0.0635121763 -0.0400202796 -0.0178719535 255 255 121 0.54259634 
0.29660061 -0.0729828551 -0.0353732519 -0.0120885624 84 223 83 0.537650108 
0.297046155 -0.060981892 0.0402067341 -0.000591791235 255 255 123 0.4572047 
0.307270586 -0.058180362 0.0360857807 -0.000608233444 255 255 108 0.461590946 
0.299504906 -0.0605550706 0.0278854482 -0.00072956644 255 255 103 0.470319152 
0.291187853 -0.0590216741 -0.000859456835 -0.000998943811 255 255 113 0.500914514 
0.300069183 -0.0477410555 -0.0122963395 -0.000223246519 255 255 245 0.51308769 
0.303955644 -0.0565494597 -0.0125475209 -0.0192317963 112 109 251 0.513355017 
0.295733035 -0.0614111312 -0.0177104454 -0.00324584101 174 178 173 0.518850267 
0.300641447 -0.0567261353 -0.00399108278 -0.00656058546 255 255 110 0.504247725 
0.303263098 -0.0496620573 -0.0373121537 -0.00278630666 174 174 174 0.53971386 
0.294398874 -0.0520407632 -0.0371143483 -0.00937329326 255 255 109 0.539503336 
0.305053353 -0.0481680743 -0.0199916828 -0.0113985045 181 181 181 0.521278441 
0.296996981 -0.0525615886 -0.0197780579 -0.000528407167 114 110 252 0.52105099 
0.30633679 -0.060509596 -0.030329071 -0.0201055445 160 160 160 0.53228122 
0.301144242 -0.0473267958 -0.0284490008 -5.06447977e-05 255 255 122 0.530280113 
0.298320681 -0.0560637265 -0.0298568755 -0.00977102574 172 172 172 0.531778634 
0.292127222 -0.0490258485 -0.0286429711 -0.000790540478 255 255 94 0.530486643 
0.287242323 -0.0602851659 -0.0210000388 0.000395072042 255 255 148 0.522351623 
0.307633579 -0.0529170558 -0.0451946482 0.00353803486 102 255 90 0.548103809 
0.302679569 -0.0605788901 -0.0421779715 -0.0125690624 117 255 100 0.544892907 
0.238031 -0.140387297 0.110119812 -0.0119633386 255 253 159 0.382790893 
0.237230629 -0.144270718 0.0950055122 5.75224403e-05 216 250 112 0.398878187 
0.240367949 -0.136207685 0.10129866 -0.00111158378 255 255 136 0.392179877 
0.242792457 -0.144753262 0.103598759 -0.00117184431 225 241 90 0.389731705 
0.224164844 -0.160802215 0.102826886 -0.000339715451 118 221 117 0.390553266 
0.219154656 -0.164281785 0.0946997553 -0.00064752833 132 233 131 0.399203539 
0.227931827 -0.142593235 0.115694344 -0.00310606486 153 249 114 0.37685746 
0.217750996 -0.149703264 0.110196888 -0.0165029913 158 158 158 0.382708818 
0.225246131 -0.154701829 0.111864492 0.00149121892 122 218 122 0.380933851 
0.229025811 -0.140170842 0.0948257148 -0.00263133505 217 160 160 0.399069518 
0.221567631 -0.148825824 0.0949054658 -0.0204493105 174 174 174 0.398984641 
0.238970876 -0.149547666 0.110428624 -0.0019967733 128 226 99 0.382462174 
0.223571956 -0.1424582 0.101850986 -0.0277739707 163 163 163 0.391591996 
0.237430006 -0.151953474 0.101704642 -0.00112169143 255 242 117 0.391747743 
0.229865491 -0.155521244 0.0979319438 0.00111602922 154 154 154 0.395763308 
0.231893092 -0.138925239 0.103463598 -0.0100921616 173 173 173 0.389875591 
0.230202913 -0.147714034 0.108420454 -0.00243065692 255 255 134 0.384599656 
0.232337981 -0.132323354 0.110664479 -0.00137112325 251 229 100 0.382211179 
0.223596811 -0.151636899 0.103397295 -0.00689044315 176 176 176 0.389946163 
0.220114499 -0.140889779 0.111195773 -0.00934735872 170 170 170 0.381645679 
0.205669165 -0.161782682 0.108391017 -0.00624412904 131 237 130 0.384630948 
0.206353337 -0.157360822 0.116438359 -3.31354677e-05 130 231 116 0.376065552 
0.210325837 -0.158023328 0.101419151 -0.0275232941 104 224 103 0.392051578 
0.199763328 -0.160586089 0.10036464 -0.0112687787 152 244 152 0.393174022 
0.217227489 -0.158814251 0.109276012 -0.00936451927 147 241 147 0.383688927 
0.206834316 -0.166428 0.100305021 -0.000538112887 112 228 111 0.393237501 
0.215563595 -0.165367514 0.103071809 -0.000365550019 119 230 119 0.390292585 
0.209764659 -0.141054317 0.112109467 -0.029663004 255 199 139 0.38067314 
0.202770084 -0.146854535 0.113435969 -0.0198502466 139 241 117 0.379261255 
0.212370515 -0.140928239 0.120910332 -0.000480453105 255 199 139 0.371305764 
0.218793362 -0.147159263 0.118937925 -0.00039797381 255 255 255 0.373405099 
0.214722425 -0.133528456 0.110421158 -0.0218370669 255 197 111 0.382470131 
0.208252192 -0.149291515 0.120380022 -0.000805196818 150 253 130 0.37187013 
0.202538818 -0.133691341 0.114207901 -0.010311367 255 161 118 0.378439635 
0.203233451 -0.140634701 0.120154545 -0.000989974244 255 167 116 0.372110158 
0.209268272 -0.146514907 0.0951152146 -0.038706243 155 155 155 0.398761392 
0.198098183 -0.143022388 0.101385377 -0.0364970714 130 222 102 0.392087609 
0.215525717 -0.146804795 0.101830669 -0.0356885269 158 158 158 0.391613632 
0.206429571 -0.145956606 0.10383828 -0.0527347885 162 162 162 0.389476776 
0.214677215 -0.154828399 0.0940236077 -0.033435598 172 172 172 0.399923235 
0.21672067 -0.133812785 0.0995687619 -0.00912970491 170 170 170 0.394021153 
0.205518872 -0.155318871 0.094099246 -0.0332372636 168 255 167 0.399842739 
0.201303929 -0.137223944 0.095032163 -0.0107375849 172 172 172 0.398849845 
0.209287226 -0.152957916 0.108982891 -0.028969463 130 231 116 0.384000957 
0.209297538 -0.137259319 0.103727609 -0.0371911786 154 154 154 0.389594585 
0.19902733 -0.150846735 0.106118485 -0.0260855816 118 231 118 0.387049794 
0.200537533 -0.135043442 0.105355226 -0.0290442742 255 141 97 0.387862235 
0.196956575 -0.159118995 0.109486103 -0.000755180256 121 233 121 0.383465379 
0.191467762 -0.157199055 0.102369696 -0.000396741321 131 238 131 0.391039938 
0.189848363 -0.144051552 0.0975074396 -0.0113588627 174 174 174 0.396215171 
0.195119441 -0.142829418 0.110206306 -0.0141538214 152 235 130 0.382698834 
0.188004136 -0.139662385 0.105352074 -0.000772884348 139 227 114 0.387865573 
0.19744724 -0.15228112 0.0972086489 -0.0266584139 255 224 121 0.396533161 
0.19350791 -0.135278776 0.0994650722 -0.0168615375 105 255 105 0.394131541 
0.188858747 -0.152493119 0.0940614194 -0.00064027193 121 227 124 0.399883002 
0.190138757 -0.150306314 0.108322129 -0.000537874992 122 233 122 0.384704292 
0.193325251 -0.133848578 0.110911369 -0.0014501767 255 144 106 0.381948382 
0.169161022 -0.140741572 0.0947307721 -0.010494289 153 217 125 0.399170637 
0.155720502 -0.145906568 0.0969420373 -0.00549468165 140 190 139 0.396816969 
0.147101313 -0.141261101 0.0946608633 -0.000673313625 175 175 175 0.399245024 
0.161992341 -0.137902081 0.0997127071 -0.013852993 187 170 124 0.393867999 
0.153211355 -0.138345212 0.102352843 -0.000849124626 250 126 118 0.391057909 
0.243208021 -0.137703985 0.0713323951 -0.000298894593 196 196 198 0.424075216 
0.238905579 -0.140946597 0.0639090016 -0.000581489119 168 207 168 0.431976497 
0.223654985 -0.157032281 0.0913464352 -0.00850185007 110 228 109 0.402772784 
0.229384899 -0.148624972 0.0763492957 -0.000316303922 119 198 119 0.418735355 
0.218739003 -0.142517179 0.0778589323 -0.0150839249 143 143 143 0.417128533 
0.228059113 -0.143774271 0.0840299502 -0.00301738875 146 183 146 0.41056025 
0.238057315 -0.139552563 0.0848233998 0.000193095009 255 255 186 0.409715742 
0.226260304 -0.135449007 0.0874667168 -0.00716566481 164 164 164 0.406902254 
0.230066061 -0.148783356 0.0914564505 -0.00349216792 176 255 120 0.402655661 
0.23354274 -0.132006988 0.0968257934 0.00593921635 156 156 156 0.396940708 
0.227434248 -0.139714211 0.0758287832 -0.0179086551 160 160 160 0.41928941 
0.225170344 -0.152475506 0.083533667 -0.000454857014 148 232 148 0.411088467 
0.220109075 -0.14009136 0.0926949382 -0.0104089668 186 186 186 0.401337475 
0.219922811 -0.133982331 0.0810206756 -0.0253339671 160 160 160 0.413763255 
0.23047173 -0.142129719 0.0673206747 -0.0133018484 232 227 121 0.428345174 
0.225302875 -0.149094045 0.0635471493 -0.000587846211 143 233 143 0.432361603 
0.237055749 -0.144745454 0.0731539726 -0.000664750696 131 177 131 0.422136396 
0.221520036 -0.142865509 0.0691319704 -0.0234250352 178 178 178 0.426417291 
0.240043461 -0.131894484 0.0649863333 -0.00262198411 165 165 165 0.430829823 
0.222019285 -0.151647866 0.0718180835 -0.000880447449 119 225 119 0.423558235 
0.22143656 -0.133954808 0.0719883963 -0.0339121707 153 153 153 0.423377007 
0.232827783 -0.135092199 0.060310632 -0.01084032 177 177 177 0.435806513 
0.217984527 -0.139154196 0.0578454733 -0.0149333579 162 162 162 0.438430399 
0.230515987 -0.143706322 0.0582815036 -0.000462720287 176 176 176 0.437966257 
0.224937856 -0.139934078 0.052069284 -0.000488950755 123 224 122 0.444578379 
0.216449708 -0.160457596 0.0868068263 -0.00568364095 186 184 155 0.407604605 
0.210380286 -0.165635556 0.0913667306 -0.000650323869 134 237 134 0.402751148 
0.208186358 -0.145789534 0.0795652866 -0.0136246393 122 120 215 0.41531235 
0.197649628 -0.143922657 0.0800576657 -0.00317211775 92 222 92 0.414788276 
0.218833625 -0.146396816 0.0861714929 -0.00452347053 129 125 223 0.408280879 
0.2054919 -0.142629981 0.0877941772 -0.0201189518 163 163 163 0.406553745 
0.209565729 -0.154695511 0.0779497921 -0.000497174042 142 243 141 0.417031825 
0.213583827 -0.138903126 0.0854928866 -0.0312542021 163 163 163 0.409003168 
0.210673511 -0.150499135 0.0869943351 -0.0148229329 167 167 167 0.407405049 
0.205990553 -0.136934847 0.0806479156 -0.0158145819 156 156 156 0.414160073 
0.20730263 -0.15896222 0.0858694315 -0.0111902114 111 227 110 0.408602357 
0.20664534 -0.131107956 0.0885305777 -0.022706585 168 168 168 0.405769944 
0.201836824 -0.150892258 0.0845606998 -0.015078471 172 172 172 0.409995317 
0.213388324 -0.142886445 0.0648257211 -0.0143041676 170 170 170 0.431000739 
0.204869121 -0.146203846 0.0639215708 -0.00687568728 143 243 143 0.431963146 
0.213630944 -0.147996202 0.0725646988 -0.00919388235 164 164 164 0.422763586 
0.202837259 -0.14349632 0.0724527314 -0.0110007441 150 156 215 0.422882795 
0.216507554 -0.151349396 0.0645433739 -0.000652794552 127 232 126 0.431301266 
0.216011316 -0.131741866 0.0638495088 -0.042272348 174 174 174 0.432039857 
0.20834288 -0.136054292 0.0673589259 -0.0320495255 161 161 161 0.428304493 
0.209627509 -0.135348454 0.0583329052 -0.0153907128 174 174 174 0.4379116 
0.201910764 -0.130099818 0.0571287647 -0.0162040181 174 174 174 0.439193249 
0.211506426 -0.144561186 0.0542565808 -0.000665499363 170 170 170 0.442250282 
0.202878535 -0.142026544 0.0559799075 -0.000335099001 128 236 128 0.440416038 
0.215657532 -0.135388896 0.0498190299 -0.00249186996 164 164 164 0.446973503 
0.205295354 -0.135135278 0.0502755716 -0.000118364202 255 210 129 0.446487606 
0.194867104 -0.159354612 0.0914918631 -0.00198591664 130 237 129 0.402617961 
0.197439224 -0.145411253 0.0911550522 -0.0275794528 160 160 160 0.402976483 
0.19036907 -0.143308938 0.0856953412 -0.000875850907 108 234 102 0.408787668 
0.197745711 -0.137463778 0.086571008 -0.0040540183 174 174 174 0.40785563 
0.192840785 -0.152228609 0.085799776 -0.00199863338 119 232 119 0.408676505 
0.188473552 -0.136873156 0.0919594839 -0.00119470689 108 255 106 0.402120292 
0.193804711 -0.139999032 0.0727043003 -0.000316322083 177 177 177 0.422615051 
0.199594408 -0.133959562 0.0691200793 -0.0251713209 173 173 173 0.426429987 
0.194969654 -0.135393262 0.0599564537 -0.000288124196 135 132 255 0.436183512 
0.166810304 -0.147689104 0.0839059055 -0.000729875639 255 172 170 0.410692334 
0.171968281 -0.140134186 0.0846741274 -0.00432581734 132 252 106 0.409874648 
0.161789 -0.137639374 0.0888667554 -0.0400414169 127 225 127 0.405412138 
0.159626991 -0.149341136 0.0893779695 -0.00481775822 130 204 130 0.404868007 
0.161247343 -0.141844556 0.0795278698 -0.011377654 146 221 146 0.415352196 
0.153640658 -0.140788734 0.0860456154 -0.0209703781 180 184 180 0.4084149 
0.152692467 -0.134510696 0.0764643624 -0.00107625546 127 125 255 0.418612927 
0.22327745 -0.132573023 0.113572225 0.000264077797 255 231 126 0.379116207 
0.224509627 -0.130696505 0.0958590508 -0.00270634796 255 255 133 0.397969693 
0.224424243 -0.133690625 0.104537174 -0.00286959205 165 165 165 0.38873291 
0.223739564 -0.122187123 0.0992086381 0.00554024009 255 244 131 0.394404471 
0.220139116 -0.113844365 0.094538644 -0.00110742892 155 155 155 0.39937517 
0.206862092 -0.125722706 0.112780474 -0.000623940141 255 220 116 0.379958987 
0.210532725 -0.132272586 0.118481286 -0.000392999005 255 211 136 0.373891205 
0.211217582 -0.126753092 0.0954594314 -0.00555611262 159 159 159 0.398395032 
0.203018039 -0.129062101 0.0988635123 -0.0148189347 164 164 164 0.394771844 
0.218861163 -0.12528941 0.106364451 -0.00443208637 255 223 124 0.386788011 
0.21024552 -0.128170729 0.104478359 -0.0222780369 255 201 111 0.388795525 
0.214939594 -0.119754866 0.100071229 0.00326111377 255 222 119 0.393486381 
0.205858529 -0.120729268 0.101483166 -0.000225048978 255 199 115 0.391983569 
0.197444111 -0.125984564 0.107454598 -0.000137114665 255 221 117 0.385627687 
0.194323182 -0.126164168 0.0988269299 -0.000430790242 255 193 126 0.394810766 
0.165724963 -0.130636498 0.0933097973 -0.0213478152 255 123 114 0.400683075 
0.153111979 -0.132717356 0.0951009542 -0.0189488474 255 119 119 0.398776621 
0.278078079 -0.11629761 0.0480120331 -0.000208853104 255 254 78 0.448896855 
0.27680409 -0.102823213 0.0602129474 -0.000928034366 156 255 116 0.435910523 
0.282564491 -0.0972090065 0.0521464348 0.00330267497 175 176 175 0.444496304 
0.269071162 -0.115074828 0.0447411463 -0.0238348749 134 232 133 0.452378333 
0.265803665 -0.0988791585 0.0476858206 -0.051093068 255 255 125 0.449244112 
0.28777802 -0.09413784 0.0453055389 -0.00673966203 160 192 160 0.451777607 
0.279170811 -0.112031288 0.0399600044 -0.00412499718 127 232 127 0.457467258 
0.273595303 -0.0990315229 0.0524848998 -0.0236449335 170 170 170 0.444136083 
0.273013145 -0.0943737924 0.0442139432 -0.025482567 255 255 114 0.452939481 
0.281307608 -0.106262937 0.0529906079 -0.000320320833 162 255 130 0.443597794 
0.285778433 -0.103349634 0.044709228 0.00730108377 131 234 131 0.452412307 
0.277271718 -0.102829687 0.0412977524 -0.0184234399 131 234 131 0.456043422 
0.27952528 -0.0988524109 0.0314369686 0.00310648489 123 231 122 0.466538936 
0.270746142 -0.111999102 0.0276497193 -0.000488363905 118 227 117 0.470569998 
0.267968297 -0.095959045 0.0134020373 -0.000454288849 130 255 96 0.48573491 
0.28641209 -0.0959097743 -0.0027635775 -0.00053515425 117 228 117 0.502941191 
0.287992507 -0.0773244798 0.0427159294 -0.0131740058 255 255 134 0.454533964 
0.283967853 -0.0852714553 0.0480431393 0.00194354507 255 255 210 0.448863804 
0.28081432 -0.0941868573 0.0393691361 -0.000507195306 144 144 144 0.458096147 
0.276683599 -0.0862419605 0.0417681299 0.00138717913 255 253 68 0.455542743 
0.286276668 -0.0818398297 0.0264943913 -0.0102615459 143 255 119 0.471799761 
0.285365909 -0.0853502303 0.0389939919 -0.0121662887 130 255 102 0.458495438 
0.280766875 -0.087491855 0.031125376 0.00306647923 255 137 137 0.466870636 
0.277853757 -0.0807292014 0.0154325552 -0.00292942114 147 255 119 0.483573675 
0.286225408 -0.0795839727 0.0112618692 -0.0189860668 159 159 159 0.48801285 
0.280265808 -0.0845774859 0.00643009134 -0.0110041415 165 165 165 0.493155688 
0.286967814 -0.0905878916 0.00468441751 -0.0189448558 124 232 124 0.495013684 
0.278980821 -0.0911395177 0.000137106152 -0.00512563251 145 238 144 0.49985379 
0.281971037 -0.0889701173 0.015231099 -0.000386003871 148 244 148 0.483788073 
0.273901314 -0.0894746184 0.0108678825 0.000695948896 164 255 141 0.488432199 
0.283625811 -0.0858203769 -0.0165500939 0.00348920282 121 223 121 0.517615199 
0.276568085 -0.0810196921 -0.00115206977 -0.00845560897 176 176 176 0.501225948 
0.275577724 -0.0894335285 -0.0202945974 0.000827881566 134 224 133 0.521600723 
0.291934729 -0.0797529146 -0.009139047 -0.0242442992 167 167 167 0.509727061 
0.2763246 -0.079525061 -0.0102071501 -0.00372610521 167 167 167 0.51086396 
0.279666752 -0.0907788426 -0.00986809935 0.00361204194 149 239 148 0.510503054 
0.287246615 -0.0873751119 -0.00604064949 -0.0209466387 137 235 137 0.506429195 
0.271034777 -0.0880309716 -0.00323242974 -0.0104386546 158 158 158 0.503440201 
0.282828182 -0.0825698003 -0.0333619639 -0.00468106614 133 224 133 0.535509348 
0.269058824 -0.0808260068 -0.0276889075 -0.0134408688 157 157 157 0.529471099 
0.288609713 -0.0799401253 -0.022316698 -0.00195358717 167 167 167 0.523753047 
0.279878587 -0.0826115608 -0.0246706866 -0.0179374814 143 229 143 0.526258588 
0.287283748 -0.0634767115 0.0083238855 -0.0116022583 255 255 119 0.491139978 
0.277452707 -0.0655289739 0.00677294191 -0.00412868522 110 224 109 0.492790818 
0.284613311 -0.0760464147 0.0195726454 -0.00260194018 255 255 107 0.479167074 
0.287978739 -0.072039105 0.00509814359 -0.0378035754 169 136 196 0.494573414 
0.275510311 -0.0713774636 -7.37825467e-05 -0.00270030834 172 172 167 0.500078261 
0.282028168 -0.0714740008 0.0120665804 -0.0164077077 255 255 139 0.487156361 
0.275904506 -0.07657516 0.00748266838 -0.00291391718 255 255 230 0.492035359 
0.28386721 -0.068227537 -0.00216061645 -0.0234949086 255 121 121 0.502299428 
0.282500476 -0.0627080426 -0.00944475457 0.00332164555 255 255 129 0.510052502 
0.269618928 -0.0645053387 0.00144900475 0.00159559667 255 255 124 0.498457462 
0.27322337 -0.0616142601 -0.010048965 0.000420125492 255 255 118 0.510695577 
0.285542846 -0.0729324669 -0.00986784324 -0.0070003802 154 154 154 0.510502815 
0.276909024 -0.0699586123 -0.00907679182 -0.00272210781 155 155 155 0.50966084 
0.281653792 -0.0769019276 -0.0171419829 -0.00563948508 182 182 182 0.51824522 
0.285343617 -0.0789217353 -0.00281347847 -0.024422586 176 176 176 0.502994299 
0.267609686 -0.0804129913 0.000544392038 -0.0182861537 177 177 177 0.499420285 
0.283376843 -0.0675535873 -0.0358456001 -0.00553198578 255 255 105 0.538152874 
0.274912149 -0.0682150647 -0.0323567279 -0.0299592819 168 168 168 0.534439385 
0.293385297 -0.072001256 -0.0240895785 -0.00577630056 123 230 123 0.52564007 
0.279259205 -0.0643562376 -0.0252577979 -0.0188466236 170 170 170 0.526883483 
0.288642377 -0.075648509 -0.0316542163 -0.00283978204 255 205 213 0.533691645 
0.27551657 -0.0746132731 -0.0258017704 -0.0308792572 164 164 164 0.527462482 
0.284233153 -0.0720205903 -0.0244852863 -0.0133470567 168 168 168 0.526061237 
0.276361018 -0.0694801956 -0.0182248149 -0.0215078145 158 158 158 0.519397795 
0.276343077 -0.0634200647 -0.040053688 -0.00100120076 201 255 132 0.542631865 
0.280673206 -0.0765210092 -0.0402467586 -0.00133681297 136 231 136 0.542837322 
0.271244794 -0.0748428702 -0.0388146713 -0.0113806194 167 167 167 0.541313112 
0.282360643 -0.0599468276 0.00144358538 -6.94372284e-05 255 255 104 0.498463213 
0.291647077 -0.0619963631 -0.00951852743 0.00137975591 121 227 120 0.510131001 
0.279728562 -0.057547763 -0.0165097769 -0.000780776609 255 255 118 0.517572343 
0.288286507 -0.058576107 -0.0350904763 -0.0112192659 255 78 78 0.537349164 
0.279224396 -0.0551963486 -0.0254647806 -0.00104335649 255 255 112 0.527103841 
0.271894872 -0.0615174919 -0.0191220697 -0.0194543786 255 255 107 0.520352781 
0.268931419 -0.0609063581 -0.0332830027 -0.0108910399 255 255 139 0.535425365 
0.263332903 -0.12102522 0.0562431961 -0.000585177098 255 255 129 0.440135807 
0.254690439 -0.118581623 0.0578471683 -0.000543715607 117 192 116 0.438428611 
0.271024644 -0.121147543 0.0512696058 -0.000231053797 143 233 143 0.445429564 
0.25809446 -0.115016475 0.0501210876 -0.0261232331 255 255 128 0.446652025 
0.26623404 -0.122599557 0.0396658629 -0.00248928228 118 223 118 0.457780302 
0.26057142 -0.124359295 0.0469468832 -0.00028091803 135 226 134 0.450030565 
0.267281294 -0.108117431 0.0650177598 -0.00042316597 180 180 180 0.430796415 
0.262117594 -0.0992013961 0.0663079172 -0.000652211602 255 255 128 0.429423183 
0.25332576 -0.101513542 0.0650745481 -0.000158373237 220 255 136 0.430735946 
0.267860353 -0.100918256 0.0593660846 -0.019882001 180 180 180 0.436811924 
0.256555587 -0.10716027 0.0585986748 -0.0213685483 196 255 103 0.437628716 
0.265049428 -0.110165142 0.0563527122 -0.024863746 180 180 180 0.44001925 
0.257615954 -0.0961929411 0.0445436537 -0.0419298112 255 106 107 0.452588558 
0.272099257 -0.115584768 0.0586325377 -0.000405332103 131 123 214 0.437592685 
0.271970212 -0.0926481336 0.0588966049 -0.00623313524 255 255 145 0.437311649 
0.273556679 -0.0923700407 0.034044046 -0.00897368882 255 255 117 0.463764071 
0.260453016 -0.114005715 0.0633104742 -0.000357246579 197 255 136 0.432613581 
0.260573655 -0.115554646 0.0413008109 -0.027634928 135 229 134 0.456040114 
0.260043442 -0.0992241278 0.0548659861 -0.0370583013 255 255 140 0.441601723 
0.257483304 -0.098868072 0.0357699431 -0.0241926648 157 157 157 0.461927056 
0.273658216 -0.107932739 0.0482121781 -0.0264026504 175 176 175 0.448683828 
0.264081687 -0.107889198 0.0475149825 -0.050263606 143 233 143 0.449425936 
0.265986383 -0.103404053 0.0397012122 -0.0468365289 160 160 160 0.457742721 
0.255651861 -0.104505822 0.0487836748 -0.0474165753 172 255 170 0.448075563 
0.270648003 -0.110891193 0.0367413685 -0.0229485352 145 241 145 0.460893035 
0.268489629 -0.0972582996 0.0250086822 -0.000174262677 148 255 119 0.473381072 
0.262640566 -0.112948254 0.0327511877 -0.0193116218 150 231 150 0.465140134 
0.258506626 -0.0962495506 0.0266483221 -0.00307153398 157 157 157 0.471635908 
0.261521816 -0.104386047 0.0296538938 -0.015146289 171 171 171 0.468436807 
0.270408899 -0.103279859 0.0316590443 -0.0190761518 136 255 105 0.466302574 
0.257531375 -0.106942467 0.0401351005 -0.0360580646 165 165 165 0.457280874 
0.25674507 -0.113198988 0.0257190149 0.00191180664 177 255 176 0.472624987 
0.259309113 -0.0954881459 0.0164132528 -0.00593829527 127 249 127 0.482529879 
0.262147903 -0.0961571783 0.00578949321 -0.015284691 167 167 167 0.493837476 
0.262182772 -0.102954395 0.0119276308 0.00112305884 150 245 150 0.487304211 
0.259833038 -0.104539238 0.0206326656 0.000640083686 156 255 131 0.478038788 
0.259675741 -0.107429013 0.00431100652 -0.000667553279 119 229 119 0.495411158 
0.255254626 -0.108785063 0.0132553466 -0.000193808839 255 253 74 0.485891014 
0.266320705 -0.10266538 0.000144254518 -0.00828145351 141 239 140 0.499846131 
0.270124257 -0.0976804718 -0.0165412482 -0.000241289847 119 224 118 0.517605782 
0.254547775 -0.0966775119 0.000693914015 -0.0245456584 167 167 167 0.499261141 
0.254491717 -0.0981663391 -0.0142077841 -0.0246533286 146 241 146 0.515122116 
0.258160353 -0.104050912 -0.00408860436 -0.0161639266 122 231 122 0.504351497 
0.255032867 -0.0925211906 0.0632226467 -0.000462792639 255 255 138 0.432707071 
0.268336207 -0.0846549571 0.0554908216 -0.000613859273 255 255 130 0.440936685 
0.262887746 -0.0913459808 0.0586194098 -0.0138929486 255 255 134 0.437606663 
0.262779295 -0.0806834772 0.044487454 -0.000604099419 255 255 92 0.452648401 
0.268773019 -0.0833960772 0.0380808078 -0.00162829272 255 255 119 0.459467471 
0.275277674 -0.0883114785 0.0507248342 -0.00459834607 255 255 101 0.446009457 
0.258208066 -0.0840921327 0.0554977432 -0.00174969668 255 255 130 0.440929323 
0.266598701 -0.0885751098 0.0472936332 -0.0229830313 255 255 119 0.449661553 
0.256048977 -0.0875782222 0.047286462 -0.0194905233 255 255 119 0.449669182 
0.261053532 -0.088153474 0.0231920276 0.00670818612 255 255 90 0.475314707 
0.26456672 -0.0936952829 0.0330432095 -0.022341175 255 255 132 0.464829326 
0.261293203 -0.0884318352 0.0398028493 -0.0229683835 139 226 138 0.457634538 
0.252189994 -0.0898456275 0.0248266608 -0.00975786056 164 164 164 0.473574817 
0.252208084 -0.0807676017 0.0133017087 -0.0166163407 171 171 171 0.485841721 
0.268661886 -0.0787410811 0.0127154058 -0.00830151141 255 255 207 0.486465782 
0.272419482 -0.0966476053 0.00343496352 -0.00518802647 155 155 155 0.496343613 
0.266868591 -0.0883643851 0.00510002486 -0.0216768663 172 172 172 0.494571388 
0.267918378 -0.0866938978 0.0172185302 -0.00025019364 146 255 119 0.481672734 
0.259231985 -0.0865338147 0.0143305985 -0.00847613439 167 167 167 0.484746575 
0.261530042 -0.0810516402 0.00741358288 -0.0333493464 167 167 167 0.492108911 
0.263291687 -0.087018013 -0.016122669 -0.0112621775 161 161 161 0.517160237 
0.259693444 -0.0847970173 -0.00113482343 -0.0459086075 167 167 167 0.50120759 
0.254872054 -0.0898849294 -0.0184172075 -0.0285577644 175 175 175 0.519602537 
0.271623075 -0.0871113762 -0.0123468153 -0.00628493214 148 148 148 0.513141334 
0.258118421 -0.0762163624 -0.00733777229 -0.0328298211 188 188 188 0.507809877 
0.27099812 -0.0961880758 -0.00751490891 -0.0112115582 120 227 120 0.507998347 
0.262761265 -0.0950728804 -0.0117777288 -0.0281165391 125 228 125 0.512535632 
0.263622284 -0.0934143364 -0.00278853741 -0.0372461118 161 179 161 0.502967715 
0.256055892 -0.0907236487 -0.00725183077 -0.0480676964 167 167 167 0.507718384 
0.266207516 -0.0837218165 -0.0359201543 -0.000596835511 119 217 119 0.538232207 
0.26152876 -0.0853117034 -0.0249724686 -0.00310355588 124 117 255 0.526579797 
0.272606194 -0.08884646 -0.0303983055 -0.000493189553 145 218 144 0.532354891 
0.267381877 -0.0921913683 -0.023353219 0.00140413688 137 228 136 0.524856269 
0.258736044 -0.0947026238 -0.0252096616 -0.0011061409 132 230 132 0.526832223 
0.275090188 -0.0835147947 -0.0382062681 -0.000682016718 127 249 125 0.540665507 
0.270735711 -0.0699542761 0.0111860968 0.00438045571 255 255 129 0.488093525 
0.259655207 -0.0652432889 0.00578399748 -0.0117310584 255 255 116 0.493843377 
0.265205801 -0.0723880529 0.00429729884 -0.0190855507 171 171 171 0.495425791 
0.255537868 -0.0721669942 0.0188715458 -0.000212058134 164 164 164 0.479913354 
0.256572723 -0.0736468434 0.00950548984 -0.0280359741 255 255 91 0.48988232 
0.262247533 -0.0681050718 0.0140982233 -0.000598183717 255 255 107 0.484993935 
0.248484373 -0.0711807087 0.0130781522 -0.0131097315 255 255 107 0.486079693 
0.262744695 -0.069098413 -0.00389052113 -0.019259939 166 166 166 0.504140735 
0.259531915 -0.0683515221 -0.0124630043 -0.00537458342 177 177 177 0.513265073 
0.253596932 -0.0645518973 -0.00337457052 -0.0190069899 255 255 132 0.503591537 
0.25468874 -0.0602691323 -0.0113977026 -0.000219616471 255 255 112 0.512131214 
0.268663704 -0.0688737705 -0.0133109847 -0.005086652 176 176 176 0.514167607 
0.262467086 -0.076711081 -0.0165337492 -0.0221522469 169 169 169 0.517597854 
0.264874011 -0.0823232383 -0.00840473175 -0.0193514936 168 168 168 0.508945525 
0.269554347 -0.0747217089 -0.00628517661 -0.00876909681 170 170 170 0.506689489 
0.254952639 -0.0727339163 0.00054723717 -0.0435144119 255 255 127 0.499417305 
0.259263366 -0.064150095 -0.0320483707 -0.000435079215 255 255 145 0.534111261 
0.254329443 -0.0718581975 -0.0314879641 0.00749999983 255 121 120 0.533514738 
0.265065461 -0.062588647 -0.0251322426 -0.0172165334 255 255 98 0.526749909 
0.258907259 -0.0711282194 -0.0235767327 -0.00259503769 179 179 179 0.525094211 
0.26798141 -0.0708020404 -0.0222404972 -0.0166265666 178 178 178 0.523671925 
0.260811597 -0.0783113763 -0.030845467 -0.0077032214 128 230 128 0.532830894 
0.271232009 -0.0790621638 -0.0179199968 -0.0120531749 164 164 164 0.519073308 
0.251353502 -0.0763056129 -0.0230837949 -0.0120526506 165 165 165 0.524569511 
0.267712533 -0.0665270016 -0.0404353999 -0.00104072713 255 116 116 0.54303813 
0.266158223 -0.0709138811 -0.0318314582 -0.024843758 125 232 124 0.533880353 
0.264547914 -0.0606841631 -0.0131145511 0.00206401758 255 255 122 0.513958573 
0.26154536 -0.0603117943 -0.00171480514 -0.000665652566 255 255 111 0.501824975 
0.270157069 -0.0545835309 -0.0267423056 -0.000647848938 255 255 116 0.528463602 
0.257731378 -0.0629269183 -0.0196378846 0.00335625955 255 255 130 0.520901859 
0.255006999 -0.0551340505 -0.0477947406 -0.00895419158 255 118 118 0.550871313 
0.267413169 -0.0449664593 -0.0488240942 -0.000629059447 255 255 149 0.551966906 
0.25618723 -0.0624041334 -0.0535419993 -0.0103483824 125 119 253 0.556988537 
0.260493815 -0.0398323983 -0.0518627092 -0.0184624624 255 148 148 0.555201173 
0.257086605 -0.0423613638 -0.0437719226 -0.000119860371 255 121 121 0.546589494 
0.260323375 -0.030897459 -0.0497380011 -0.00031542161 194 187 179 0.552939653 
0.251283884 -0.0241468698 -0.0544377118 -0.000447512022 126 121 239 0.557941973 
0.241094351 -0.128936887 0.081815809 -0.00990586542 255 255 136 0.412916958 
0.241392612 -0.121608227 0.0873211697 -0.000846105977 255 255 111 0.407057166 
0.241509825 -0.114576116 0.0709235817 -0.0080297105 162 162 162 0.42451039 
0.244035661 -0.127868414 0.0721945092 -0.00832730252 255 255 117 0.423157632 
0.238641471 -0.117544346 0.0604932122 -0.00833007041 255 255 117 0.435612231 
0.244646072 -0.124192402 0.0630996823 -0.000384167593 224 255 107 0.432837933 
0.236294717 -0.121857829 0.0527751893 -0.00141742965 166 255 108 0.443827093 
0.250353426 -0.120760351 0.0405506007 -0.000675597345 150 233 150 0.456838608 
0.234694272 -0.116298169 0.084011279 -0.00734637445 171 171 171 0.410580188 
0.244856477 -0.106116235 0.0612529255 0.00551435165 175 255 82 0.434803635 
0.248727202 -0.117015235 0.0487720668 -0.0073463344 161 227 160 0.448087901 
0.249664187 -0.0975337401 0.0489157066 -0.0274186768 255 255 132 0.447935045 
0.24660632 -0.114295274 0.0575114712 0.00280394964 140 204 140 0.438785881 
0.253753752 -0.113969319 0.035424903 -0.0171316769 116 220 115 0.462294281 
0.248453438 -0.0983353108 0.0579747334 -0.0100915637 255 255 113 0.438292831 
0.249418229 -0.093129836 0.0408656374 -0.0198835507 105 255 104 0.456503332 
0.238839686 -0.10987211 0.0554305688 0.00749999983 255 255 130 0.441000789 
0.240184009 -0.102531075 0.0408675037 -0.000958059914 130 251 125 0.456501365 
0.247449368 -0.107997648 0.050916478 -0.0185899418 129 207 128 0.44580546 
0.240333736 -0.102267943 0.0501570776 -0.000118453056 180 255 139 0.446613729 
0.248524755 -0.106908187 0.0418915488 -0.0257232152 255 131 131 0.455411345 
0.244187653 -0.112768188 0.036330469 -0.000152309425 120 219 120 0.461330473 
0.241582423 -0.092819497 0.0360357836 0.00583776459 255 255 118 0.461644113 
0.236704737 -0.099072367 0.0314134099 -0.00125105679 161 255 131 0.466564059 
0.24998796 -0.0996272266 0.0266092308 -0.00973552186 165 165 165 0.471677512 
0.241809338 -0.101772733 0.0230086781 -0.0241993815 172 172 172 0.475509822 
0.247841865 -0.100387678 0.0354729146 -0.00914232153 255 106 106 0.462243229 
0.249125749 -0.107967384 0.0302443821 -0.00311837322 255 255 255 0.467808336 
0.239978105 -0.107513443 0.0299078822 0.000970409019 150 237 150 0.4681665 
0.251015097 -0.0991470292 0.0175110288 -0.00494022155 169 169 169 0.481361389 
0.241444141 -0.111316547 0.0126243234 -0.000674483832 127 230 126 0.486562669 
0.242310047 -0.0954348594 0.0163859706 -0.0194138698 161 161 161 0.482558906 
0.250009924 -0.0958853513 0.0086305812 -0.0267940797 167 167 167 0.490813553 
0.242878467 -0.0979723185 0.00323857111 -0.00698283641 255 112 112 0.496552646 
0.251048386 -0.107519463 0.0213098843 -0.0127307232 123 228 123 0.477317989 
0.250593871 -0.108072639 0.00539390557 0.000422266836 169 169 169 0.494258523 
0.242503792 -0.110828847 0.0217291061 -0.00541949878 133 235 132 0.476871759 
0.241552919 -0.106987752 0.00432750257 0.00397297088 108 222 107 0.495393604 
0.244962007 -0.102907494 0.0117482524 -0.00303941313 161 161 161 0.487495124 
0.236732066 -0.104085907 0.0157342143 -0.0148367267 149 243 149 0.483252585 
0.245636493 -0.102431722 -0.0142528545 -0.00878885109 107 224 107 0.515170038 
0.235381871 -0.102087319 -0.000318850391 0.000643740175 181 181 181 0.500339091 
0.237960368 -0.0980368108 -0.0175929703 -0.000601463602 146 243 146 0.518725216 
0.249841481 -0.0999094769 -0.00649237912 -0.0294077806 128 233 128 0.506910026 
0.241463304 -0.0957122222 -0.00554387411 -0.0233311672 180 180 180 0.505900502 
0.253042579 -0.107206106 -0.0110616153 -0.0036675653 127 233 127 0.511773407 
0.238344729 -0.103706352 -0.00883909501 -0.000384466897 142 240 141 0.509407818 
0.245296925 -0.107492521 -0.00403850898 -0.00257094903 126 232 125 0.504298151 
0.251238525 -0.0900772586 0.0551044792 -0.00945195928 255 255 110 0.441347867 
0.246731281 -0.0864116699 0.0313470364 0.00114190148 255 255 110 0.466634721 
0.238410115 -0.0857225582 0.0273822993 -0.00104250386 255 255 114 0.470854729 
0.254653901 -0.0903681815 0.0337691121 -0.0090309782 157 157 157 0.4640567 
0.243127674 -0.0935383216 0.026856875 -0.0171939395 149 149 149 0.47141394 
0.245200366 -0.0780834705 0.018598482 -0.00427053962 255 255 117 0.480203986 
0.236867815 -0.0783671811 0.0147592295 -0.000615135999 255 255 106 0.484290421 
0.253028631 -0.0809765384 0.00401472207 -0.044991333 182 182 182 0.495726556 
0.238332927 -0.0862335414 0.010261449 -0.00340237003 160 160 160 0.489077687 
0.250944942 -0.0901762843 0.0157463606 -0.0180659704 151 151 151 0.483239681 
0.256009072 -0.0893748999 0.00622349139 -0.025653841 167 167 167 0.49337557 
0.243365496 -0.0869967043 0.0197832212 -0.00260573183 180 180 180 0.478942931 
0.241815954 -0.0891479105 0.000955843483 -0.0170097835 255 116 115 0.49898237 
0.247312427 -0.0869793966 0.00796906091 -0.0293606482 175 175 175 0.491517663 
0.236410946 -0.095162794 0.00937552657 -0.0045309444 138 138 138 0.490020633 
0.244614691 -0.0804160386 0.000399648328 -0.0278425589 161 161 161 0.499574333 
0.247390151 -0.0845885575 -0.0180176087 -0.0298959445 255 255 167 0.519177198 
0.236955255 -0.0817008764 -0.0161254145 -0.0133742625 164 164 164 0.517163217 
0.253634214 -0.0829873011 -0.0115163848 -0.0408942737 169 169 169 0.512257457 
0.237817585 -0.0818560347 -0.00557762105 -0.013545895 161 161 161 0.505936444 
0.246792436 -0.0934862643 -0.0159784146 -0.0268669222 128 233 127 0.517006755 
0.24081251 -0.0884431824 -0.0112266969 -0.0183437113 184 184 184 0.511949122 
0.247882754 -0.086934045 -0.00556842564 -0.0423402525 148 148 148 0.505926609 
0.233605117 -0.093169868 0.00085923844 -0.00315729296 115 107 219 0.499085188 
0.244314075 -0.0843239948 -0.0266255066 -9.35959979e-05 255 255 202 0.528339267 
0.253261864 -0.0835032836 -0.0284327008 -6.83182516e-05 142 238 142 0.530262768 
0.244111031 -0.0932942703 -0.0247417632 -0.000199452159 136 238 136 0.526334226 
0.250974476 -0.0990093946 -0.0226456132 -0.00232576625 96 218 95 0.524103105 
0.239643633 -0.0706130564 0.0106924744 -0.00507096667 255 255 131 0.48861897 
0.255743772 -0.0807335302 0.0221547298 0.00157945976 252 247 128 0.476418793 
0.247554362 -0.0685499609 0.00426460616 -0.0235009473 255 255 93 0.495460629 
0.236437231 -0.0792429745 0.00463727117 -0.00269445451 169 169 169 0.495063931 
0.244262397 -0.0784263313 0.00934251584 -0.0205636434 160 160 160 0.490055799 
0.239294231 -0.0644772723 0.00387412962 -0.000544914277 255 255 117 0.495876253 
0.248105377 -0.0636110529 -0.0168543477 -0.000143860598 255 255 119 0.517939091 
0.238134056 -0.0643152893 -0.00578353694 -0.0009854245 255 252 144 0.50615561 
0.239245832 -0.0652638078 -0.0148369316 0.00327641633 246 240 139 0.515791833 
0.246448517 -0.0670783967 -0.00852285698 -0.0200623684 255 254 144 0.50907129 
0.252571583 -0.0739886314 -0.0142766414 -0.0189535562 180 180 180 0.515195429 
0.23952809 -0.0730263665 -0.0098469574 -0.0182221532 186 186 186 0.510480642 
0.249054164 -0.0754855797 -0.00593939004 -0.0443180725 161 161 161 0.50632149 
0.237404466 -0.0720624775 -0.00096915703 -0.00951669365 168 190 136 0.50103128 
0.246422917 -0.067502737 -0.033159852 -0.00635293778 213 208 255 0.535294294 
0.238062888 -0.0747018009 -0.031687893 -0.0121641085 126 236 125 0.533727527 
0.251108378 -0.0660382137 -0.0251738019 0.00749999983 176 176 176 0.526794136 
0.246879518 -0.0771850944 -0.0317687802 0.00749999983 255 255 255 0.533813596 
0.243780375 -0.0715711191 -0.0252023935 0.00509606255 133 245 142 0.526824534 
0.244109035 -0.0760513693 -0.017193269 -0.0217970591 241 235 130 0.518299818 
0.236085981 -0.0732656568 -0.0205151513 0.00486778188 132 255 109 0.521835566 
0.248285174 -0.0713460296 -0.0425214283 -0.000939164951 255 126 126 0.545258462 
0.239517242 -0.069297187 -0.0389651358 -0.0284174141 255 255 255 0.541473269 
0.241605312 -0.0776330307 -0.0422044694 -0.00527386693 139 134 255 0.5449211 
0.237942338 -0.077618733 -0.0509874523 -0.00526138069 122 240 122 0.554269493 
0.252114743 -0.0601497069 0.00459223893 -0.000705020095 255 255 133 0.495111883 
0.245482564 -0.0606367216 -0.00171754591 -0.00184453896 255 255 143 0.501827836 
0.238285273 -0.0534430742 -0.0321028456 -0.026955355 217 209 163 0.534169257 
0.244041622 -0.0562967882 -0.0248472095 -0.000759027665 224 216 118 0.526446521 
0.23896718 -0.0638897941 -0.0238549076 -0.00970217027 223 229 133 0.525390327 
0.239439577 -0.0468830988 -0.025342945 -0.000341368752 185 176 161 0.526974201 
0.229758352 -0.0433518216 -0.0241351426 -0.000439134106 150 141 175 0.525688648 
0.240933686 -0.0605927482 -0.0413701721 -0.0206110664 160 160 160 0.54403317 
0.234431207 -0.0531123467 -0.0488760695 -0.0218092632 160 160 160 0.552022278 
0.250459701 -0.0510779545 -0.040181607 0.0032310714 128 255 95 0.542768061 
0.24705711 -0.0509420522 -0.0316646472 -0.000615715107 255 255 255 0.53370285 
0.251658559 -0.0633311719 -0.0454517938 0.00374717615 117 239 117 0.548377514 
0.247827709 -0.0477683321 -0.0483308733 -0.0039638984 176 176 176 0.551441967 
0.245898575 -0.0566641837 -0.047985211 -0.00711618224 160 160 160 0.551074028 
0.248177141 -0.0403255187 -0.0430619791 0.00135892339 119 110 206 0.545833886 
0.248180896 -0.0589483082 -0.0359833576 -0.00745996274 121 248 120 0.538299561 
0.247582227 -0.0603194311 -0.0561524555 -0.00428705011 159 159 159 0.559767008 
0.242623568 -0.0441665463 -0.0359856039 -0.00394263677 156 147 195 0.538301945 
0.239476502 -0.045793388 -0.0513749495 -0.0141731091 171 171 171 0.554682016 
0.238185138 -0.0625616163 -0.0329034701 -0.0332145654 141 255 123 0.535021424 
0.234944433 -0.0617018268 -0.0519548021 -0.0145425191 158 158 158 0.555299163 
0.23583129 -0.039849095 -0.0315782204 -0.000330485695 136 128 203 0.53361088 
0.230303824 -0.0452484451 -0.0512488857 -0.00342982425 173 173 173 0.554547846 
0.244073629 -0.0379210934 -0.0508814715 -0.0170435905 173 173 173 0.55415678 
0.233932585 -0.0369069353 -0.0502403453 0.00174503843 141 136 255 0.553474367 
0.244720876 -0.0288146865 -0.0500725359 -0.000250205892 134 130 248 0.553295732 
0.237456441 -0.0286061727 -0.0556638725 -0.00214257673 129 126 255 0.559247077 
0.228595883 -0.131426007 0.0795585439 -0.0265930574 171 171 171 0.415319532 
0.213154882 -0.135858372 0.0750394017 -0.0240469184 167 167 167 0.420129597 
0.234574646 -0.131567836 0.0877145603 -0.0030580461 170 170 170 0.406638473 
0.223178416 -0.126869142 0.0858608037 -0.0179812405 163 163 163 0.408611596 
0.240893364 -0.12045937 0.0782280862 -0.0143394023 255 255 137 0.416735649 
0.228847474 -0.122273639 0.0802766755 -0.0328759104 188 188 188 0.414555192 
0.228772551 -0.12231037 0.091535449 -0.0067021898 255 125 125 0.402571648 
0.214781702 -0.123315588 0.0877343491 -0.0171271376 161 161 161 0.406617433 
0.216317028 -0.118254907 0.0738397092 -0.0536339097 172 172 172 0.421406537 
0.229030341 -0.129882902 0.0687495023 -0.038022168 178 178 178 0.426824421 
0.224308431 -0.135822564 0.0634737909 -0.0346310772 132 222 131 0.432439715 
0.235290617 -0.127166152 0.0749264061 -0.0221891329 255 255 136 0.420249909 
0.235853136 -0.136180699 0.0765832067 -0.0106551917 255 255 137 0.418486416 
0.235072792 -0.123417623 0.0665757507 -0.0191245172 149 149 149 0.429138094 
0.226340741 -0.118866995 0.0616937727 -0.0288853049 147 147 147 0.434334368 
0.228062242 -0.124970719 0.0552453808 -0.0154467728 160 160 160 0.441197842 
0.219464362 -0.121713236 0.0551219434 -0.0233363695 152 255 133 0.441329241 
0.229049534 -0.132133603 0.0496730059 -0.000375849311 166 166 166 0.447128952 
0.238709956 -0.13035959 0.0551583543 -0.000313123717 179 254 106 0.441290498 
0.220943838 -0.130730674 0.0561136529 -0.0254375059 154 194 154 0.440273702 
0.228739917 -0.117586359 0.0498807356 -0.000828481338 142 255 95 0.446907878 
0.229452103 -0.11116226 0.0785482749 -0.0141169392 170 170 170 0.41639486 
0.229307562 -0.10200806 0.0787695125 -0.00037580519 255 255 105 0.416159421 
0.213669926 -0.105968565 0.0788187161 -0.0118608857 184 183 166 0.416107059 
0.231721759 -0.113653421 0.092277132 -0.000347678579 255 255 129 0.401782244 
0.22459206 -0.112240344 0.0866779387 -0.0117713846 172 172 172 0.407741845 
0.231877834 -0.106674023 0.086244069 -2.99607636e-05 255 255 125 0.408203691 
0.22278145 -0.1033879 0.0850775838 -0.00066267245 255 242 86 0.409445256 
0.237313032 -0.106046602 0.0768645853 -0.000601804757 255 255 132 0.418186963 
0.220854849 -0.110489957 0.0753992349 -0.0281989947 159 159 159 0.419746637 
0.2324242 -0.11331334 0.0657536909 -0.0116336709 180 180 180 0.43001312 
0.222849607 -0.110648289 0.0638726652 -0.0209052637 183 183 183 0.43201524 
0.221237391 -0.100855768 0.0661932081 -0.000650324568 255 148 147 0.429545313 
0.233410418 -0.117852002 0.0736716688 -0.030154366 162 162 162 0.421585411 
0.224758714 -0.117410794 0.0706302226 -0.0420009233 173 173 173 0.424822628 
0.220591366 -0.100465409 0.0763624385 -0.00108586706 255 255 109 0.418721467 
0.236020327 -0.105185129 0.0678225458 -0.000586656737 164 164 164 0.427811086 
0.227327645 -0.10619235 0.0705105513 -0.00741091743 166 166 166 0.424950063 
0.230025053 -0.111901641 0.05697098 -0.00245654164 153 153 153 0.439361215 
0.220629364 -0.106636152 0.0559209622 -0.00106262718 232 228 133 0.440478832 
0.22035566 -0.113936007 0.0503632575 -0.000708209118 253 247 121 0.446394295 
0.228024572 -0.103785694 0.0607458875 -0.000142367906 255 255 143 0.435343325 
0.229263753 -0.0993256196 0.0133412322 0.00329818903 107 224 107 0.485799611 
0.230656981 -0.100856476 0.0222859941 -0.0013518394 141 239 141 0.47627905 
0.226390004 -0.0971672982 0.00490233069 -0.00688696187 111 226 111 0.494781792 
0.218433887 -0.101718731 0.00482725631 -0.000580732711 255 250 247 0.494861692 
0.22962755 -0.0979727656 -0.00617327727 -0.00209538313 255 205 203 0.506570399 
0.222014606 -0.102492221 -0.00368751702 -0.000710453605 141 241 141 0.503924608 
0.229308546 -0.0820016712 0.0110365599 -0.00745227793 255 255 140 0.488252699 
0.21589905 -0.0881972983 0.0127765769 -0.0124778319 157 255 136 0.486400664 
0.235238343 -0.0925793946 0.0221745558 -0.0147094755 255 255 146 0.476397663 
0.229695767 -0.0850559101 0.00238286168 -0.00407922082 164 164 164 0.497463465 
0.224750519 -0.0913824439 -0.00205089734 -0.0183487292 176 176 176 0.502182662 
0.230134666 -0.0903167576 0.0148289558 0.00278713368 255 255 134 0.484216183 
0.223830462 -0.0890036076 0.00822577439 -0.0208355971 171 171 171 0.491244435 
0.226427227 -0.0766289085 0.000780691858 -0.013024956 168 168 168 0.499168813 
0.228598475 -0.0851563662 -0.0145391738 -0.00618924387 150 150 150 0.515474856 
0.218807161 -0.0834249407 0.00294505106 -0.0321915857 164 164 164 0.496865094 
0.222078145 -0.0873670429 -0.0205796156 -0.000836755033 139 255 126 0.521904171 
0.225849569 -0.0830552131 -0.00602667127 -0.019837914 114 244 111 0.506414354 
0.219075799 -0.0821389779 -0.0136578549 -0.0252635069 140 255 127 0.514536798 
0.22991848 -0.0946631059 -0.0147263473 0.00342144724 96 221 96 0.515674055 
0.221693456 -0.0929893553 -0.0110065276 -0.0198340304 93 220 93 0.511714816 
0.232539266 -0.0892252326 -0.00731559098 -0.0112302052 180 180 180 0.507786274 
0.217520326 -0.0868736878 -0.00546153728 -0.0377546065 103 239 96 0.505812824 
0.227589577 -0.0816166699 -0.0295530744 -0.000122002137 138 133 255 0.531455278 
0.228411913 -0.0784077495 -0.020729214 0.00735843414 136 255 122 0.522063375 
0.216204762 -0.0940373093 -0.0182884615 -0.000876483275 255 176 174 0.519465506 
0.234135538 -0.0817936361 -0.0359857306 -0.00368417054 120 235 119 0.538302064 
0.21908775 -0.0821366981 -0.0389985442 -0.00358848786 146 142 255 0.541508853 
0.231643319 -0.0714266747 0.00624837074 0.00130819925 255 255 147 0.493349135 
0.219154716 -0.074790284 0.00601197593 -0.0253396612 255 255 138 0.493600756 
0.225608349 -0.0737950057 0.0128116682 -0.000959270343 255 255 109 0.486363351 
0.218067586 -0.078501083 0.0151058808 -0.00560507644 255 255 123 0.483921438 
0.223952711 -0.0667359829 0.00417221896 -0.00289025833 255 255 145 0.495558977 
0.213988572 -0.0723979622 -0.0231601223 0.00339608383 141 234 152 0.524650812 
0.226498157 -0.0680823624 -0.00454424275 -0.00613921974 242 235 131 0.504836559 
0.231126636 -0.0695082098 -0.0137690324 0.00749996863 244 237 135 0.514655173 
0.222373635 -0.0747993514 -0.00925428048 -0.0243679471 234 227 151 0.509849787 
0.231226057 -0.075649716 -0.00697210804 -0.00369187631 186 186 186 0.507420659 
0.231163293 -0.068672955 -0.0314352177 -0.0350131467 146 142 236 0.533458591 
0.219055384 -0.0731453449 -0.0371647105 -0.0285616238 123 234 123 0.539556921 
0.229741186 -0.0669409484 -0.0225361697 -0.0136600127 136 255 116 0.523986697 
0.224418104 -0.0729720592 -0.0269538593 -0.0164949223 119 221 133 0.528688788 
0.235872388 -0.0809849948 -0.0253976136 0.00749999983 127 236 126 0.527032316 
0.218627393 -0.0792559534 -0.0302986279 -0.00316333072 115 233 114 0.532248855 
0.223001957 -0.0711923093 -0.0176756456 0.0025813689 215 208 160 0.518813312 
0.215239018 -0.081403479 -0.0219668932 0.00198257877 131 251 120 0.523380756 
0.227171361 -0.0722101927 -0.0511131808 -0.0289503895 143 250 143 0.554403365 
0.219367206 -0.0684255436 -0.0451118425 -0.0410813242 111 236 110 0.548015714 
0.233362466 -0.0681796148 -0.0456632897 -0.0352253877 158 158 158 0.548602641 
0.226456881 -0.0680721924 -0.0392932929 -0.0535091646 127 239 126 0.541822553 
0.230311513 -0.0759544075 -0.0419489853 -0.0274967197 96 227 96 0.544649184 
0.227246642 -0.084572427 -0.0424124002 -0.000560534711 96 228 96 0.545142412 
0.224188775 -0.074682638 -0.059501823 -0.00277258293 122 116 231 0.563332021 
0.209289968 -0.0763189942 -0.0370200127 -0.000274260528 131 238 132 0.539402902 
0.218358874 -0.0755100101 -0.0508485809 -0.0144685302 116 237 115 0.554121733 
0.230743706 -0.0594062135 -0.0174235813 -0.000264958828 199 255 130 0.518544972 
0.219575793 -0.0567321703 -0.018425934 -0.000753939967 164 155 175 0.519611895 
0.223102182 -0.0546683222 -0.0300857853 -0.0366821401 149 140 193 0.532022357 
0.214492232 -0.0573773235 -0.0286146551 -0.0203400068 117 111 232 0.530456543 
0.233029693 -0.0509575494 -0.0201918222 -0.00210527889 214 207 185 0.521491468 
0.222892523 -0.0492217429 -0.0225282554 -0.00752743054 128 119 192 0.523978293 
0.232514232 -0.0578096621 -0.0262870174 -0.0266321432 199 255 130 0.527979016 
0.230269492 -0.0491555296 -0.0311576519 -0.0294399858 146 137 189 0.533163249 
0.223201215 -0.0636135861 -0.0279849246 -0.0329926163 86 224 83 0.529786229 
0.221815467 -0.0407223329 -0.0278950259 -0.000729191757 161 153 204 0.529690564 
0.225241065 -0.0543925688 -0.0500975177 -0.0214459915 184 184 184 0.553322315 
0.216390848 -0.0492570624 -0.0452656113 -0.0274723116 134 127 254 0.548179388 
0.238701135 -0.0512592867 -0.0410083681 -0.0185104162 172 172 172 0.543648064 
0.222617775 -0.046330899 -0.0352925323 -0.0280641932 127 120 224 0.537564278 
0.231996745 -0.0595202446 -0.04292484 -0.0390961021 163 163 163 0.545687914 
0.239066422 -0.0406321138 -0.0436425507 -0.00358443148 151 147 255 0.546451867 
0.223223001 -0.0570314229 -0.04152935 -0.0486232154 184 184 184 0.544202566 
0.225304455 -0.047584597 -0.0439452976 -0.0324066207 178 178 178 0.546774089 
0.22891891 -0.0602826849 -0.0343270265 -0.0558081083 160 160 160 0.536536634 
