ply
format ascii 1.0
comment created by gply, a Houdini tool.
comment converted from .[b]geo
comment for more information about Houdini, try:
comment www.sidefx.com
element vertex 610
property float x
property float y
property float z
property float depth
property uchar red
property uchar green
property uchar blue
property float length
element face 0
property list uchar int vertex_indices
end_header
-0.0388735943 0.0144073591 0.0389413647 -0.0148666697 123 123 123 0.922771752 
-0.0374947824 0.0144742168 0.0388327688 -0.00769488513 85 315 83 0.921592772 
-0.0384198911 0.0144257564 0.0380408689 -0.013011259 73 245 72 0.912995458 
-0.0377357379 0.0142141189 0.0396588482 -0.000345667591 273 246 50 0.930561185 
-0.037526831 0.0142731648 0.0379600264 -0.00335917296 303 268 49 0.91211772 
-0.0381499901 0.0153749846 0.0402356535 -0.0227327608 240 204 55 0.936823368 
-0.0383854695 0.0148216467 0.0395649299 -0.026782617 286 254 59 0.929541588 
-0.0382581465 0.0144620892 0.0403811 -0.00117729628 290 255 66 0.938402414 
-0.0357121043 0.0103704333 0.0341665223 -0.000815008301 262 249 43 0.870933115 
-0.0353927165 0.0112203192 0.0341128334 -0.0284437928 263 250 47 0.870350242 
-0.0360079296 0.0106742922 0.0351872928 -0.000581769098 279 284 181 0.882015228 
-0.0366850346 0.0112338401 0.0353848264 -0.000932357041 260 246 29 0.884159744 
-0.0358801186 0.0116015412 0.0355516113 -0.0084812725 122 122 122 0.885970533 
-0.0359693319 0.0116463322 0.0346565209 -0.0263893101 293 279 47 0.87625283 
-0.0351101309 0.0115744993 0.034891963 -0.0260986909 113 113 113 0.878808916 
-0.0361913815 0.0117366463 0.0367662013 -0.000463342876 294 279 60 0.899156868 
-0.0364273526 0.0119565167 0.0339566283 -0.0202085879 104 104 104 0.86865437 
-0.0366263986 0.0120116826 0.0358412489 -0.0024384947 76 76 76 0.889114976 
-0.0348931439 0.0126512684 0.0341654755 -0.0216514543 90 90 90 0.870921791 
-0.0355540961 0.012082275 0.0362339318 -0.00315494859 100 100 100 0.893378198 
-0.0372831374 0.0124012213 0.034861505 -0.00614496693 267 266 258 0.878478289 
-0.0364068151 0.0123286322 0.0350340828 -0.008767833 301 287 56 0.880351901 
-0.0368589088 0.0129645038 0.0355340056 -0.0173995867 83 83 83 0.885779321 
-0.0358534679 0.0127037633 0.0356663205 -0.0213580485 105 105 105 0.887215853 
-0.0367924981 0.0131586194 0.0344767459 -0.00469436031 36 31 182 0.874301076 
-0.0351300016 0.0133548845 0.0346731208 -0.011261018 103 103 103 0.876433074 
-0.03625267 0.0120664369 0.0376003571 -0.000446685328 272 257 38 0.9082129 
-0.0370540693 0.0119461548 0.0366268381 -0.00141085905 284 270 47 0.897643805 
-0.0355990715 0.012391828 0.0370795801 -0.0158116054 268 254 40 0.902559102 
-0.0369260982 0.013004167 0.0370125659 -0.0285111815 277 234 23 0.901831567 
-0.0360650159 0.0132434145 0.0370722637 -0.0424103849 105 105 105 0.902479649 
-0.0363148972 0.0126113836 0.0364370421 -0.01687387 111 111 111 0.895583332 
-0.0354873426 0.0130013432 0.0364257954 -0.0223602075 96 96 96 0.895461142 
-0.0358131267 0.0128284208 0.038320519 -0.000435019494 256 80 78 0.91603142 
-0.0351205394 0.0125455223 0.0378233381 -0.000802867056 254 240 42 0.910633802 
-0.036641378 0.0142360628 0.0339983366 0.00371790072 193 193 190 0.869107187 
-0.0364487246 0.0143035986 0.0357630365 -0.0362717062 92 92 92 0.888265848 
-0.0364419781 0.0152171813 0.0344214626 -0.00105601351 253 99 97 0.873700857 
-0.0364263095 0.0160663016 0.0356531553 -0.00539232465 287 286 237 0.887072861 
-0.0350524485 0.0136615951 0.0337232389 -0.0124175567 264 263 247 0.866120517 
-0.0358036123 0.0138331261 0.0353697352 -0.0281249061 118 118 118 0.883995891 
-0.0354951583 0.0152162202 0.0344817862 -0.000130067259 279 278 246 0.874355793 
-0.0358808488 0.0153222904 0.0360642187 -0.0327668674 265 261 158 0.89153564 
-0.0366546065 0.0138573758 0.0350284912 -0.0114117572 95 95 95 0.880291164 
-0.0359900929 0.0131137576 0.0348737277 -0.024328595 104 104 104 0.878610909 
-0.0359973796 0.0154366195 0.0351887085 -0.0164204277 326 81 81 0.882030606 
-0.0367808528 0.0150432233 0.0353699997 -0.0256512277 287 286 277 0.883998752 
-0.03526612 0.0145743564 0.0352486968 -0.0241902806 113 113 113 0.882681847 
-0.0359504633 0.0138540231 0.0344118252 -0.0106181549 126 126 126 0.873596251 
-0.0361157544 0.0145691074 0.0349533074 -0.0234440248 48 234 39 0.879474878 
-0.0361363068 0.0135512985 0.0379149243 -0.0232652966 222 207 26 0.911628067 
-0.0362072401 0.0148164388 0.0367300138 -0.0411437154 104 104 104 0.898763955 
-0.0353236087 0.0134179555 0.0375549532 -0.0253794491 238 224 61 0.907720029 
-0.0353178605 0.0144577324 0.0376354679 -0.0196530372 287 38 37 0.908594131 
-0.0365124941 0.0139484052 0.0367206186 -0.041364681 102 102 102 0.898661911 
-0.0367090888 0.015511198 0.0363581404 -0.0205680598 116 116 116 0.894726634 
-0.036266014 0.0134191699 0.036035724 -0.0344954468 101 101 101 0.891226292 
-0.03533471 0.0148452185 0.0368273817 -0.0324225202 117 117 117 0.899821043 
-0.0370704792 0.0146211144 0.0372670703 -0.0158651043 264 259 139 0.9045946 
-0.0361889973 0.0143320058 0.037467517 -0.0354207233 260 257 165 0.906770706 
-0.0370187201 0.0146611761 0.0363658033 -0.0266500451 104 104 104 0.894809902 
-0.0356225111 0.0143461227 0.0360861346 -0.0418669283 252 252 244 0.891773582 
-0.0368383266 0.0149098169 0.0395938791 0.00173095474 228 212 61 0.929855943 
-0.0356360599 0.0147218779 0.0391605757 -0.00482721813 164 149 62 0.925151646 
-0.0366740637 0.0154755954 0.0381125771 -0.00249228533 207 193 83 0.913773894 
-0.0368165672 0.0134601984 0.0384929515 -0.000355133205 262 248 42 0.917903483 
-0.0359078236 0.0151155442 0.0378058068 -0.0135831377 47 45 110 0.910443366 
-0.036680501 0.0143037885 0.0382221714 -0.0124161383 261 246 60 0.914963722 
-0.0359727219 0.0140249692 0.0387031548 0.000464056269 213 198 44 0.920185626 
-0.036429055 0.0149407201 0.0387990922 0.00749165518 77 306 57 0.921227157 
-0.0355799235 0.0139847305 0.0369054377 -0.0413736068 102 102 102 0.900668442 
-0.0353167951 0.014722649 0.040643204 -0.00752715906 288 273 36 0.941248 
-0.037444219 0.0148191117 0.0402550101 -0.00060687348 213 193 54 0.937033474 
-0.0357295349 0.0154876262 0.0398347378 -0.0217078589 111 111 111 0.932470798 
-0.034828987 0.01052019 0.0340825021 -0.000491301704 296 307 287 0.870020926 
-0.0343741439 0.011194896 0.0352186337 -0.00100478332 257 245 42 0.882355511 
-0.0351627916 0.0105366427 0.0349175222 -0.000455165544 256 243 37 0.879086494 
-0.0351600684 0.0110714473 0.0356400982 -0.000734072295 267 254 44 0.886931181 
-0.0341514684 0.0110430028 0.0343605317 -0.0011014773 56 113 27 0.873039365 
-0.033836998 0.0117884986 0.0348127484 -0.000702300691 87 87 87 0.87794894 
-0.0347481892 0.0118134674 0.0359378196 0.00135055336 80 80 80 0.890163481 
-0.0344154797 0.0118919965 0.0341346785 -0.0226647779 224 271 59 0.870587409 
-0.0336873606 0.0124232005 0.0341032445 -0.000795292435 209 264 26 0.870246112 
-0.0354466774 0.0123959817 0.0348258242 -0.0189179108 93 93 93 0.878090858 
-0.0349618085 0.0125991721 0.03555521 -0.0115806861 114 114 114 0.886009574 
-0.034193635 0.0125641003 0.0350890979 -0.00880178064 250 251 42 0.880949199 
-0.0341897868 0.0134525262 0.0349665917 0.00119833415 188 276 181 0.879619181 
-0.0348063633 0.0123603847 0.0366511084 -0.00616660761 307 294 66 0.897907317 
-0.0346079171 0.0131074544 0.0371082351 -0.0131151006 252 238 57 0.902870178 
-0.0339871831 0.0127105471 0.0365306102 0.00609397516 288 241 33 0.896599174 
-0.0340846144 0.0137829985 0.0357950516 -0.00568819093 94 118 98 0.888613462 
-0.0343500748 0.0152568258 0.0354764313 0.00047731158 292 287 140 0.885154247 
-0.033418566 0.0132657401 0.0354841873 0.00394704333 126 277 62 0.885238528 
-0.0349141248 0.0137583353 0.0354444273 -0.0100230742 62 222 62 0.884806812 
-0.0350726843 0.0156767089 0.0351299271 -0.000399795477 281 278 197 0.881392419 
-0.0343480147 0.0144076776 0.0351831801 -0.00452829991 319 305 70 0.881970584 
-0.0345921144 0.0140239801 0.0344071798 0.00297091529 294 293 255 0.873545825 
-0.0345552675 0.0132684242 0.0379913859 0.00248945178 265 54 54 0.912458181 
-0.0350182019 0.0153498184 0.0375010818 -0.00333703891 266 266 258 0.907135129 
-0.033501029 0.0131723937 0.0371294431 -0.0153990788 231 218 35 0.903100371 
-0.0341399834 0.0151803046 0.037416324 -0.00401571626 286 285 259 0.906214952 
-0.034654174 0.0131862313 0.0361616276 -0.0137875294 282 93 91 0.892593205 
-0.0350361429 0.0150230452 0.0359930843 -0.0264511965 312 298 69 0.890763402 
-0.0340797566 0.0137036238 0.036691267 -0.00552589493 282 55 57 0.898343325 
-0.0344401039 0.0157202017 0.0367628559 0.00347977737 311 304 121 0.89912051 
-0.0345261358 0.0141724423 0.0373142697 -0.00484710233 117 117 117 0.905107021 
-0.034449175 0.0148273092 0.0366505273 -0.00424457062 282 61 62 0.897900999 
-0.0347854048 0.01407855 0.0362799615 -0.0179192498 282 55 57 0.893877923 
-0.0338816494 0.0146725737 0.035974551 -0.00322439056 173 171 137 0.890562117 
-0.034490712 0.0151743963 0.038866818 -0.0220773481 119 119 119 0.92196244 
-0.0336047448 0.0136798974 0.038932275 0.00212630234 128 114 92 0.922673047 
-0.0336945727 0.0145728216 0.0388927199 -0.00273556192 110 110 110 0.922243655 
-0.0351711065 0.0138940569 0.0383220054 -0.00433380064 314 299 61 0.916047573 
-0.0352944545 0.0151737407 0.0384613238 -0.00726316404 38 34 217 0.917560101 
-0.0336581394 0.013335567 0.0379997939 -0.00937202014 196 182 90 0.912549496 
-0.0338267051 0.0151936505 0.0382596813 -0.0140484245 110 110 110 0.915371001 
-0.0348026454 0.0143597759 0.0390850194 -0.00713430531 157 142 88 0.924331367 
-0.0342855528 0.0140012298 0.0384391584 0.00656863069 155 141 86 0.917319536 
-0.0345929004 0.0147638544 0.0380735099 -0.00328996847 105 105 105 0.913349748 
-0.0348873585 0.0141913164 0.0400149338 -0.00350467535 131 117 107 0.934427083 
-0.0338096023 0.0144183729 0.0377990454 -0.00956728496 118 118 118 0.910370052 
-0.0332129039 0.01492358 0.0395794101 -0.0112883737 115 115 115 0.929698765 
-0.0343574435 0.0151471328 0.0407327861 -0.0291841067 127 127 127 0.942220569 
-0.0340233892 0.0139528271 0.0399331115 -0.000410419743 92 82 147 0.933538795 
-0.0349698067 0.0150239896 0.0396843404 -0.0280552637 164 149 91 0.930837929 
-0.0350779332 0.0148990527 0.0414938442 -0.000431503635 51 43 153 0.950483084 
-0.0341015458 0.0148025006 0.0396613702 -0.0279216804 115 115 115 0.930588663 
-0.0343708284 0.0153532233 0.0418165103 -0.00664967578 137 123 84 0.953986168 
-0.034451399 0.014254706 0.0407997705 -0.00216370355 83 75 199 0.942947745 
-0.0339375697 0.0146813616 0.0414032787 -0.00366030657 62 58 249 0.949499846 
-0.0328445472 0.0109977219 0.0345695131 0.00124327769 92 92 92 0.875308216 
-0.0322583951 0.0104168914 0.0342085212 -0.0129355658 86 86 86 0.871389091 
-0.0322364829 0.0111561157 0.0352134407 -0.000993173569 182 307 67 0.882299125 
-0.0321490467 0.0118818711 0.0346891172 -0.00250957487 118 118 118 0.876606703 
-0.0319574438 0.0126342848 0.0338071883 -0.00242773723 56 152 70 0.867031932 
-0.0325062089 0.0126180816 0.0357405618 0.000255405059 98 98 98 0.888021886 
-0.0330443755 0.0123239532 0.0376561061 -0.000337082776 230 237 69 0.908818185 
-0.0317501277 0.0121359583 0.0376815982 -0.000335267221 153 252 65 0.90909493 
-0.0330933258 0.0124369785 0.0367654003 -0.00284541724 235 243 41 0.899148166 
-0.0319164805 0.0130168162 0.0377216972 -0.0288330168 147 231 69 0.909530342 
-0.0316125341 0.0126421824 0.0358487293 -0.00219905074 109 254 56 0.889196217 
-0.0328001045 0.0131855626 0.0377200022 -0.0280511733 192 191 180 0.909511864 
-0.03236508 0.0130462553 0.0369425565 -0.0310119111 194 244 36 0.901071489 
-0.0329798646 0.0131754689 0.0362645164 -0.0183382779 114 114 114 0.893710256 
-0.0323677957 0.0151596814 0.0358911864 -0.0273837671 89 89 89 0.88965714 
-0.0321817324 0.0141310394 0.0357180238 -0.0277748927 53 284 38 0.887777209 
-0.0317917913 0.0157937333 0.0356068052 -0.00802272372 285 269 32 0.886569679 
-0.0330409519 0.0149881858 0.0351448767 -0.000564309186 292 275 39 0.881554723 
-0.0323281586 0.0132713225 0.0351477191 0.000829911092 53 281 48 0.881585538 
-0.03219207 0.0152487084 0.0350138173 -0.000455995789 318 303 65 0.880131841 
-0.0334791727 0.0142182037 0.0353097543 0.000427794643 255 276 96 0.883344769 
-0.0326571688 0.0140890479 0.0349667594 -6.59136858e-05 285 135 133 0.879620969 
-0.0318313465 0.0144343227 0.0348896384 -0.000446589343 285 273 48 0.878783703 
-0.0331418142 0.0139493663 0.0374027379 -0.0279305894 100 91 252 0.906067491 
-0.0330717154 0.0152813662 0.0371352397 -0.0188273881 98 98 98 0.903163314 
-0.0315268338 0.0135505572 0.0371095836 -0.0441189781 118 118 118 0.902884841 
-0.0316670947 0.0151804183 0.0370525084 -0.042137105 101 101 101 0.902265131 
-0.0333342776 0.0140002873 0.0362295546 -0.0156253856 102 102 102 0.893330693 
-0.0330811068 0.014856847 0.0363427401 -0.0280668978 115 115 115 0.894559562 
-0.0321048647 0.0133385006 0.0361332744 -0.0275308248 45 39 276 0.892285407 
-0.0328890383 0.0157512911 0.0363910459 -0.0204732548 308 296 72 0.895083904 
-0.0336722024 0.0144844465 0.0369110294 -0.0124443416 100 91 252 0.900729179 
-0.0324245393 0.0146585386 0.0371287726 -0.0430390015 96 96 96 0.9030931 
-0.0325621888 0.0138902608 0.0366796441 -0.042964749 102 102 102 0.898217142 
-0.0318668708 0.0145708043 0.0364338458 -0.0511744246 291 279 53 0.895548582 
-0.0328756757 0.0149131976 0.0387465209 -0.0142002767 106 106 106 0.920656383 
-0.0312785618 0.0133483764 0.0391269438 -0.00103450427 68 85 136 0.924786508 
-0.032000307 0.0152336471 0.0388377123 -0.00423311442 90 90 90 0.921646476 
-0.033015836 0.0130938459 0.0385888442 -0.00760675175 172 158 95 0.918944657 
-0.032992553 0.0154296588 0.03801772 -0.021731453 98 98 98 0.912744045 
-0.03226953 0.0135420263 0.0383618213 -0.0299958643 76 66 114 0.916479886 
-0.0327870063 0.0158057883 0.0388082862 -0.0224115886 110 110 110 0.921326995 
-0.0331319943 0.0140866041 0.0382887647 -0.0134226577 126 126 126 0.915686727 
-0.0325726047 0.0141016804 0.0389923528 -0.0117488736 122 122 122 0.9233253 
-0.0322571546 0.013872521 0.0375257209 -0.0463315137 112 112 112 0.907402635 
-0.0323607773 0.0146545898 0.039670907 -0.00162888342 275 261 26 0.930692077 
-0.0324413888 0.0145942047 0.0380251333 -0.025623586 104 104 104 0.912824571 
-0.0318487063 0.0139328577 0.0395029373 -0.000489334227 54 49 228 0.928868532 
-0.0325552151 0.0154046342 0.041150108 -0.00806166604 60 58 304 0.946751237 
-0.0321347415 0.0149775408 0.0404787734 -0.000318014761 299 286 54 0.939462781 
-0.0331655778 0.0140150767 0.0396644957 0.00271120202 78 71 208 0.930622518 
-0.033667285 0.0154196043 0.0401792936 -0.0408893377 108 108 108 0.936211467 
-0.0330576301 0.0146609321 0.0412166007 -0.00019887666 41 39 280 0.947473109 
-0.0320296139 0.0154873524 0.0396996215 -0.00998920761 87 87 87 0.931003869 
-0.0336724594 0.0145721696 0.0404818691 -0.0155184539 73 69 263 0.939496517 
-0.0327985175 0.0143740568 0.0404039361 -0.000133341906 42 39 278 0.93865037 
-0.0314281285 0.00915838778 0.0341160148 -9.44481435e-05 77 258 58 0.870384693 
-0.0312914215 0.00965876412 0.0348512493 -0.00065024395 52 169 69 0.878366947 
-0.0303981323 0.00975868478 0.0348970443 -0.000576511084 45 234 38 0.87886405 
-0.0315792598 0.0110067464 0.0342371166 -0.0279802438 103 103 103 0.871699512 
-0.0306750629 0.010597907 0.0341166407 -0.0242076181 288 35 35 0.870391548 
-0.0302220266 0.0110007394 0.0355309434 -0.00065860257 296 281 60 0.885746121 
-0.0309786107 0.010267688 0.0354349874 -0.000342797022 96 138 60 0.884704351 
-0.0301126111 0.0111191776 0.0345868245 -0.0257356018 99 99 99 0.875496149 
-0.0309610646 0.0115069617 0.0356153101 -0.00295984745 114 277 79 0.886662006 
-0.0309499037 0.0109768063 0.0348841883 -0.0163821522 55 225 51 0.878724515 
-0.0297456589 0.0119358879 0.0344957225 -0.0143279862 127 298 52 0.874507129 
-0.0311991256 0.0120906178 0.0337263383 -0.0240896139 119 119 119 0.866154194 
-0.0305112097 0.0123391841 0.0342507958 -0.0248893108 117 117 117 0.871847987 
-0.0304693934 0.0120904855 0.0351142325 -0.0104642082 23 19 232 0.881222069 
-0.0311756413 0.01314901 0.0352468826 0.00533175003 282 277 139 0.882662117 
-0.0314902477 0.0127338748 0.0367357917 -0.0170439426 80 80 80 0.898826718 
-0.0306105409 0.0127093978 0.0365490392 -0.000593492296 59 214 50 0.896799207 
-0.0318113938 0.0128164981 0.0386337787 -0.00685255928 118 144 92 0.919432461 
-0.0306042489 0.0131707434 0.0385579765 -0.000195568835 76 210 82 0.9186095 
-0.0309776831 0.0125932712 0.0377470404 -0.00550810434 83 225 66 0.909805357 
-0.0313068442 0.0144539699 0.0356201008 -0.0194438472 284 271 40 0.886714041 
-0.0306890886 0.0135696772 0.036798045 -0.0225286577 53 205 56 0.899502575 
-0.0307301302 0.0149688199 0.0375139974 -0.0292722732 58 253 55 0.907275379 
-0.0301828403 0.0130495057 0.0373313092 -0.000677006668 103 103 103 0.905292034 
-0.0298532266 0.0151358191 0.0374089479 -0.00037272874 58 253 55 0.906134903 
-0.0313683189 0.0138368383 0.0362724438 -0.0347706899 76 295 57 0.893796265 
-0.0313673392 0.0152809266 0.0362132192 -0.0289264321 309 295 61 0.89315331 
-0.029856151 0.0138932336 0.0367077142 -0.000441989803 48 197 55 0.898521841 
-0.0315210819 0.0143872034 0.0374512412 -0.0513752736 108 108 108 0.906594038 
-0.0301373247 0.0147449356 0.036650382 -0.0101685282 290 275 39 0.897899389 
-0.0310247857 0.0146225672 0.0367375538 -0.0396581292 290 275 39 0.898845792 
-0.0303360019 0.0147118121 0.035773322 -0.00301963789 266 271 36 0.888377547 
-0.0311956462 0.0134979188 0.0379642099 -0.0293189604 69 205 66 0.912163138 
-0.0314518176 0.014925424 0.038168963 -0.0312918313 108 108 108 0.914386094 
-0.0300934222 0.0137373284 0.0379047915 -0.00542972609 239 58 55 0.911518097 
-0.0304072741 0.015529003 0.0381456949 -0.00554941688 305 290 54 0.91413343 
-0.0315811522 0.0141028706 0.0385075659 -0.0312730484 325 292 71 0.91806221 
-0.0307087395 0.01430941 0.0382274538 -0.0216227546 36 160 51 0.915021062 
-0.0310255978 0.0142323375 0.0392969474 -0.000471400097 66 63 270 0.926632226 
-0.0301973205 0.0152115133 0.0413157642 -0.00662853802 63 61 307 0.948549688 
-0.0303742532 0.0153443255 0.0422031246 -0.000692289905 108 108 108 0.958183467 
-0.0299259592 0.0101112183 0.0342184231 -0.00696858764 103 103 103 0.871496558 
-0.0281211697 0.010087302 0.0359603316 -0.000597553561 55 206 62 0.890407741 
-0.0289708469 0.0107638743 0.034670759 0.00647601299 59 162 59 0.876407385 
-0.0279117879 0.0109443013 0.0339779258 -0.0169448517 65 296 48 0.868885577 
-0.0286417343 0.0107857659 0.0357355811 -0.000461386633 68 304 56 0.887967765 
-0.0297273342 0.0104387943 0.0350323357 -0.000672931783 71 255 71 0.880332887 
-0.029430218 0.0113841631 0.035132926 0.00294906134 42 212 45 0.881424963 
-0.0287796054 0.0116996057 0.0344024748 -0.000896293379 39 242 39 0.873494685 
-0.0285373889 0.0115406942 0.0362135954 -0.000508331694 59 297 48 0.893157423 
-0.028546866 0.0125678014 0.0343732089 0.00015845662 281 70 68 0.873177052 
-0.028043706 0.0120485667 0.0356260911 -0.0212460253 312 298 62 0.88677907 
-0.0287921634 0.0121916365 0.0351528637 -8.65881448e-05 322 308 73 0.881641448 
-0.0282442607 0.0157167446 0.0391999371 -0.0231135432 122 122 122 0.925578952 
-0.0282870643 0.0139300879 0.0392151698 -0.000606748275 69 91 146 0.925744355 
-0.0288557094 0.015027836 0.0405669324 -0.00459744083 115 115 115 0.940419912 
-0.028352106 0.0148261078 0.0392483212 -0.0164448451 140 304 60 0.926104307 
-0.0288835764 0.0151140727 0.0414627343 0.0035813842 49 47 283 0.950145304 
-0.0288469717 0.0144374128 0.0398907475 -0.000253924052 118 268 56 0.933078825 
-0.0285326429 0.0141985789 0.0406990387 -0.000671773334 118 118 118 0.941854179 
-0.0279852822 0.0145938192 0.0417552777 -0.000219898502 75 69 232 0.953321278 
-0.0415283032 0.0157807581 0.0350985043 -0.000914660865 286 286 277 0.881051242 
-0.0419153236 0.0158406273 0.0359277613 -0.000618232414 271 270 261 0.890054226 
-0.0411824957 0.0164236296 0.0389553756 -0.00019362563 296 294 285 0.922923863 
-0.0410516262 0.0155840777 0.0392456315 -0.00126287597 330 315 78 0.926075101 
-0.040531598 0.0167624634 0.0404296704 -0.000507777208 311 297 65 0.938929796 
-0.0404401571 0.0175462291 0.0399981141 -0.000595880148 295 292 283 0.934244514 
-0.0399882607 0.0164864603 0.0368375517 -0.000350188784 50 300 50 0.89993149 
-0.0394024104 0.0166322067 0.0375012048 -0.0271020569 304 288 55 0.90713644 
-0.0407147929 0.0156070478 0.0373404287 0.00501527498 309 306 297 0.905390978 
-0.0395883173 0.0157595351 0.0371974707 -0.00514172623 76 76 76 0.903838992 
-0.0385679938 0.0158896875 0.0359218828 -0.000519956928 306 75 55 0.889990389 
-0.0408747233 0.0171998404 0.0392908901 -0.00201193849 277 275 266 0.926566422 
-0.0392308421 0.0168624278 0.0390652977 -0.0534177721 145 145 145 0.924117208 
-0.0406130739 0.0167890154 0.038366016 -0.0143760582 47 253 47 0.916525424 
-0.0394925401 0.0171267763 0.038246084 -0.0365272313 253 253 245 0.91522336 
-0.0410012044 0.0157689434 0.0383668728 -0.00301090674 94 94 94 0.916534781 
-0.0399201773 0.0163327958 0.0387102291 -0.0414647833 119 119 119 0.920262396 
-0.0402487703 0.0163382906 0.0376824848 -0.0166115295 293 293 284 0.909104586 
-0.0398496911 0.0159796085 0.0395347662 -0.0374767855 299 284 48 0.92921412 
-0.0393876284 0.0159557667 0.038093891 -0.0281945914 116 116 116 0.91357106 
-0.0391405225 0.0159727279 0.0389806032 -0.0487825945 139 139 139 0.923197746 
-0.0400403365 0.0161847547 0.0409121066 -0.000680245575 263 186 29 0.944167376 
-0.0392314531 0.0165654495 0.040259365 -0.0300275255 245 170 69 0.937080801 
-0.0406841412 0.0162775982 0.0396882929 -0.0117001776 282 267 31 0.930880904 
-0.0399197824 0.0168487523 0.0397548862 -0.0281169601 315 302 72 0.931603849 
-0.0393192694 0.0166649148 0.0411479995 -0.00150232541 245 170 69 0.946728349 
-0.039535258 0.0157200638 0.0403321795 -0.0232522022 311 245 71 0.937871277 
-0.0392400399 0.0157716125 0.0411788672 -0.000751972024 255 171 50 0.947063446 
-0.0393381268 0.0170919485 0.036727488 -0.000288288516 177 164 107 0.898736537 
-0.0401645415 0.0181817934 0.0390291736 -0.000389457331 297 61 51 0.923725069 
-0.0393398926 0.0185412187 0.0387228094 -0.000717002491 252 252 230 0.92039901 
-0.0398153439 0.0179712679 0.0382171422 -0.00917138159 259 259 251 0.914909184 
-0.0406330973 0.0176812913 0.0384476632 -0.000455623027 268 268 259 0.917411745 
-0.0400422253 0.0172268283 0.0389490165 -0.0263874792 295 279 42 0.922854841 
-0.0404591188 0.0172636416 0.0376172662 -0.0022813743 246 246 237 0.908396542 
-0.0394251533 0.0177674107 0.0393260755 -0.0225299969 30 174 39 0.926948428 
-0.0396179967 0.0175391752 0.0374546945 -0.00970304757 286 285 277 0.906631589 
-0.0388655551 0.0172432624 0.0397951566 -0.0340255611 101 101 101 0.932041049 
-0.0396910906 0.0180197041 0.0401540548 -0.00055488263 298 298 290 0.935937524 
-0.0397710092 0.0172233973 0.0405658223 -0.00681240158 313 301 93 0.940407872 
-0.0384451821 0.0170003306 0.0374397524 -0.0239596851 269 268 256 0.906469285 
-0.037654195 0.0168239456 0.0370299704 -0.00440156227 267 266 223 0.902020454 
-0.0385181271 0.0167590659 0.036576245 -0.000537834421 263 263 254 0.897094607 
-0.0387248844 0.0160524119 0.0373929217 -0.0204202682 119 119 119 0.905960977 
-0.0380974635 0.0159857962 0.0367551222 -0.00437151082 120 120 119 0.899036527 
-0.0383407995 0.0169865899 0.0389976986 -0.0499872752 257 252 117 0.923383415 
-0.0370084159 0.0165880453 0.0390653089 -0.0123787792 313 63 63 0.924117386 
-0.0378818735 0.0162965525 0.0377224013 -0.0231921896 91 91 91 0.909537971 
-0.0387712829 0.0165652614 0.038328018 -0.05168074 310 295 62 0.9161129 
-0.0378573462 0.0162654109 0.0387434885 -0.0432168581 137 137 137 0.920623481 
-0.0384096317 0.0157514382 0.0382049344 -0.0386135504 36 280 36 0.914776623 
-0.0388964005 0.0155418534 0.0397304781 -0.0437390208 297 242 62 0.931338906 
-0.03686269 0.0163840856 0.0372899212 0.00381778739 279 276 188 0.904842675 
-0.0372768044 0.0156319384 0.0399082266 -0.0159859229 61 57 240 0.933268607 
-0.0379095189 0.0162262004 0.0400927737 -0.029483024 102 90 118 0.935272157 
-0.037593361 0.0162001755 0.0409342274 -0.000189028447 291 91 89 0.944407523 
-0.0386460684 0.0163924452 0.0396008976 -0.0542203933 115 58 119 0.929931998 
-0.0376580991 0.0169285275 0.039586354 -0.029136857 233 222 118 0.929774225 
-0.0385751687 0.0161274057 0.0406918377 -0.0192496963 185 124 47 0.941775978 
-0.038807705 0.0177394282 0.037055973 -0.000872322707 191 178 99 0.902302742 
-0.0378204733 0.0183873922 0.0391152874 -0.000712302804 246 242 121 0.924660027 
-0.0390190259 0.0181384813 0.0378337502 -0.00716645736 275 274 256 0.910746872 
-0.0371979997 0.0178399961 0.0381627306 -0.000278204214 103 103 103 0.914318383 
-0.0386577286 0.0174583886 0.0382987969 -0.0344593786 247 245 186 0.915795684 
-0.0378518999 0.0171022099 0.0381171033 -0.0298161842 285 281 158 0.913823068 
-0.0380568914 0.0180685204 0.0380262546 -0.00807116926 66 253 55 0.91283679 
-0.037640769 0.0175309461 0.0388798863 -0.0217947066 242 237 101 0.922104299 
-0.0372281373 0.017865682 0.0396025367 -0.000710448832 277 271 116 0.92994988 
-0.0382906087 0.0179196969 0.0404752567 -0.00027011885 265 257 101 0.939424634 
-0.0386403203 0.0180419218 0.0389818326 -0.0192792304 258 256 179 0.923211098 
-0.0381976217 0.0170375835 0.0403597839 -0.0201096367 312 66 66 0.938170969 
-0.038110815 0.0177028961 0.0396227129 -0.0201829579 270 264 107 0.930168867 
-0.0387580991 0.0173494164 0.0409859158 -0.000298826693 247 231 80 0.944968641 
-0.035975676 0.0162572917 0.0373045951 0.00311770849 287 281 133 0.905001938 
-0.0372628383 0.0161990598 0.0365078859 0.00384256244 273 261 44 0.896352351 
-0.0354861468 0.0157383662 0.0367575176 -0.0152733056 289 283 125 0.899062634 
-0.0363759957 0.0163325872 0.0365118943 -0.000440816832 279 275 173 0.896395862 
-0.0356262736 0.0162608325 0.036018908 -0.000726682018 272 268 155 0.891043723 
-0.0363035426 0.0166075416 0.0384046361 -0.00121907936 141 141 136 0.916944683 
-0.035361208 0.0170956608 0.0393570922 -0.0389283448 11 263 11 0.927285135 
-0.0368316323 0.0170835909 0.0378528312 -0.000775906956 275 270 139 0.910953939 
-0.0355206653 0.0159066152 0.0379928276 -0.00758931832 313 300 72 0.912473857 
-0.0371144079 0.0162533708 0.0382364765 -0.0197427925 280 274 153 0.915118992 
-0.0360435247 0.0157459714 0.0386974178 -0.00849558972 47 44 257 0.920123339 
-0.0364689678 0.0155162849 0.0372272097 -0.0180239975 100 100 100 0.904161811 
-0.0365008749 0.0157522298 0.0394697562 -0.00289642531 288 77 75 0.928508341 
-0.0354914553 0.0164454896 0.0387448855 -0.0295997802 105 105 105 0.92063868 
-0.0360554568 0.0165295582 0.0394427255 -0.0134029891 125 185 34 0.928214788 
-0.0366576947 0.0163343754 0.040135581 -0.00248309621 56 52 274 0.935736954 
-0.0367230177 0.0171312913 0.0397238135 -0.000713556132 212 200 110 0.931266546 
-0.035812974 0.0170695707 0.0416472368 -0.000319180719 242 229 45 0.952148438 
-0.0364946276 0.0153996833 0.0402970202 0.00370095717 121 107 71 0.937489629 
-0.0358783528 0.0162159353 0.0405691937 -0.020355653 249 236 69 0.940444469 
-0.0354968607 0.0155845657 0.0410892144 -0.0142803425 101 90 153 0.946090102 
-0.0360213704 0.0162156019 0.041457478 -0.000123576086 231 218 41 0.950088322 
-0.0353357159 0.0180447381 0.0389862135 -0.0193053782 302 291 76 0.923258722 
-0.0357747599 0.01747136 0.0384495147 -0.0107962377 268 260 72 0.917431951 
-0.0365991108 0.0173505675 0.0388184972 0.00270023034 27 278 26 0.9214378 
-0.035286814 0.0168271363 0.0379553288 -0.0153612792 302 294 105 0.912066758 
-0.036033038 0.0176898967 0.0394299701 -0.0124185868 277 265 45 0.928076327 
-0.0356051102 0.0181490444 0.0406083502 -0.00947506912 289 276 64 0.94086957 
-0.0361308195 0.017486386 0.0403001606 -0.0105764139 263 251 73 0.937523663 
-0.0355409943 0.0170189384 0.0407932214 -0.025653908 242 229 45 0.942876697 
-0.0350562334 0.0188633688 0.0405733809 -0.00109581917 273 264 70 0.940489948 
-0.0348122567 0.0158885922 0.0359613076 -0.000446045859 319 74 74 0.89041841 
-0.0343421809 0.0169207416 0.0371535346 -0.000254997722 92 92 92 0.903361917 
-0.0330178216 0.0166780688 0.0370151885 0.00222157012 324 310 78 0.901859939 
-0.0351176187 0.0164701305 0.0371284746 0.00624620309 45 199 45 0.903089881 
-0.033668004 0.0155632757 0.035977643 -0.00196178188 288 278 70 0.890595734 
-0.034642458 0.016716551 0.0388734341 -0.051535286 82 82 82 0.922034264 
-0.0338937901 0.0163741913 0.0392104872 -0.0448289737 80 80 80 0.925693572 
-0.0349741951 0.0175030623 0.0374513008 -0.000234968931 294 284 77 0.906594694 
-0.0343149863 0.0168191493 0.0380453877 -0.0301220659 92 92 92 0.913044453 
-0.0347537249 0.0159231722 0.0384426117 -0.0274805557 266 266 258 0.917356968 
-0.0338728204 0.0160868652 0.0383612998 -0.0186506528 82 82 82 0.916474164 
-0.0344758779 0.0160554051 0.0375951454 -0.01333878 313 303 102 0.908156335 
-0.0351202488 0.0157995652 0.0392491035 -0.0398207046 38 34 217 0.926112771 
-0.0335948169 0.0158895273 0.037531957 -0.00762161659 112 112 112 0.907470345 
-0.0342990756 0.0156739503 0.0395920016 -0.0425659865 93 93 93 0.929835498 
-0.034676522 0.0167976823 0.0407088175 -0.0487902127 261 248 36 0.941960335 
-0.0336048938 0.0167797767 0.0409174711 -0.0443806984 127 127 127 0.944225609 
-0.0352903567 0.0163861457 0.0399108231 -0.0420541465 289 41 41 0.933296859 
-0.0350548364 0.0166108347 0.041500546 -0.0204890165 186 169 33 0.950555801 
-0.0345050506 0.0167980101 0.0397572219 -0.0666696504 80 80 80 0.931629181 
-0.0342603214 0.0170285646 0.0414812192 -0.0273735672 283 267 54 0.950345933 
-0.0350014791 0.0156381298 0.0403416976 -0.0393260047 79 68 114 0.937974632 
-0.0342255533 0.0160898902 0.0403827913 -0.0602820031 93 93 93 0.938420773 
-0.0346523114 0.0158880632 0.0411512293 -0.0319876298 52 48 247 0.946763396 
-0.0337418579 0.0157238413 0.0410469845 -0.03455754 50 48 284 0.945631683 
-0.0346331559 0.0166094806 0.0422949307 -0.000439375872 232 215 43 0.959180176 
-0.0337075889 0.0169339105 0.042242378 -0.00272814068 56 51 255 0.958609581 
-0.0351417363 0.0158223193 0.0419252813 -0.00285572489 64 61 283 0.955166996 
-0.0340524651 0.0161931291 0.0417487919 -0.019134406 52 50 296 0.953250945 
-0.0333827883 0.0156981628 0.0420977026 -0.000467304548 290 275 40 0.957038939 
-0.0343106352 0.0183780305 0.039033439 -0.0237330832 278 263 29 0.923771381 
-0.0336186439 0.0180689599 0.0384374261 -0.0205117632 300 285 48 0.917300701 
-0.0342239663 0.018580202 0.0380111896 -8.56972911e-05 290 275 41 0.912673235 
-0.0348055847 0.0175141655 0.0384900495 -0.0308295917 278 267 50 0.917872012 
-0.0350359716 0.0188820735 0.0388539322 -0.000494849635 307 294 64 0.921822608 
-0.0338135697 0.0172203537 0.0386664607 -0.0429617912 73 73 73 0.919787228 
-0.0337405577 0.0189859476 0.0386977047 -0.000480813673 302 287 51 0.920126438 
-0.034194503 0.0176941417 0.0378559232 -0.0148149794 318 303 66 0.910987556 
-0.0346590579 0.0176476594 0.0394257307 -0.0465752706 314 302 78 0.928030312 
-0.0347133391 0.0191300083 0.0396564901 -0.000858285581 284 269 35 0.930535614 
-0.0335576423 0.0173197072 0.0373416692 -0.00226283516 300 288 59 0.905404508 
-0.0331656002 0.0169025771 0.0393011793 -0.0371207371 101 101 101 0.926678121 
-0.0336020552 0.0191699732 0.0395674706 -0.000645878143 293 278 42 0.929569125 
-0.03337029 0.018741997 0.0405315831 -0.00771496445 311 296 60 0.940036178 
-0.0351291746 0.0183506031 0.0398368947 -0.0197910387 310 297 66 0.932494223 
-0.0337759368 0.0175279174 0.0395129099 -0.054318428 305 290 54 0.928976834 
-0.0346211046 0.0183612294 0.0416106321 -0.000112103648 310 296 62 0.951750994 
-0.0350961275 0.017528519 0.0402012691 -0.0390640125 282 271 65 0.936450005 
-0.0341176689 0.0173916481 0.0403263345 -0.0544376262 301 286 50 0.937807858 
-0.0341753401 0.0185847096 0.0401285626 -0.0202400293 302 287 51 0.935660779 
-0.034646824 0.0177322719 0.040970929 -0.0283596385 281 267 46 0.94480598 
-0.0336634666 0.0179280974 0.040888235 -0.0270969141 279 264 28 0.943908274 
-0.0340977795 0.018833518 0.0410515554 -0.00124012376 301 286 50 0.945681274 
-0.0343179666 0.0176727045 0.0421038866 -0.000452518492 288 273 44 0.957106113 
-0.0353659727 0.0178358555 0.0414987393 -0.00385797909 281 267 46 0.950536191 
-0.0329111442 0.0158033762 0.0354943797 -0.000432543107 304 293 76 0.885349154 
-0.0323469043 0.0162412487 0.0375769697 -0.00614412455 107 107 107 0.907959044 
-0.0321300775 0.0167643223 0.036879912 -0.000561294903 313 299 64 0.9003914 
-0.0336497277 0.0161384642 0.0366694555 0.000510250218 293 282 64 0.898106575 
-0.0320046656 0.0158302076 0.0365316272 -0.0272279475 285 272 39 0.8966102 
-0.0324107558 0.0163987055 0.035947863 -0.000300645799 287 274 43 0.890272379 
-0.0313907117 0.0162710249 0.0370184705 -0.0134120807 323 308 72 0.901895583 
-0.0325375609 0.0167002864 0.0387120433 -0.0132424086 98 98 98 0.920282125 
-0.0310581345 0.0173230954 0.0391598791 0.00143442315 59 57 309 0.925144136 
-0.0319614448 0.0170595646 0.0381253548 0.0028810536 301 286 50 0.913912654 
-0.0330847353 0.0163847599 0.0380724631 -0.00557110785 89 89 89 0.913338423 
-0.0320051238 0.0160323493 0.0384237729 -0.00344399922 83 83 83 0.917152405 
-0.0321217477 0.0154013317 0.0377983823 -0.0126987752 101 101 101 0.91036278 
-0.0331437774 0.016050633 0.0395950861 -0.0325702392 110 110 110 0.929868937 
-0.0312490258 0.0164346304 0.0381555185 -0.00027702222 297 282 45 0.914240122 
-0.0316625163 0.0167092998 0.0389024727 -0.0018692211 313 298 64 0.922349572 
-0.0327627473 0.0166644249 0.0401502922 -0.029626295 87 87 87 0.935896695 
-0.0318126082 0.0168657228 0.0406592563 -0.00815430935 94 94 94 0.941422284 
-0.0336566009 0.0166790467 0.0400284715 -0.0588879101 110 110 110 0.934574068 
-0.0331992358 0.0164656639 0.0416656174 -0.0168712735 66 64 314 0.952347994 
-0.032264743 0.016327681 0.0394814163 -0.0205118824 91 91 91 0.928634882 
-0.0321755931 0.0162847787 0.041249603 -0.00584938191 68 66 316 0.947831392 
-0.0327789336 0.0155400857 0.0402255356 -0.029519828 104 104 104 0.936713576 
-0.0329718553 0.0161478706 0.0408574603 -0.0333348177 274 25 25 0.943574131 
-0.0317905806 0.0170441996 0.0415416881 -0.00507677719 99 99 99 0.951002538 
-0.032938458 0.0183755625 0.0389374904 -0.0122882733 217 203 70 0.922729731 
-0.0329077207 0.0175226405 0.0385500863 -0.0236616582 299 284 48 0.918523729 
-0.0327671804 0.0171598699 0.0377376899 -0.00536972051 318 303 67 0.90970397 
-0.032697428 0.0176472384 0.039418608 -0.0284413155 322 308 71 0.927952945 
-0.0319001824 0.0175938942 0.0389840566 -0.00371727743 323 308 72 0.923235238 
-0.0327791572 0.0180792809 0.0406773835 -0.0146515062 299 49 49 0.941619039 
-0.0320085026 0.0182922632 0.0402661152 0.00353330071 145 56 131 0.937153995 
-0.0334109999 0.0183092225 0.0397422798 -0.0265044328 300 285 49 0.931466997 
-0.0337063484 0.0182233229 0.0417403914 -0.00096798205 106 106 106 0.95315975 
-0.0321566947 0.0183589458 0.0393824615 0.000322699198 240 227 36 0.927560568 
-0.0322462954 0.0179285128 0.0413867049 -0.00323983794 305 290 54 0.949319839 
-0.0332268439 0.0174450185 0.040225774 -0.0414603092 219 203 57 0.93671608 
-0.0323269926 0.0174518917 0.0402155854 -0.0142486403 104 104 104 0.936605453 
-0.032695137 0.0188122671 0.0399403833 -0.000290031428 307 292 56 0.933617711 
-0.0327547491 0.0170726478 0.0409520455 -0.0216218382 216 201 53 0.944600999 
-0.0329729244 0.018600719 0.0413826071 0.00616377825 279 264 28 0.949275434 
-0.0316529721 0.0193107147 0.04066002 -0.00109404209 106 106 106 0.941430509 
-0.0328430124 0.0178990755 0.0420596898 -0.000223016308 310 295 59 0.956626177 
-0.0321731605 0.018500587 0.0420832634 -0.0179258175 93 93 93 0.956882119 
-0.0332654454 0.0183558296 0.0427098759 -0.000658799428 60 233 60 0.963685036 
-0.0333671197 0.0173843727 0.0415414162 -0.017525332 94 94 94 0.950999558 
-0.0325801857 0.0170436911 0.0419693775 0.0035388004 127 127 127 0.95564574 
-0.0320785753 0.0191117544 0.041432213 -0.0165168885 322 307 70 0.949813962 
-0.0327030309 0.0191484541 0.0424073674 -0.0190615151 60 233 60 0.960400879 
-0.0319285728 0.0176412258 0.042192135 -0.00435946276 95 95 95 0.958064139 
-0.0322046354 0.0181083065 0.0429118127 -0.0297578089 90 90 90 0.965877414 
-0.0331600159 0.0179441553 0.0435030013 -0.000251114543 295 276 44 0.972295702 
-0.0328132473 0.0178318154 0.0444452204 -0.000349174137 63 61 313 0.982525051 
-0.0327095836 0.0173661336 0.0429809093 -0.00231463416 54 52 303 0.966627538 
-0.0326441936 0.0188199896 0.0432402939 -0.0255886558 299 278 47 0.969443619 
-0.0329691097 0.0186263006 0.0440572202 -0.00955816451 322 294 69 0.978312731 
-0.032156311 0.0174184479 0.043989826 -0.0129830716 63 61 313 0.977581084 
-0.0321503468 0.019165501 0.0441495031 -0.0347370096 320 285 67 0.979314566 
-0.0321295075 0.0177996792 0.0450297445 -0.00428988878 63 61 313 0.988870978 
-0.0324484035 0.0186061822 0.0447884426 -0.0128246564 258 241 39 0.986251295 
-0.0323365368 0.0191595573 0.0454880409 -0.000113934278 273 241 22 0.993846595 
-0.0328888744 0.019472491 0.0415887237 -0.000332612311 282 267 30 0.951513171 
-0.0322794542 0.019924242 0.0411079414 -0.000766951533 260 52 51 0.946293414 
-0.0314040445 0.0199327841 0.0413024426 -0.0195549056 321 296 68 0.948405087 
-0.0324832462 0.0201930702 0.0419383831 -0.0111138858 308 291 55 0.955309212 
-0.0319432542 0.019630583 0.0423859619 -0.0391936414 102 102 102 0.960168481 
-0.0334112346 0.0192084499 0.0429579765 -0.000369402929 293 271 42 0.96637857 
-0.0320672169 0.0209016595 0.0415696464 -0.000241521862 312 293 59 0.951306045 
-0.033196982 0.0199003387 0.0423990078 -0.000935042801 69 259 57 0.960310042 
-0.0318972021 0.0210273899 0.0429438762 -0.0186516084 297 267 43 0.966225505 
-0.0333446749 0.0194370728 0.0439564176 -5.69305848e-05 309 278 56 0.97721827 
-0.0321156532 0.0195946693 0.0433551036 -0.042055618 311 287 59 0.970690012 
-0.0326798335 0.0198463723 0.0444012545 -0.012186883 315 280 62 0.982047737 
-0.0331124365 0.0199918207 0.0432893038 -0.00676023588 309 273 55 0.96997571 
-0.0323907621 0.0202728286 0.0428311005 -0.0231567807 306 271 52 0.965001166 
-0.0329641327 0.0205737129 0.0439589359 -0.000107502216 313 280 60 0.977245629 
-0.0318354592 0.0200158004 0.0441397503 -0.0364883654 314 278 61 0.979208648 
-0.0315009654 0.0192721691 0.0458005928 -0.00413770135 263 246 33 0.997239828 
-0.0324219055 0.0200223494 0.0452430844 -4.36015325e-05 289 253 35 0.991187215 
-0.0314033553 0.0201662946 0.0457719304 -0.000339502119 286 250 32 0.996928692 
-0.0327573307 0.021008268 0.0431990847 -0.000387164415 303 268 48 0.968996227 
-0.0325446129 0.0210012589 0.0423268452 -0.000730406318 322 295 69 0.959526658 
-0.0321083032 0.020804882 0.0438042171 -0.0184572879 314 278 60 0.97556597 
-0.0319249295 0.0216574147 0.0435827263 -0.000306176837 296 264 42 0.973161221 
-0.0314798988 0.0164467506 0.0361407921 -0.000553701888 67 61 299 0.892367005 
-0.0307902638 0.015615603 0.0368595608 -0.0194487423 86 86 94 0.900170386 
-0.0306162406 0.0162477493 0.0374759361 -0.000490379054 310 295 59 0.906862199 
-0.0307427216 0.0158213694 0.0358610302 -0.00030675868 313 299 65 0.889329731 
-0.030670492 0.0163916051 0.0391652063 0.000989039778 205 189 63 0.925201893 
-0.0310469102 0.0150659904 0.0389599055 -0.00733530894 285 132 129 0.922973096 
-0.0312663317 0.0156685542 0.0376950502 -0.026778318 311 296 60 0.909241021 
-0.0314092785 0.015874818 0.0391159654 0.00373600028 289 273 36 0.924667299 
-0.0297915787 0.0165260844 0.0390242301 -0.000840081251 158 292 50 0.923671365 
-0.0308173131 0.0170393977 0.0408340581 -0.0237926394 120 120 120 0.943320036 
-0.0301458631 0.016461933 0.0403147489 -0.0361056365 93 93 93 0.937682033 
-0.0315951221 0.0168445334 0.0397905149 -0.00233415631 100 100 100 0.931990683 
-0.031239206 0.016261857 0.0410026386 -0.0164845213 130 130 130 0.945150197 
-0.0309600811 0.0162452646 0.0400041305 -0.0133178551 61 59 301 0.934309781 
-0.0300766584 0.0164718889 0.0412101708 -0.0404625237 79 79 79 0.947403371 
-0.0314917713 0.0156406108 0.0404040366 0.00433927728 86 86 86 0.938651443 
-0.0302609447 0.0156144127 0.0396803208 -0.00143923785 254 242 42 0.930794239 
-0.0310726147 0.015336005 0.0411364213 -4.22230114e-05 51 49 295 0.946602643 
-0.0304732975 0.0156601705 0.0405540951 -0.0156857409 31 29 270 0.940280616 
-0.0309346411 0.0168155674 0.0416990332 -0.00727495458 106 106 106 0.952710688 
-0.0303169917 0.0169961397 0.0423225872 -0.0195799284 297 273 46 0.959480405 
-0.0315055586 0.0165797975 0.0423532054 -0.00197461573 86 86 101 0.95981282 
-0.0308904853 0.016758943 0.0429850779 -0.00252615847 76 76 76 0.966672897 
-0.0315630101 0.015890874 0.0417771749 0.000136735034 30 28 277 0.953559041 
-0.0306776483 0.0159668941 0.0416369103 -0.0220184121 82 82 78 0.952036321 
-0.0309056249 0.0159327555 0.0426293053 -0.000240213092 62 60 310 0.962810278 
-0.0299995448 0.0161565896 0.042271398 -0.0146877933 279 255 27 0.958924711 
-0.0311015341 0.0164462198 0.0438067615 -0.00052884029 46 45 296 0.975593567 
-0.0301278364 0.0165942647 0.0439724252 -0.00377807533 66 64 316 0.977392077 
-0.0298505481 0.0181490798 0.0390705168 -0.00046694203 288 272 37 0.924173892 
-0.03016744 0.0173217393 0.0392165743 -0.0108514316 279 264 38 0.925759554 
-0.0306755286 0.018442871 0.03941641 -0.000866746414 280 265 29 0.927929223 
-0.0306151118 0.017887162 0.040611621 -0.00914496277 111 111 111 0.940905094 
-0.0303109977 0.0187148117 0.0402756333 -0.00782945286 108 108 108 0.937257469 
-0.031505242 0.0184330679 0.0412931517 -0.00827237219 93 93 93 0.948304236 
-0.0300418828 0.0179362874 0.0399185792 -0.0283753909 117 117 117 0.933381021 
-0.0303070229 0.0180299915 0.0419699289 -0.0468922891 114 114 114 0.9556517 
-0.0314130858 0.0177542772 0.0398626737 -0.00637353305 65 60 302 0.932774127 
-0.0306748692 0.0171311703 0.0399508439 -0.0268550422 92 92 92 0.933731258 
-0.029627718 0.0190405771 0.0397890434 -0.000376108306 277 39 38 0.931974769 
-0.0314885229 0.0177114699 0.0407565869 -0.00639081188 106 106 106 0.942478955 
-0.031178223 0.0185718928 0.0404650867 -0.00361147919 299 284 47 0.939314246 
-0.0299341213 0.0173016787 0.040544197 -0.0375171192 126 126 126 0.940173149 
-0.0298602413 0.0190209318 0.0409917012 -0.0137479678 106 106 106 0.945031464 
-0.0311334599 0.018370783 0.0421316959 -0.02204182 128 128 128 0.957408011 
-0.0312773921 0.0180124864 0.0429422483 -0.0218232088 110 110 110 0.966207922 
-0.0304829981 0.0175885651 0.0429719239 -0.0244875122 99 99 99 0.966530025 
-0.0310666393 0.0176937953 0.0415495634 -0.0190047938 52 150 74 0.951088011 
-0.0301901381 0.0173426867 0.0414046645 -0.0367670953 106 106 106 0.949514925 
-0.0306344163 0.0186359659 0.041390758 -0.0279705208 97 97 97 0.949363887 
-0.0310752336 0.0188760981 0.0430869497 -0.0503651686 114 114 114 0.967778802 
-0.0296639632 0.0177725982 0.042648349 -0.0273404922 81 81 81 0.963017106 
-0.0303993989 0.0187930092 0.0424380973 -0.0491892546 113 113 113 0.960734487 
-0.0309719536 0.0183775611 0.0438967571 -0.0530134179 110 110 110 0.976570666 
-0.0298208892 0.0177316535 0.0435649417 -0.0182766598 81 81 81 0.972968161 
-0.0317245275 0.0182670858 0.0443754531 -0.0339486934 63 61 313 0.981767654 
-0.0304483753 0.0177154187 0.0442090854 -0.0360323675 103 103 103 0.979961455 
-0.031805113 0.0172857773 0.0430091769 -0.0150957154 82 82 82 0.966934443 
-0.0317994244 0.0186015759 0.0435433984 -0.048481483 118 118 118 0.972734272 
-0.0311178621 0.0173962116 0.0435793661 -0.0254771523 78 78 78 0.973124802 
-0.0303237122 0.0184204932 0.0432740301 -0.0448615402 115 115 115 0.96980989 
-0.0313762799 0.0174181554 0.0444375575 -0.0196246821 52 50 302 0.982441783 
-0.0311059821 0.0191952791 0.0443859175 -0.0524883904 263 246 33 0.981881261 
-0.0300363172 0.0190779958 0.0438128449 -0.053915564 120 120 120 0.975659609 
-0.0308487322 0.0180407614 0.0449454226 -0.0260303989 63 61 312 0.98795563 
-0.0293942299 0.0185144711 0.0454817005 -0.00591893122 186 42 34 0.993777692 
-0.0302136447 0.0180875827 0.0458056629 -0.000502245326 289 254 35 0.997294903 
-0.0313723087 0.0174236372 0.0453363135 -0.000288380543 58 56 308 0.992199302 
-0.0314829126 0.0186427571 0.0451578014 -0.0218820423 45 43 295 0.990261257 
-0.0302498136 0.0172942858 0.0449884795 -0.00806380622 78 76 328 0.98842299 
-0.0303808618 0.018702019 0.0445537083 -0.0467873402 289 254 35 0.983702898 
-0.030980641 0.0185465496 0.0459103845 -0.00192086597 66 64 315 0.998431802 
-0.0302056875 0.0188977439 0.0454141349 -0.0195322447 36 34 285 0.993044198 
-0.0301954132 0.0195984747 0.0403899588 0.00409689825 299 284 48 0.938498676 
-0.0306093115 0.0195205007 0.0412295945 -0.0145769939 121 121 121 0.947614193 
-0.0308317151 0.0201751366 0.0406544879 -0.00103042438 314 285 61 0.941370487 
-0.0300840419 0.020608766 0.0409031175 -8.8034998e-05 298 283 47 0.944069743 
-0.0312421042 0.0191902574 0.0417775959 -0.0246704817 101 101 101 0.953563631 
-0.0302563105 0.0196369067 0.0421632864 -0.0401093587 119 119 119 0.957750916 
-0.0310643893 0.0196026694 0.0425574072 -0.0486540534 81 81 81 0.962029755 
-0.030385742 0.0195752475 0.0431495719 -0.0627319589 113 113 113 0.968458652 
-0.0315387547 0.0203750487 0.0420741476 -0.0302187055 312 293 59 0.956783235 
-0.0306747016 0.0203960445 0.0415436961 -0.0236351769 306 270 52 0.951024354 
-0.0307178292 0.0204265546 0.0424408168 -0.044091545 119 119 119 0.960763991 
-0.0298406444 0.020433655 0.0421730466 -0.0323885567 270 253 21 0.957856894 
-0.0312491786 0.0195972826 0.0435962379 -0.0662166998 114 114 114 0.973307967 
-0.0295409467 0.0197736528 0.0434123799 -0.0513417721 85 85 85 0.971311867 
-0.0317736641 0.0195177402 0.0448870473 -0.0265977923 281 243 27 0.987321794 
-0.0304826293 0.0198482145 0.044001624 -0.0594345406 120 120 120 0.977709115 
-0.0314118266 0.0202759579 0.0430364013 -0.0484853946 297 267 43 0.967230022 
-0.0305767972 0.0204367489 0.0433259569 -0.0518337339 317 286 63 0.970373631 
-0.0311316531 0.0205638595 0.0440224037 -0.0383557044 291 256 36 0.977934718 
-0.0304314923 0.0211302172 0.0440412238 -0.0234500933 292 260 38 0.978138983 
-0.0301340651 0.0197696406 0.0452060774 -0.0232854076 106 106 106 0.99078542 
-0.03063724 0.0194721706 0.0459553264 -0.00334512442 289 272 57 0.998919725 
-0.0316744521 0.0204119477 0.0449316837 -0.0157343335 314 277 60 0.98780638 
-0.0301002953 0.0204531401 0.0445775613 -0.0298138037 50 211 49 0.983961761 
-0.0308020618 0.0203692857 0.045136001 -0.0190406647 306 271 52 0.990024567 
-0.0313263386 0.0207993295 0.04107235 -0.000251258432 309 293 56 0.945906997 
-0.0299716424 0.0212651696 0.0415064022 -0.00057558011 304 286 53 0.950619459 
-0.0308715571 0.0214006957 0.0415613055 -0.000554290134 275 255 23 0.951215506 
-0.0303644855 0.0213995222 0.042304799 -0.0129458997 315 290 62 0.959287345 
-0.031233931 0.0211747512 0.0423525795 -0.0182943679 283 258 30 0.959806085 
-0.0295586586 0.0214401633 0.0436785407 -0.00925695617 294 265 40 0.974201441 
-0.0317436308 0.0212389603 0.0445849597 -0.00391280139 298 262 44 0.984042168 
-0.0311357733 0.0214237347 0.0432168469 -0.0172458645 283 252 30 0.969189048 
-0.0303443465 0.0217964482 0.0434221178 -0.00604313426 328 298 75 0.971417606 
-0.0308684167 0.0212222934 0.0448243842 -0.00738033233 308 278 56 0.986641467 
-0.0301313158 0.0209084526 0.0453974716 -0.000135116963 50 211 49 0.992863238 
-0.0284843184 0.01605336 0.0383528173 -0.000379444915 283 266 31 0.916382074 
-0.0290869512 0.0159693491 0.0390166678 0.0043994477 303 286 51 0.923589349 
-0.0292774569 0.0165891461 0.0405143984 -0.0179637782 101 101 101 0.939849555 
-0.0280544665 0.0169724692 0.0408736654 -0.0113188317 104 104 104 0.943749964 
-0.0295102429 0.0160990003 0.0397946946 -0.01321196 79 107 188 0.932036102 
-0.0292034019 0.0165557414 0.0414112695 -0.0228508431 110 110 110 0.94958657 
-0.0286044646 0.0165505558 0.0396341942 -0.00556458486 95 95 95 0.93029356 
-0.0283757709 0.0163587853 0.0416857637 -0.00262517622 125 125 125 0.952566683 
-0.0296417568 0.0153935719 0.0403380282 -0.00802145246 206 125 70 0.937934816 
-0.0287199505 0.0157185234 0.0399909876 -0.00949524809 119 119 119 0.934167087 
-0.0294771735 0.0157309938 0.0411605462 -0.0183020569 112 112 112 0.946864665 
