ply
format ascii 1.0
comment created by gply, a Houdini tool.
comment converted from .[b]geo
comment for more information about Houdini, try:
comment www.sidefx.com
element vertex 618
property float x
property float y
property float z
property float depth
property uchar red
property uchar green
property uchar blue
property float length
element face 0
property list uchar int vertex_indices
end_header
-0.532466888 0.131291837 0.623170435 -1.24258804e-07 158 150 261 0.769733071 
-1.17694235 -0.326730311 -0.24770391 -0.0314934775 93 257 35 0.486090392 
0.203054547 0.0800165981 0.361459702 -0.00301970192 105 105 105 0.684494197 
1.20691323 0.0313009135 0.0149433259 6.64041145e-05 88 88 88 0.571634293 
-0.553620696 0.200522795 0.872570515 -0.00444446737 82 82 82 0.8509624 
-0.263673067 0.444189459 0.986771405 3.24839493e-06 251 251 243 0.888157487 
1.51707411 0.0379995182 -0.0325913578 1.05047548e-05 131 46 207 0.556152284 
0.663074017 -0.551597595 -0.808329165 4.68312355e-05 54 304 54 0.303495467 
-0.366267115 -0.368894905 -0.197199717 -1.09954271e-07 295 46 46 0.502539575 
-1.07309175 -0.405845731 -0.258927464 1.36017334e-05 44 203 44 0.482434899 
-0.174491405 0.521312058 1.19026244 6.39918289e-05 52 213 51 0.954434216 
-1.09866095 0.462104023 1.1107465 0.000130442437 68 65 304 0.928535998 
-0.376805067 0.146394372 0.677029729 -1.24055077e-07 65 265 63 0.787274957 
0.0349718928 0.220861986 0.670391619 -6.58328645e-08 106 279 39 0.785112977 
0.112624735 0.150700852 0.302750617 -0.00958644133 104 104 104 0.665372789 
-0.0677262247 0.281131893 0.652336836 4.92343679e-06 64 276 48 0.779232502 
-0.863588274 0.317506015 0.848723054 -6.5745553e-08 306 294 72 0.84319526 
0.716223419 -0.401155204 -0.450504869 4.4660701e-05 265 32 32 0.420038372 
0.317834169 0.0551105179 0.0259388946 9.60917823e-05 73 67 306 0.575215518 
-0.985986829 0.153761074 0.592704237 -8.38190317e-08 199 199 194 0.759810269 
0.383376181 0.133822486 0.247322232 -9.93313733e-08 301 287 53 0.647319794 
-0.176673308 -0.382269353 -0.354008913 3.39142862e-05 298 46 46 0.451466978 
-0.534469366 0.401926041 1.11056864 -0.00914560258 118 118 118 0.928478062 
-0.931123376 0.0604790598 0.729254365 2.04887256e-05 32 164 36 0.804284453 
0.293209165 0.043404486 0.15313682 -8.8068191e-08 224 231 28 0.616643727 
-1.20370007 0.388959169 0.89983362 6.83580874e-05 259 258 230 0.859841883 
0.466345489 -0.638081014 -1.35250747 2.22260132e-06 81 81 81 0.126257271 
0.194056302 -0.541932523 -0.875160992 4.87849757e-05 202 195 295 0.281728417 
0.223846719 -0.485235453 -0.597974181 -9.38889571e-08 287 281 93 0.372007817 
-1.15294909 -0.403234243 -0.397960812 -9.10658855e-08 108 108 108 0.437151909 
1.54450297 -0.0177636724 -0.0647391155 3.91547801e-05 295 298 286 0.545681775 
-1.16017509 -0.267617047 -0.234390587 -0.00458720699 110 110 110 0.490426511 
-1.56175148 0.332880676 0.75903213 -1.15629518e-07 293 178 41 0.813983023 
-0.891568363 0.328803748 0.902635872 -7.7590812e-08 295 282 50 0.860754609 
0.441998303 -0.6043365 -0.906446874 -1.1199154e-07 98 98 98 0.271538645 
0.693508744 -0.495497614 -0.662364185 4.76995774e-05 98 302 96 0.351036102 
0.599363804 -0.518616796 -0.862380624 1.22493948e-05 307 56 56 0.285890967 
-0.0182767287 0.3288517 0.693329453 -1.3015233e-07 87 292 86 0.792583764 
0.0420541689 0.123515762 0.445289791 -0.00233455026 51 222 51 0.711797535 
1.05306637 0.0315105766 -0.0249461811 -6.05120731e-05 284 283 271 0.558642268 
-0.0528528802 -0.193543658 -0.0384670943 -1.04890205e-07 139 60 102 0.554238558 
1.0270071 0.0169712789 -0.155095145 -1.23865902e-07 286 278 96 0.516252995 
-0.882528901 0.512253284 1.10941696 1.65426172e-05 284 267 42 0.92810297 
0.6844877 -0.526555002 -0.764172196 -1.27009116e-07 25 279 25 0.317877322 
-1.16333687 0.250907689 0.76750499 4.08967026e-07 273 273 264 0.816742659 
-0.129466578 -0.457097232 -0.4728719 6.36627374e-06 255 76 90 0.412753463 
-0.193676665 0.109656259 0.595186472 -0.00377795123 115 115 115 0.760618687 
-1.13208556 0.419057786 1.09844482 -0.00247363164 122 122 122 0.924529314 
0.0972557366 0.0109746754 0.323361278 5.74043952e-07 241 229 43 0.672085583 
-1.61894917 0.294633269 0.874598324 -0.00500480039 67 67 67 0.85162282 
1.01959753 0.0662183911 -0.100469664 -9.49075911e-08 310 299 81 0.534044385 
-1.07904613 -0.298778087 -0.24745445 -0.0117118526 81 74 314 0.486171663 
-0.00945389364 0.0437322967 0.18543008 5.7314639e-05 273 280 264 0.627161562 
-1.37821198 0.352451682 0.976516306 -0.00283799088 109 109 109 0.884817362 
1.20366466 0.04168652 -0.00337807438 6.15838217e-05 82 82 82 0.565667033 
-0.995605052 0.0304140858 0.574530005 3.20526888e-05 69 268 68 0.753890932 
0.0721292719 0.0831362903 0.349764705 2.61352398e-06 306 292 61 0.680685163 
-0.0740146488 0.306643784 0.780363858 -0.00282057049 108 108 108 0.820930779 
-1.3817184 0.460284442 1.15737689 6.63660467e-06 290 215 52 0.94372344 
-0.329927534 -0.567790508 -0.638627112 3.47466485e-05 267 19 19 0.358767182 
-0.156649783 -0.43985334 -0.533610523 3.00332904e-05 306 53 53 0.392970979 
1.15414202 -0.483308852 -0.860432744 -6.67059794e-08 94 89 80 0.286525398 
-1.17680931 -0.293467999 -0.235744283 -0.011129248 78 78 78 0.489985645 
-1.59616745 0.347268611 0.857532144 -0.035584338 112 112 112 0.846064389 
-1.15746665 0.472308695 1.03733993 -0.00269857026 103 103 103 0.904627502 
0.0595076941 0.0387622453 0.270351678 -0.00280089746 51 157 72 0.654820502 
-1.41696358 0.459480166 1.01640713 -1.0032818e-07 288 287 278 0.897809744 
-0.774550021 0.182717323 0.788205504 -0.0234798528 114 114 114 0.823484778 
-0.136107698 0.270201266 0.779669642 -0.00280960719 122 122 122 0.820704639 
-0.875236392 0.190253794 0.813494265 -0.0387255177 96 96 96 0.831721306 
-0.930894494 0.513975322 1.07100034 -7.01838871e-08 299 282 52 0.915590644 
1.08758223 0.101947546 -0.00367732788 -8.3247869e-08 327 312 75 0.56556952 
0.164574027 0.0728757754 0.18770197 -0.0281686001 131 131 131 0.627901554 
0.0392804742 0.310656637 0.522882342 4.72608226e-05 69 306 68 0.737069368 
0.878627717 -0.573306262 -1.0429796 -7.11297616e-08 55 51 257 0.227070108 
-0.943049669 -0.159309015 0.17105101 -1.10012479e-07 61 242 63 0.622478366 
0.866541266 0.0445059091 0.0695628747 2.27463897e-06 295 285 84 0.589423776 
0.175780773 -0.0413974598 0.239566803 2.16898043e-05 240 228 35 0.644793868 
-0.295013636 0.425270408 0.980704546 8.90344381e-06 125 125 125 0.886181414 
-0.189375132 -0.39844498 -0.350285262 -1.20380719e-07 55 50 246 0.452679783 
-0.952664256 0.150815099 0.81912744 -7.64848664e-08 61 214 60 0.833555996 
-0.52461642 0.53225708 1.19017768 -1.11111149e-07 296 107 45 0.954406559 
-0.554774463 0.191201553 0.781567693 -0.0199449733 284 271 67 0.821322858 
0.96708554 -0.074398987 -0.132110581 -0.00338952709 137 137 137 0.52373898 
0.10731145 0.0861007497 0.37343359 -0.0029535261 155 224 81 0.688394129 
-1.19924068 0.48529011 1.03288996 0.000134568661 83 117 121 0.903178215 
-0.29199177 -0.333628684 -0.274764001 -9.63918865e-08 255 47 47 0.477276981 
0.541985333 0.0404245891 0.0338071957 -9.12696123e-08 110 110 110 0.57777822 
-1.1624912 -0.343313098 -0.273731798 -0.0426250212 91 91 91 0.477613121 
-0.946790516 0.380434901 1.15688145 1.23138598e-05 84 72 102 0.94356209 
0.722655356 -0.568560302 -0.891217828 -0.00400038995 91 91 91 0.276498735 
-0.379737765 0.227750555 0.835444629 -1.24273356e-07 67 122 90 0.838870466 
0.0532308519 0.0609954186 0.148527622 -9.93022695e-08 119 119 119 0.615142524 
0.711338401 -0.486551046 -0.647885382 -1.05239451e-07 274 258 20 0.355751783 
-0.339848787 0.457772583 1.09518325 -8.30041245e-08 278 263 255 0.92346704 
-0.986532927 0.53989929 1.12552369 1.32909627e-05 298 274 46 0.933348894 
-0.0378956981 0.0174923018 0.260016501 1.74110755e-06 160 279 41 0.651454329 
-1.17423046 -0.282288641 -0.27689299 -0.0398925915 109 109 109 0.47658354 
-0.542208374 0.423739791 1.20289528 5.5535711e-06 290 274 40 0.958548725 
-0.893022895 0.272242934 0.895703197 9.99037875e-05 308 295 64 0.858496666 
0.137409419 -0.574359953 -0.820933163 -0.0227866787 83 83 83 0.299390346 
0.288594812 -0.328476936 -0.499049991 2.3853383e-05 66 61 296 0.404227287 
-0.13054584 0.151787028 0.510225892 1.74256274e-05 111 51 129 0.732947171 
-0.790122509 -0.0342880636 0.516848743 1.40984775e-06 27 31 197 0.735104203 
0.201657072 -0.0837921649 0.0303171687 -9.34815034e-08 104 130 90 0.5766415 
-0.319580674 0.208606139 0.810667515 2.44002149e-06 55 175 69 0.830800653 
0.326634735 -0.0845134109 -0.0600251704 -0.00439571589 87 87 87 0.547217131 
0.0172848646 0.20392327 0.662822545 -1.12573616e-07 87 300 56 0.782647729 
0.307026565 -0.029425703 0.0899156034 -1.00699253e-07 149 260 53 0.596052647 
-1.13626289 -0.252961367 -0.246577352 -0.0113716545 116 116 116 0.486457318 
-0.929725826 0.320856571 0.888071775 -7.36445145e-08 296 282 50 0.856011033 
-0.770084441 0.151724637 0.78842473 -0.00249274913 119 119 119 0.823556125 
-0.59375912 -0.479698837 -0.500555992 9.76200681e-06 54 229 55 0.4037368 
-0.364773601 0.361279309 1.03581142 -0.00739644188 123 123 123 0.904129744 
-0.327496409 0.200793758 0.754506707 -0.00796174165 301 250 247 0.81250912 
-1.07830024 -0.307023197 -0.263525188 -0.00515024783 106 106 106 0.480937451 
0.14467822 -0.19226785 -0.131339952 2.55255727e-05 49 46 258 0.523989975 
-0.971382737 0.285675615 0.871385217 -1.04424544e-07 293 279 47 0.850576282 
-1.53595316 0.322841942 0.908810735 -0.0122942142 90 90 90 0.862765729 
-1.22933257 0.28753069 0.967001975 1.18834214e-06 271 257 48 0.881718576 
-0.949053109 -0.358525932 -0.0990993828 7.93163781e-06 49 48 302 0.534490705 
0.0217137523 -0.480954051 -0.558930099 9.74803697e-06 144 144 143 0.384724438 
0.368600309 0.144886315 0.236793637 1.52940047e-05 322 307 73 0.643890619 
0.114489622 0.159539893 0.343371838 -0.00258810329 113 113 113 0.678602993 
-0.334262609 0.142496839 0.72355926 0.00011262676 45 162 61 0.802429557 
-1.14138949 -0.409470111 -0.385394186 -9.2702976e-08 48 196 47 0.441244841 
-0.91405195 0.20999822 0.707856297 -0.00534747448 102 102 102 0.797315121 
0.867587686 -0.477034181 -0.56340766 1.67876715e-06 299 300 297 0.383266091 
0.397035807 -0.399749279 -0.431992084 5.85980015e-05 90 77 264 0.426067978 
0.629086316 0.0880181193 0.12583822 2.71988538e-05 76 35 105 0.607752562 
-1.17200422 0.175954327 0.642706454 -8.4633939e-08 264 264 256 0.776095927 
-0.65697211 0.142094642 0.660971045 -0.0029062056 117 117 117 0.782044649 
-0.780400336 -0.0631964058 0.306016296 -1.07684173e-07 57 100 118 0.666436374 
0.917335331 -0.509803951 -0.76241082 1.2360164e-05 311 58 58 0.318451017 
0.0925784633 -0.202597409 -0.212122366 -0.00278342585 133 133 135 0.497679263 
0.912836254 -0.000719789881 -0.0247793328 1.88707781e-06 280 282 232 0.558696628 
-1.13928056 -0.412833482 -0.363444805 3.15678844e-05 48 195 48 0.448393732 
-0.310972244 0.277576864 0.808081985 -0.00856985152 122 122 122 0.829958498 
-0.947012782 -0.442848295 -0.331361502 5.30825055e-05 55 207 55 0.458843201 
-0.630811691 0.214196056 0.950574458 6.85773557e-05 248 236 36 0.876368165 
-0.393750548 -0.469517708 -0.447669744 -7.03611295e-05 279 198 193 0.420961767 
0.16507636 0.115250133 0.374265015 -0.0262751281 101 101 101 0.688664913 
0.752913415 -0.596231937 -1.22568202 2.14789179e-06 53 43 216 0.167564169 
0.014520783 -0.311317354 -0.271298587 2.24258547e-05 321 89 90 0.478405654 
-1.0226227 -0.240405783 -0.0716053396 -1.02329068e-07 294 279 41 0.543445468 
-0.431520462 0.317530006 1.06937051 1.57763716e-05 320 306 78 0.915059805 
0.521570683 -0.0749530718 -0.0508823842 2.39948276e-05 214 78 68 0.550194919 
-0.0615601353 0.0738586187 0.451801181 2.7550268e-06 97 226 41 0.713918328 
0.438382 -0.581450582 -0.900808275 1.48813124e-05 52 304 52 0.273375124 
-1.35535097 0.307045192 0.80827105 2.69870507e-05 248 248 241 0.83002013 
0.13430582 0.0911357552 0.184810892 -0.0220702533 102 102 102 0.62695992 
0.630035937 0.165464967 0.227288306 8.42451573e-06 23 176 22 0.640794754 
-1.11169744 0.443493485 1.14615071 -1.92027073e-07 107 107 107 0.940067053 
0.834085464 -0.50901252 -0.775967479 2.4839188e-05 297 45 45 0.314035624 
-0.753187954 0.327152371 0.859007657 3.66896566e-05 292 279 55 0.846544981 
0.255019546 -0.610107422 -0.855446219 5.84725422e-05 59 311 59 0.288149506 
0.624676585 -0.362071872 -0.422232866 2.1874439e-05 102 102 103 0.429246545 
-0.885289848 0.312552005 0.90683639 -7.04312697e-08 67 297 48 0.862122715 
-0.0835778788 -0.333566725 -0.357875794 3.32337804e-05 306 55 55 0.450207531 
-1.0187782 0.499333918 1.2073071 -0.00940985791 82 82 82 0.959985614 
0.0845863894 -0.0162334032 0.215981781 -0.00769180804 97 97 97 0.63711226 
-0.938725114 0.193732306 0.728352129 -0.022832837 81 81 81 0.803990602 
0.709062457 -0.594012737 -0.940494835 -1.24149956e-05 35 262 34 0.26044926 
0.407169133 -0.441850543 -0.514627755 6.09469134e-06 93 93 93 0.39915362 
-0.666356146 0.229550123 0.781534791 -0.0352338329 84 84 84 0.821312129 
-0.920611739 0.154792219 0.787397861 -0.00431257114 97 87 138 0.823221743 
1.13294148 -0.469267398 -0.838119984 7.7015211e-05 267 97 108 0.293792635 
-0.2846874 0.182651833 0.702251494 -8.42956069e-08 101 101 101 0.795489669 
-0.665856957 0.248824418 0.784193456 -0.023543179 82 82 82 0.822178066 
-1.04962051 -0.232214704 -0.0917809084 -1.01746991e-07 304 289 51 0.536874294 
-0.185075715 -0.352614641 -0.443094134 -1.04337232e-07 305 53 53 0.422452033 
-0.0382127874 -0.355557442 -0.325292498 -9.25792847e-08 32 29 236 0.4608199 
0.232709438 0.00252410118 -0.103907041 1.1033917e-06 73 67 307 0.532924891 
0.860386372 -0.112578236 -0.185137182 3.25873843e-05 265 265 257 0.506468296 
-0.0567014627 0.318863899 0.672131896 -7.88422767e-08 61 250 58 0.785679758 
0.23893854 0.299058378 0.59341079 4.55308473e-05 67 282 35 0.760040402 
-1.12745953 0.344841093 1.06867349 7.59377599e-07 187 216 74 0.91483283 
-1.22171664 0.188531503 0.808075726 -1.1199154e-07 136 178 59 0.829956532 
-0.847916424 0.302338421 1.06082702 1.09545363e-06 247 234 53 0.912277222 
0.172085449 -0.0195995849 -0.0178423263 2.0978041e-07 54 49 293 0.560956061 
-1.22243905 0.35261637 1.05946648 -1.00488251e-07 254 240 42 0.911834121 
-0.996855915 0.283566535 0.98702985 3.6341371e-06 63 238 65 0.888241649 
-0.36306569 -0.377357185 -0.284689486 -0.00290861633 112 112 112 0.474044234 
-1.00489163 -0.328552067 -0.100233831 1.39834265e-06 47 212 47 0.534121215 
0.987529993 -0.0856615454 -0.026934512 8.86738053e-06 52 304 51 0.557994723 
0.407946706 0.20242323 0.372561425 -9.29285306e-08 260 271 251 0.688109994 
-0.232218146 -0.434432566 -0.387591898 2.49764853e-05 49 46 253 0.440529048 
1.06118488 -0.448513538 -0.875930727 3.83905135e-05 315 63 63 0.28147772 
0.818204582 -0.496547759 -0.706777871 2.18075729e-06 255 255 248 0.336570561 
0.949430525 -0.496418804 -1.03197217 9.50065441e-06 298 49 48 0.230655223 
0.0406800397 0.058022704 0.215935066 -0.00285615982 106 106 106 0.637097061 
-0.605115831 0.123659454 0.840690613 -1.67638063e-08 59 58 193 0.840579152 
-1.58716249 0.41831249 0.991834342 -7.85803422e-08 290 260 36 0.88980639 
0.613860786 -0.47043547 -0.834915042 -9.21427272e-08 311 63 63 0.294836462 
-1.58048499 0.278163999 0.818088889 -0.00445083296 122 122 122 0.83321774 
0.556148708 -0.584935546 -1.46584928 0.000114982569 154 145 281 0.0893419906 
0.487993777 -0.617303133 -1.05450332 -1.11554982e-07 279 252 239 0.223316848 
0.674745679 -0.543195844 -0.772509634 1.34459697e-07 13 266 13 0.315161824 
-0.938281715 0.229576662 0.773461938 -0.00273733516 121 121 121 0.81868279 
-0.86286515 0.0708155036 0.513942957 6.39260979e-05 287 61 59 0.734157801 
-1.10710132 0.337160259 1.04086721 2.23949246e-06 150 263 64 0.905776381 
0.539653718 -0.136916712 -0.103823088 -1.18627213e-07 289 36 36 0.532952189 
-0.165589735 0.0929956958 0.57016629 -0.00247315969 38 187 37 0.752469659 
-0.657597542 0.0789066255 0.720389485 1.57426421e-05 301 52 52 0.801397204 
-0.477000087 0.113394089 0.656683624 -1.12457201e-07 89 163 67 0.780648232 
0.520608127 0.00271167071 -0.0670202896 -1.0956137e-07 77 69 280 0.544938803 
-0.608866751 0.340915501 0.979798019 -0.00239451486 99 99 99 0.885886192 
-0.587987304 0.20919846 0.891702652 -6.29806891e-08 206 196 59 0.857193708 
-1.62288153 0.406254917 0.780126989 -1.23603968e-07 91 91 91 0.820853591 
0.142458454 -0.583502412 -0.791364253 -0.00457567535 95 95 95 0.309020907 
0.0489190556 0.108212084 0.273062438 5.67404786e-05 96 299 93 0.655703306 
0.473076254 -0.645226479 -1.41913402 -5.3216354e-08 42 40 292 0.10455709 
-0.382981271 0.345282197 0.887702465 1.80113129e-05 309 59 59 0.85589087 
-0.355054528 0.310301691 1.03308165 -1.01368641e-07 183 179 83 0.903240621 
0.666482091 -0.466856509 -0.833251834 -9.08621587e-08 298 50 50 0.295378178 
-0.949385822 0.0352903157 0.661068201 3.66065215e-05 57 165 57 0.782076299 
-1.31106269 0.452159792 1.02058876 -0.0025038491 113 113 113 0.89917171 
-1.17173433 0.329594046 0.947521865 -1.16066076e-07 48 291 48 0.8753739 
-1.67258453 0.280542403 0.780648768 2.31468584e-06 124 99 56 0.821023583 
-1.24618232 0.109575987 0.591849923 3.09577445e-05 268 253 43 0.759532034 
0.0791092962 -0.00235403446 0.11632508 -0.00534997927 92 92 92 0.604654133 
0.751379192 -0.563701808 -1.49034178 -1.00233592e-07 304 304 295 0.0813648105 
-1.519256 0.327194631 0.888933361 -0.0167925134 121 121 121 0.856291711 
-0.112460613 0.335248709 0.765381575 1.70691983e-05 100 203 99 0.816051006 
0.0774399862 0.322314978 0.569113851 -9.48784873e-08 76 313 75 0.752126932 
-1.15040398 -0.258013695 -0.128436744 -1.31782144e-07 278 278 269 0.524935603 
0.824351907 -0.0198479388 -0.0770677328 9.43595078e-05 292 278 45 0.541666389 
-0.732197762 0.300627977 0.903373957 -0.00301308604 113 113 113 0.860994935 
1.18253911 0.0958518758 -0.0184623599 2.43622089e-05 285 270 33 0.56075412 
-1.08897209 0.25418222 0.880889595 -0.0167657137 44 175 54 0.853671849 
1.51009381 0.0180623159 -0.0242443513 -1.08666427e-07 288 275 43 0.558870912 
-0.31200555 0.385876447 0.944721639 2.07367702e-05 281 46 45 0.874461889 
-0.99749577 0.276392549 0.954648614 4.44424586e-09 115 117 115 0.877695084 
-0.736498594 0.177030191 0.600822449 -9.82981874e-08 102 161 62 0.762454391 
1.104509 -0.0611128435 -0.0827450082 2.3080036e-05 55 236 55 0.539817333 
0.836963773 -0.646979272 -1.55204737 1.59080373e-05 64 62 287 0.0612673797 
0.378584027 0.0175068621 0.0357868858 2.93075573e-08 48 40 234 0.578422964 
-0.473379195 0.373502761 0.930012047 -9.65665095e-08 266 26 16 0.869670987 
1.3974371 0.04830103 -0.00663558766 -0.00250746123 103 103 103 0.564606071 
0.0552288108 0.0106607471 0.0909161717 7.41098484e-06 297 257 43 0.596378505 
-0.91165334 -0.350823611 -0.388654411 -8.54488462e-08 308 293 58 0.440183014 
0.833648264 -0.237190485 -0.200336918 -8.87084752e-08 37 252 36 0.501517773 
-0.0556984358 -0.316408604 -0.404690653 1.55555317e-05 281 32 31 0.434960008 
0.284510046 0.017423423 -0.062535353 1.58767216e-06 62 56 298 0.546399534 
0.121253774 0.0292091127 0.0153266685 2.33215251e-05 68 62 302 0.571759105 
-1.61280608 0.330082655 0.997817874 -1.31491106e-07 305 187 52 0.891755283 
-0.294398546 0.328305721 0.819461107 -0.00300701265 109 109 109 0.833664656 
0.227819994 -0.636497319 -0.849262297 -1.07291271e-07 56 309 56 0.290163577 
-1.5086472 0.385312587 0.835807741 0.000111236761 109 109 108 0.838988721 
-1.03620958 -0.160238132 0.12480621 -0.00260944781 100 100 100 0.607416451 
-0.149092183 -0.511701643 -0.614780605 -1.04835635e-07 312 63 62 0.366533995 
0.906671643 -0.0201212503 -0.110346779 0.000130724569 242 241 235 0.530827463 
0.61236316 -0.370291889 -0.428194642 2.90389289e-06 243 46 46 0.427304804 
-0.403282255 0.595514715 1.19983733 3.80794518e-06 326 80 80 0.957552731 
1.14195228 -0.485877424 -0.84374392 2.00904906e-05 258 81 92 0.291960925 
-1.15735471 0.442542136 1.09690166 -0.0175860003 108 108 108 0.924026668 
0.216380879 0.0249467082 0.143873543 -0.0226763748 85 85 85 0.613626659 
-0.599068463 0.19842571 0.855426192 -0.00260387524 105 105 105 0.845378458 
-1.01060677 0.533040345 1.22925329 -0.00375359948 231 216 42 0.967133522 
-0.690112233 0.211729348 0.926935136 -1.24447979e-07 304 56 56 0.868668854 
-0.41879949 0.261039019 0.937932134 -1.12573616e-07 161 156 50 0.872250557 
-0.274476558 -0.513489664 -0.65958786 1.28684333e-05 292 44 44 0.351940304 
-1.68767548 0.367829859 0.768137515 -3.96976247e-08 309 308 300 0.816948652 
-1.21906042 0.407626182 1.12622178 -1.17259333e-07 131 117 107 0.933576226 
-0.545168877 0.205842912 0.839767754 -0.037066903 304 55 55 0.840278566 
-1.49333322 0.230553523 0.793706894 -9.75560397e-08 273 271 235 0.825276613 
0.40156886 -0.0500894934 -0.0456172675 -9.24337655e-08 74 262 70 0.551909745 
-0.906151295 0.320470065 0.979571402 -0.0276350435 97 97 97 0.885812402 
0.0771965906 0.076680623 0.128124684 4.09733038e-05 299 299 290 0.608497322 
0.796026886 -0.561108232 -1.20850551 4.8670161e-05 279 257 251 0.173158526 
-0.96478343 0.160491481 0.81695801 1.05420695e-05 55 209 55 0.832849443 
0.168962553 -0.553717315 -0.784637153 -0.00248114532 313 304 126 0.311211914 
0.439687937 -0.5931077 -1.04428518 1.43202487e-06 293 295 284 0.226644889 
-1.72091997 0.366463035 0.840725303 -1.49593689e-07 308 60 60 0.840590417 
0.628187358 -0.463059396 -0.67949307 -8.94651748e-08 305 290 55 0.345457226 
0.0975396037 -0.00817990303 0.118519619 -0.0153166717 87 87 87 0.605368972 
-1.09991789 0.179748461 0.649723172 1.37303723e-05 272 271 263 0.778381288 
-1.0626837 0.437088042 1.08899367 -1.19907781e-07 120 262 41 0.921451092 
1.14927542 0.109572776 -0.00385599025 4.95237764e-05 302 287 50 0.565511346 
0.319009483 0.00572331436 0.082402952 -0.00286116544 120 257 48 0.593605757 
-0.576976299 -0.443125427 -0.410690427 3.36602097e-05 86 204 42 0.433005899 
-1.07656765 0.442605942 1.17304385 5.51842677e-05 51 49 295 0.948826134 
-1.01871979 0.0222163144 0.287829101 1.71921547e-05 242 242 235 0.660512805 
0.435266614 -0.104383767 -0.086903654 4.91783067e-05 78 151 52 0.538462818 
0.686169326 -0.441423148 -0.681544304 -7.46222213e-08 267 28 29 0.344789118 
1.45169616 0.045336578 0.0542743318 3.332505e-05 288 275 44 0.584444344 
-0.734801412 0.129100531 0.547469079 3.98315533e-05 56 136 31 0.745077193 
-0.900681019 -0.388124347 -0.284107566 -1.18539901e-07 61 279 32 0.474233776 
-0.959383368 0.523260534 1.08717036 4.5314664e-07 290 260 36 0.920857191 
-0.770727396 0.259763539 0.761717677 -0.00163748418 290 272 48 0.814857721 
-0.703315377 -0.512930036 -0.495143563 -0.0160416923 100 100 100 0.405499637 
0.778342783 -0.533026755 -1.540712 5.25179785e-05 297 296 291 0.0649592951 
0.706397712 -0.522291303 -0.681159019 -1.08455424e-07 31 265 30 0.344914615 
0.693407476 -0.379776388 -0.422884107 1.67493854e-05 236 48 48 0.429034442 
-0.70087266 0.154220104 0.657205403 -2.74670892e-05 243 212 42 0.780818224 
1.01962817 -0.132984623 -0.208096191 1.31170673e-05 288 38 38 0.498990595 
0.712962031 -0.625442743 -1.13226628 4.16989715e-05 60 155 74 0.197989553 
-0.764945924 0.219493523 0.72698164 -0.00239691907 161 90 31 0.803544283 
0.135742038 0.296025068 0.65715766 -1.31491106e-07 273 257 19 0.780802608 
-0.968667507 -0.256840587 -0.095874913 2.29395228e-05 261 13 13 0.535540938 
-0.29969427 0.482258618 1.18928719 3.89046909e-06 290 280 83 0.954116642 
-0.296871781 0.341570586 0.796919763 -9.33068804e-08 295 280 43 0.826322973 
0.432502478 -0.0822009966 -0.156471491 1.11871418e-06 114 114 114 0.515804708 
0.616180778 -0.361571252 -0.36789003 -8.61946319e-08 286 33 33 0.446945935 
-0.587961853 -0.307512403 -0.122433349 -8.82137101e-08 301 287 55 0.526890874 
-1.61241341 0.308893949 0.824345946 -0.021310918 287 147 36 0.835255682 
-0.926850617 0.198444262 0.759190142 -0.0259253401 91 91 91 0.814034522 
-0.692855895 0.301091522 0.897330284 -0.00252124062 121 121 121 0.859026611 
-1.37941861 0.403668225 1.03735602 -0.0039053387 102 98 76 0.904632807 
-1.17061162 0.567022145 1.08260822 3.69951013e-05 302 287 51 0.919371426 
-0.152060717 0.228999674 0.607903898 -1.35652954e-07 52 159 39 0.764760733 
0.75711906 -0.629002512 -1.49209547 3.41981649e-05 66 63 288 0.0807936415 
-0.663153887 0.101277359 0.698073149 -0.00325474911 107 107 107 0.794128776 
1.50159681 0.0144653637 -0.106020227 -1.29337423e-07 177 168 258 0.532236576 
-0.125993297 -0.563254416 -0.718354642 -0.0136596272 103 103 103 0.332800061 
0.899230421 -0.0894913748 -0.0627548397 -9.31322575e-08 35 240 35 0.546328068 
-0.00896220189 -0.112782441 0.182272777 3.73086077e-05 265 251 57 0.626133263 
-0.811004281 -0.364845455 -0.306035399 8.2208775e-05 292 279 51 0.467091888 
-0.716595232 0.301781356 0.909812927 -7.08260195e-05 285 275 60 0.863092184 
-0.408990711 0.349101782 0.923395813 6.57814671e-05 107 261 104 0.8675161 
-0.899939895 -0.445439428 -0.411400586 -2.74840204e-08 144 306 64 0.432774603 
-0.847203374 0.321455806 0.837800682 -1.06530933e-07 287 276 60 0.839637876 
-0.698577702 0.263716966 0.837157428 -0.0170394517 74 74 74 0.839428365 
-0.454044133 0.19476971 0.748174489 -8.71368684e-08 292 67 68 0.810446739 
0.620881021 -0.657866359 -1.58287883 -1.03376806e-07 51 46 286 0.0512256138 
-0.987188935 -0.1711009 0.192340344 6.91317837e-07 67 260 66 0.629412234 
-1.29643309 0.255404443 0.916611195 6.86432031e-06 262 249 48 0.865306377 
-1.38547432 0.212142318 0.85042429 -9.91858542e-08 272 256 56 0.843749404 
0.620926857 0.0860785842 0.013025362 1.06561347e-05 66 63 283 0.571009576 
-0.00355600496 0.124106839 0.351040244 -8.81846063e-08 331 88 88 0.681100607 
-0.794953525 0.0779257342 0.6764521 -8.75952537e-08 55 102 115 0.787086844 
-1.06577039 -0.208097383 -0.0479476713 1.36081944e-05 291 276 38 0.551150739 
-1.11503172 -0.354891241 -0.251298338 -0.0155866519 84 84 84 0.484919697 
-1.20253146 -0.306326836 -0.227527037 -1.00350007e-07 77 298 52 0.492661983 
-0.66411823 0.116733089 0.673733234 -0.00259354315 95 95 95 0.786201358 
0.253265768 -0.557774484 -0.862628102 -1.07393134e-07 227 221 291 0.285810351 
-0.146348506 0.375861734 0.807733238 -8.27130862e-08 137 135 75 0.829844892 
-0.0221505314 -0.447236329 -0.453408271 -9.69739631e-08 28 24 211 0.419092745 
1.10558891 -0.0152276857 -0.0407742225 5.18615707e-06 292 278 44 0.553487122 
-1.2118926 -0.278029263 -0.326463372 -7.20028765e-08 288 273 50 0.46043855 
0.350297332 -0.142398462 -0.155699536 -0.0171051379 90 81 287 0.51605612 
-1.36121154 0.320593327 0.885403812 -1.15600415e-07 294 294 279 0.855142117 
0.741525888 -0.458062917 -0.641779125 -0.00250917906 96 96 96 0.357740611 
-0.378819704 0.378688186 0.9116745 0.000119602279 294 44 44 0.863698542 
0.527062058 0.21522288 0.337768674 -1.26310624e-07 296 286 86 0.676778078 
-0.516923249 0.183605507 0.908406138 -1.04584615e-07 203 189 33 0.862634003 
1.34596872 0.0215419885 -0.0146525288 6.02920773e-06 97 97 97 0.56199497 
0.276646018 0.0763066188 0.155209273 -9.82545316e-08 264 263 259 0.61731869 
-0.168534636 -0.493246585 -0.565854669 -1.09721441e-07 111 111 111 0.382469088 
-0.933780015 0.211869955 0.705353856 -0.0059781028 283 267 47 0.796500087 
-1.22501731 0.504545808 1.04423308 -1.46450475e-07 299 49 49 0.906872571 
0.372146934 -0.0485765226 -0.0205077846 3.68927722e-05 309 294 57 0.56008786 
-0.680372715 -0.502668619 -0.421016365 -0.0216349103 290 275 50 0.429642767 
-0.0304078236 0.287550509 0.672070682 -6.51925802e-08 293 44 44 0.78565979 
-0.0555258393 -0.470679551 -0.496316761 -1.20839104e-07 73 69 256 0.405117482 
0.699360847 -0.563216329 -1.08871603 0.000106435502 298 49 49 0.21217382 
-0.855711937 -0.294330835 0.0661513284 -1.05341314e-07 58 232 57 0.588312685 
-0.970277488 0.0841758475 0.51294142 -9.19098966e-08 265 201 195 0.733831644 
0.105167173 0.230375066 0.514520466 -0.00287794508 103 103 103 0.734345913 
0.220418125 -0.113681585 -0.0583922043 -0.00551785668 77 77 77 0.547748983 
-0.270153254 0.285113484 0.87707895 -0.00260144728 282 255 32 0.852430701 
-0.168647692 0.27322036 0.695576429 -1.23283826e-07 81 222 67 0.793315589 
-0.697146058 0.089338325 0.711504042 -9.08403308e-08 37 129 64 0.79850322 
0.801903486 -0.585193634 -1.31887937 3.77467368e-05 72 70 323 0.137209907 
0.822374821 -0.522925556 -0.871512949 1.45798549e-05 255 46 46 0.282916576 
-0.136939049 0.343781888 0.708573818 -9.12405085e-08 55 185 59 0.79754889 
0.75054419 -0.490625381 -0.699900925 2.29425204e-05 66 285 58 0.338810384 
1.42607009 0.0425437242 -0.0311802924 9.37361619e-06 283 270 61 0.556611896 
0.823440015 -0.546843827 -1.60293949 -1.62428478e-07 297 296 293 0.044691883 
-1.52731788 0.388621986 0.831318676 4.68572307e-06 107 107 107 0.837526679 
0.717361271 -0.587948203 -1.11002398 -0.00922301132 92 92 92 0.205233842 
1.18250632 0.0209459513 0.011163285 4.20179845e-07 102 102 102 0.570403099 
0.676607847 -0.569804013 -1.45037365 7.11224857e-07 99 88 223 0.0943823829 
0.977281213 -0.0176308192 0.0041573518 -8.4284693e-08 125 266 48 0.568121254 
-1.36100793 0.312508166 0.744461596 -1.3486715e-07 294 294 285 0.80923748 
0.177290812 -0.305248141 -0.406870425 5.6544086e-06 71 61 271 0.434250057 
0.422702014 -0.0720381513 -0.142027602 7.75995431e-06 64 55 267 0.520509005 
0.355278879 -0.254465669 -0.331522048 1.67957332e-05 68 60 282 0.458790928 
0.672336876 -0.613597691 -1.63980496 -0.00241280161 127 118 277 0.0326848477 
0.115674697 0.11286366 0.3734743 -0.00248477655 79 79 79 0.688407362 
0.0751413107 0.311841726 0.535853744 6.35546021e-05 108 108 108 0.741294146 
-0.131021053 -0.384474725 -0.386890352 2.24800315e-05 299 47 47 0.440757573 
1.19460642 0.110053644 -0.00344988215 -9.88948159e-08 307 292 55 0.565643609 
0.325587809 -0.326025039 -0.419996113 -0.00631106878 93 93 93 0.429975033 
0.657942235 -0.488726825 -0.73838079 -0.00255205738 256 44 44 0.326277554 
-0.643490672 0.0794077888 0.561664402 -1.15483999e-07 62 133 37 0.749700665 
-1.08085763 0.503921509 1.22922218 -0.00897315331 78 78 78 0.96712333 
0.807976186 -0.194663703 -0.221972883 -7.83475116e-08 289 80 75 0.494470984 
-0.0286994893 0.00608153036 0.200177491 5.42952912e-05 326 316 86 0.631964803 
0.397466004 -0.313393116 -0.285041511 -1.07451342e-07 153 66 103 0.473929614 
0.513393462 -0.181636661 -0.197585985 3.03434208e-05 277 24 24 0.50241375 
-0.801591992 -0.0366460904 0.327147514 9.45432112e-06 60 98 129 0.673318803 
0.603802204 -0.00026336193 0.0603337139 1.10111432e-05 53 114 24 0.586417854 
-1.18018043 0.368317157 0.908286393 -7.92788342e-08 286 273 45 0.862595022 
0.216447324 -0.771681488 -1.44655442 5.93169243e-05 266 252 39 0.0956263021 
0.942799985 -0.48493734 -0.647510707 -9.05056368e-08 252 252 244 0.355873853 
-0.972458959 0.102385707 0.552711189 -8.12478902e-08 286 286 277 0.746784568 
-0.307082653 0.357895881 1.02322626 -7.50296749e-08 138 137 100 0.900030792 
0.777106941 -0.602919579 -1.61260808 2.58142827e-05 241 237 268 0.0415428355 
-0.394029915 0.498475671 1.09317148 7.79980328e-05 304 130 118 0.922811806 
1.08265722 -0.466186672 -0.8357566 6.27199915e-06 293 42 42 0.29456237 
-0.0976344049 0.227524862 0.584290385 1.92160951e-06 58 172 42 0.757069886 
0.156834871 -0.576774538 -0.866315544 -0.00262071565 110 110 110 0.284609377 
-1.2353791 -0.229111359 -0.10377866 7.49810133e-05 254 99 119 0.532966673 
0.169600114 -0.305770665 -0.37544024 -9.91858542e-08 99 87 288 0.444486827 
-1.15555227 -0.322547019 -0.432705849 3.49209586e-05 38 37 259 0.42583549 
-0.536810398 0.0722151473 0.657495797 -1.01397745e-07 182 69 55 0.780912817 
-0.161113828 -0.166951045 0.0269504599 -1.18627213e-07 274 26 26 0.575544953 
0.141646117 -0.557138622 -0.829753816 -0.0126146264 311 286 58 0.296517491 
-1.23934865 0.296372622 0.978699386 4.65260382e-06 316 67 67 0.885528386 
-0.508127332 0.201777786 0.943164408 1.45053491e-05 242 229 27 0.873954713 
-1.23812425 0.477048874 1.02400255 -8.03847797e-08 282 277 137 0.900283635 
0.032024771 0.320987999 0.540540934 -1.17302989e-07 59 297 58 0.74282068 
-0.255935609 0.301401764 0.782019675 -0.0210678205 95 95 95 0.821470082 
-0.235252023 -0.212074697 0.0070876102 -9.49949026e-08 281 33 33 0.569075644 
0.210864186 -0.0610255189 0.0329580866 -0.00214355369 140 159 69 0.577501655 
-0.761446178 0.162770927 0.818898976 -0.00250036037 278 274 148 0.83348161 
0.180616975 0.0538055785 0.167837515 -0.0215479154 107 107 107 0.621431708 
-0.774711788 0.188045487 0.88788867 -0.0052624736 39 189 39 0.855951428 
-0.335932374 0.23449555 0.9125489 1.4672245e-05 52 50 299 0.863983274 
-0.799139738 -0.440135926 -0.384216964 -9.04547051e-08 292 278 49 0.441628277 
0.702764452 -0.693762839 -1.69304276 -9.39216989e-08 61 57 256 0.0153453629 
0.0893206149 -0.0188782103 0.129888207 -0.0217431225 104 104 104 0.609071672 
-1.07561886 0.456143022 1.20660698 -6.63567334e-08 71 69 319 0.959757626 
-0.918073177 -0.227025658 0.137769133 3.10706382e-05 51 239 51 0.611638486 
1.10040653 -0.467252254 -0.83079803 -9.88875399e-08 324 75 75 0.296177387 
-0.495758921 0.354048997 0.843589783 2.10287544e-06 287 36 36 0.841523409 
0.729738057 0.164220393 0.215525955 -9.52277333e-08 281 283 272 0.636963785 
0.0890541226 0.247717619 0.658423126 -9.09203663e-08 171 292 55 0.781214833 
-0.484766036 0.202445507 0.853534937 -0.00323655643 115 115 115 0.844762444 
-0.794102132 -0.106421031 0.238644749 -0.00453291414 273 259 46 0.64449352 
-0.182025596 -0.164968356 0.0386988148 -1.01004844e-07 103 103 103 0.579371393 
0.119593918 -0.107536569 -0.0746819824 -0.0025994482 90 90 90 0.542443395 
1.08717585 -0.0605863146 -0.174048156 -1.52620487e-07 269 268 259 0.51007998 
-0.521849513 0.291826427 0.990343571 -9.59116733e-08 294 280 55 0.88932091 
0.200201839 -0.510450959 -0.82436949 4.40876647e-06 181 172 299 0.298271149 
-0.985114932 -0.106803954 0.159320727 -1.08266249e-07 94 93 70 0.618657827 
-0.000960544741 -0.190063968 -0.21240133 0.000142086574 41 142 64 0.497588426 
-1.05261803 0.185383692 0.637305558 -7.31379259e-08 276 276 268 0.774336874 
-0.568112791 -0.320808917 -0.131317243 -1.2316741e-07 113 113 61 0.523997366 
-0.0240181666 0.0159849878 0.163120449 6.57397322e-07 270 269 260 0.619895339 
-0.652282894 0.306659102 0.861897111 1.70005223e-05 302 289 58 0.847486019 
-0.53437537 0.464470506 1.21987295 -5.86587703e-08 318 302 66 0.964078367 
-1.56547499 0.327159196 0.876959324 -0.0381197482 100 100 100 0.852391839 
-0.654088736 0.0350640044 0.651691973 -1.0948861e-07 46 189 55 0.779022515 
-0.667322814 0.105852254 0.683300555 -0.00279954891 95 95 95 0.789317369 
-0.887228906 -0.157828122 0.169199511 4.3604392e-05 38 225 38 0.621875286 
-0.752287745 0.190423369 0.787389457 -0.0321775973 125 125 125 0.823219001 
0.11042469 0.154676169 0.493101627 -1.07160304e-07 70 278 39 0.727369845 
-0.2066174 0.31658107 0.722837687 2.1451342e-06 77 192 64 0.802194536 
1.13980651 -0.0692379475 -0.0779067799 6.10554707e-06 93 267 34 0.541393101 
-0.433680981 0.348634541 1.02222407 -0.0162598845 108 108 108 0.899704337 
-0.902443647 0.0756104216 0.73766923 6.85354098e-06 65 225 64 0.807025135 
0.0672380254 -0.0963698626 0.0478086248 -1.0500662e-07 80 125 80 0.582338452 
-0.781578302 0.167983696 0.599742949 2.43434624e-05 107 111 34 0.762102783 
-0.577602923 -0.543737948 -0.47205776 -4.03961167e-08 71 216 70 0.413018644 
1.29439068 -0.0447702631 -0.158565477 2.36534979e-05 297 281 48 0.515122652 
0.203986913 -0.716279745 -1.30205667 -0.00361526106 99 99 99 0.142689034 
0.779620171 0.164166048 0.238220841 -9.70212568e-08 144 275 139 0.644355476 
-1.21572542 0.458997875 0.967789114 -1.37893949e-07 109 109 109 0.881974936 
0.257974476 -0.618828952 -0.838971794 -8.68167263e-08 25 277 24 0.293515205 
-0.952907681 -0.430873781 -0.370246589 2.30083242e-06 93 153 88 0.446178406 
-0.249337047 0.138702929 0.61416775 -0.00952060334 95 95 95 0.76680094 
-0.141522273 -0.360119492 -0.409671456 9.07265348e-06 293 40 40 0.433337778 
-0.995135427 0.48296079 1.17761755 -0.00275242305 110 110 110 0.950315833 
0.344113559 -0.59930253 -0.949218154 7.41676195e-05 38 35 219 0.257608086 
0.821743071 0.0400756113 -0.0271029547 4.88106161e-06 267 267 259 0.557939827 
-0.315742671 0.232086122 0.81847167 -0.00251063565 107 107 107 0.833342373 
0.669345438 -0.606671453 -1.496876 -0.013855557 75 75 75 0.0792366266 
0.231103659 0.0655512959 0.0417049602 4.5140303e-05 274 263 262 0.580350518 
-0.573542953 0.245974839 0.916290104 -0.000319292594 249 238 47 0.865201771 
-0.784395278 0.0902703255 0.687441528 -8.55070539e-08 41 99 90 0.790666044 
1.19106472 0.0366998911 0.0701189265 2.55677151e-06 302 287 65 0.589604855 
0.506626308 -0.484328032 -0.70852679 5.85224188e-06 306 53 53 0.336000979 
-0.232134968 0.345999122 0.900806129 -1.16611773e-07 292 82 80 0.860158622 
0.536167264 -0.00298196473 -0.0589554794 6.84452825e-05 71 63 278 0.54756552 
0.481728345 -0.534141481 -0.904485703 -1.11422196e-07 308 59 59 0.272177398 
-0.787563086 -0.00361447455 0.329978675 2.82144174e-06 43 39 174 0.674240828 
-0.992474914 0.365522742 0.951280177 9.01392195e-06 318 114 112 0.876598001 
-0.298633367 -0.515368521 -0.501860142 2.02063238e-05 33 30 238 0.403312027 
-0.745163083 -0.198833317 -0.0482454933 -8.86502676e-08 56 50 251 0.551053703 
0.186204806 -0.657464504 -1.18729699 -1.13039277e-07 219 219 213 0.180066124 
-0.432772815 0.255777419 0.952346683 1.9991654e-05 188 180 36 0.876945376 
0.85744071 -0.576234937 -1.51768458 -0.00247988966 96 96 96 0.0724593028 
-0.700012147 0.115283646 0.558365345 -9.66247171e-09 78 155 53 0.748626173 
-1.09701788 -0.214128435 -0.197004199 3.83064398e-05 293 277 40 0.502603233 
-0.0902867094 0.315086931 0.653786123 -1.01150363e-07 73 225 66 0.779704511 
-1.56455529 0.242401496 0.794492781 -1.36264134e-07 279 260 47 0.825532556 
0.735891879 -0.565323949 -0.887068033 -0.000508354628 57 251 54 0.2778503 
0.231435373 -0.723604202 -1.14787114 1.45344529e-07 101 295 56 0.192907065 
0.647604823 -0.591181338 -1.44241261 -1.18903699e-07 294 293 291 0.0969752818 
0.177765533 -0.680505931 -1.29972863 -0.00290347333 95 95 95 0.14344728 
-1.23645651 0.480666459 1.18858814 1.02561899e-07 231 218 41 0.953888953 
1.11588573 -0.0880466402 -0.139111385 -9.66538209e-08 289 279 53 0.521458864 
-1.05044186 0.365454435 0.94556433 -9.21427272e-08 288 275 45 0.874736369 
-0.131753504 0.263721198 0.849344432 3.92904039e-05 137 135 79 0.843397617 
-0.553536654 -0.483023763 -0.539462686 -9.91110483e-08 276 26 26 0.391064942 
-1.44439161 0.397213429 0.955552042 -0.0139276022 98 98 98 0.877989292 
-1.17998195 -0.206013009 -0.146038786 -1.1854172e-07 299 284 46 0.51920259 
0.237529606 -0.0477015376 -0.0314172097 -0.0246130172 49 44 164 0.556534708 
-1.20877838 0.436818749 1.18666101 2.16907938e-06 39 34 213 0.953261197 
-1.08612621 0.377589494 1.09758782 -1.03493221e-07 68 85 136 0.924250185 
0.694896996 -0.568309665 -0.956480324 -0.00353510492 84 84 84 0.255242825 
0.161971584 -0.0785557702 -0.117427707 -1.02421836e-07 84 84 84 0.52852118 
0.350650758 -0.621470392 -0.938774645 2.09079008e-05 129 129 128 0.261009544 
0.823841989 -0.208524674 -0.149951369 5.9773447e-07 38 236 37 0.517928302 
-0.248666793 0.21249181 0.677727103 2.97417864e-05 63 146 43 0.78750211 
0.744614959 -0.452753127 -0.708637118 0.000170139479 61 165 47 0.335965037 
0.201692179 0.0378811285 0.220908687 -0.00231034402 99 99 99 0.638716936 
-0.227160141 0.38535887 0.765658975 -8.72933015e-08 246 111 90 0.816141427 
0.0785040036 -0.0170826148 -0.00734533835 -1.02969352e-07 48 42 285 0.564374864 
-0.838946998 0.117399804 0.707656085 -0.000384630112 87 174 87 0.797249913 
0.291614741 0.234648988 0.29234919 -9.95933078e-08 279 279 270 0.66198504 
0.198856145 0.168764487 0.270216227 -9.93022695e-08 111 111 111 0.654776275 
-0.711419344 0.286942035 0.948135734 -0.00267703785 87 87 87 0.875573874 
-0.786499262 0.0479227081 0.660733759 3.00080283e-05 36 107 75 0.781967402 
-0.755200744 -0.539031386 -0.527356625 -0.0232571736 119 119 119 0.395007849 
-0.813749671 -0.388304323 -0.313180596 1.72227155e-05 76 283 38 0.464764744 
-1.06395924 0.349821359 0.918036997 -0.0240909606 116 116 116 0.865770757 
0.539823353 -0.663371325 -1.46679235 -0.000481542316 79 79 79 0.089034833 
0.0668520555 -0.0503217801 0.127431244 -0.0214360505 69 218 65 0.60827142 
0.0882298574 -0.232984081 -0.148805439 -9.92440619e-08 49 46 256 0.518301487 
0.895346344 -0.227610722 -0.157484904 -1.09415851e-07 46 253 45 0.515474617 
0.164211124 -0.210863471 -0.25233537 -1.01514161e-07 46 41 283 0.484581918 
-1.41364491 0.18008621 0.614282429 2.61318564e-06 315 299 62 0.766838253 
0.381302655 -0.553628504 -0.975764036 1.11369591e-05 293 132 129 0.248962134 
-0.0345298201 0.0456420109 0.228252053 -9.05129127e-08 299 46 46 0.641108632 
-0.253921896 -0.61594516 -0.670572281 1.70225394e-05 116 116 116 0.348362714 
1.06203961 0.04197862 -0.105799422 -3.35276127e-08 310 298 73 0.532308519 
-0.152806163 -0.329741895 -0.22861436 3.64929729e-05 113 54 113 0.492307842 
-1.02304173 0.546514452 1.22727501 -0.012558382 153 140 102 0.966489136 
0.190826908 -0.012241601 -0.0555847324 -9.41799954e-08 58 53 295 0.548663378 
-0.825362802 0.27843675 0.914038777 -6.98491931e-08 307 294 62 0.864468515 
-0.873535752 0.191949055 0.724404335 -0.00488632685 287 242 33 0.802704871 
-1.0055151 -0.189601094 0.110696815 -0.0221209656 83 83 83 0.602821052 
-0.136462837 0.242034286 0.668295741 -1.11933332e-07 59 217 43 0.784430325 
0.891849935 -0.199820638 -0.134714901 5.55974548e-05 257 256 262 0.522890747 
-0.552409112 0.103770435 0.573469043 -1.03726052e-07 88 156 64 0.753545403 
0.654084921 -0.564022958 -0.932995737 -6.19329512e-08 299 152 148 0.26289171 
-1.0540098 -0.309033006 -0.327184707 -0.023323454 115 115 115 0.460203618 
-0.228913486 0.251674742 0.64727515 -7.18864612e-08 298 236 47 0.777583897 
0.607566059 0.0796008557 -0.00513183139 -7.91242201e-08 296 99 97 0.565095782 
0.95661509 -0.0821780637 -0.0805635825 -0.00331166247 254 293 70 0.540527821 
0.636467755 -0.577513278 -1.57320011 4.49075596e-05 178 170 273 0.0543779619 
-1.21333408 0.190883145 0.836010337 -9.55769792e-08 137 204 38 0.839054763 
-0.0106169339 -0.269689023 -0.312300205 4.33255918e-05 270 54 58 0.465051472 
0.00737536373 -0.126674861 0.0906353742 -1.1298107e-07 93 93 93 0.596287072 
-1.40375507 0.522770286 1.09740686 -9.24337655e-08 274 273 265 0.924191296 
-1.00446248 0.422406316 1.15856016 -1.65426172e-07 47 43 242 0.944108844 
-0.167571396 0.144138381 0.599890172 2.12045852e-05 81 237 81 0.762150705 
-0.827050447 -0.432878703 -0.29272598 1.00968828e-05 94 94 94 0.471426785 
0.820303738 -0.517909467 -0.717563331 2.14582324e-05 210 193 188 0.333057791 
0.799075961 -0.529209793 -0.978823483 1.89789571e-05 162 143 92 0.247965679 
-0.261145204 0.435525894 1.00684464 2.17052439e-05 244 246 245 0.894695282 
0.384227961 -0.0728552714 -0.102335304 -0.0173137318 111 111 111 0.533436775 
-1.12215304 -0.327581108 -0.328843236 -0.0344951488 71 71 71 0.459663421 
-0.944786608 0.136547863 0.814100266 1.94449967e-07 65 219 64 0.831918716 
0.146357432 -0.189148128 -0.195985511 5.59031032e-05 44 39 284 0.502934992 
-0.814544141 -0.0687688142 0.240971521 4.34255344e-06 40 37 244 0.645251393 
0.0487878062 0.0995141268 0.300540984 2.20051734e-05 275 275 266 0.664653063 
-1.14695823 -0.404659837 -0.274590433 -1.01157639e-07 51 208 50 0.477333516 
-1.33895683 0.439572066 1.01981306 -0.010784369 113 113 113 0.898919106 
-0.886863291 0.273196638 0.740530074 8.96890124e-05 265 263 210 0.807956994 
-0.320140988 0.466543913 1.21553397 -1.1024531e-07 292 279 55 0.962665081 
-0.847333252 0.380197376 0.960826993 5.64329821e-05 294 280 45 0.879707396 
0.985603988 0.0482769385 -0.0241628662 -9.37943696e-08 288 278 70 0.558897436 
0.114837579 -0.187871844 -0.0954699069 4.37139533e-06 63 60 273 0.535672784 
0.579133332 -0.411810189 -0.652103841 4.87251964e-06 142 37 67 0.354377866 
0.174872115 0.112523019 0.441576064 2.78038497e-05 281 267 47 0.710588038 
0.183868021 0.208480209 0.402420044 3.66137829e-05 80 308 79 0.697834969 
0.883384287 0.00108648802 -0.10716296 2.9613193e-06 236 236 230 0.531864405 
-0.856688559 0.114178918 0.599002719 -1.50117557e-07 105 223 76 0.761861682 
1.07408059 0.0347302482 -0.0728577375 -5.97210601e-08 52 224 51 0.543037593 
0.373372942 0.0771577507 0.309239566 2.72097532e-06 319 303 66 0.667486131 
-1.10353255 -0.251254261 -0.122352235 -0.00702580158 260 260 252 0.526917279 
-0.294221073 0.385575116 0.996899188 -0.000165645877 132 132 125 0.891456068 
-1.3666327 0.314527154 0.944774747 1.14511058e-05 293 264 52 0.874479175 
-0.647906125 0.362051159 0.950662673 -0.00667810999 86 86 86 0.876396894 
0.822511852 0.1132318 0.196056753 -6.702885e-08 68 272 68 0.630622685 
0.985912144 -0.450167567 -0.726663172 3.11345757e-05 305 51 51 0.33009395 
0.387431711 -0.106201008 -0.118958071 -1.06170774e-07 302 302 293 0.528022766 
-0.0380675048 0.00589199504 0.222652972 -1.00815669e-07 251 47 48 0.639285028 
-0.759216428 0.26775369 0.933291316 -0.00415440043 126 126 126 0.870739043 
0.292678386 0.00711917272 0.144022405 -1.01703336e-07 66 62 261 0.613675117 
-1.26852739 0.466718644 1.05630994 -3.25652072e-05 200 186 77 0.910806 
0.995884061 -0.473884344 -0.825101197 -9.60862963e-08 282 29 29 0.29803282 
1.35120642 0.0822110698 -0.00727354083 1.18723256e-05 306 291 57 0.564398229 
-0.00978934206 -0.0389288738 0.228277206 2.70428864e-05 118 243 36 0.641116858 
-0.262401313 0.575419188 1.15338433 8.55507096e-08 156 156 154 0.942423046 
0.136309117 -0.0227473546 0.126362354 -0.00529636443 123 123 123 0.607923269 
0.596849024 0.0265757032 0.0819987506 -1.13184797e-07 74 233 67 0.59347409 
-0.923282802 0.220277533 0.63854301 3.1890595e-06 273 273 264 0.774739921 
1.0408535 -0.560520589 -0.991750717 -9.94768925e-08 265 62 62 0.243755296 
-1.11210442 0.503976703 1.07049882 -1.29366526e-07 301 286 50 0.915427327 
0.373334765 -0.298381835 -0.267172903 4.99758244e-07 87 50 143 0.479749352 
-1.14444888 0.226777226 0.789234161 -0.000150289794 99 99 99 0.823819876 
1.37282693 0.0750403404 0.0180028714 3.4413024e-05 311 297 64 0.572630763 
1.09122634 0.0503669307 0.0565289818 6.83497638e-05 82 82 82 0.585178673 
-0.812280238 0.148086041 0.752851248 -0.0158525556 96 96 96 0.811969876 
0.124312647 0.141038999 0.362902492 -0.0230274517 83 83 83 0.68496412 
-1.35736454 0.458004713 1.16699696 -1.33655703e-07 279 206 59 0.946856737 
-1.42009759 0.385675192 0.893846035 3.43970023e-05 271 271 263 0.857891798 
0.380002767 0.0246255826 0.125347093 3.747339e-05 277 49 49 0.607592642 
0.741935968 -0.413791567 -0.413156539 3.24749853e-05 318 303 65 0.432202697 
-0.0528599508 0.337293446 0.72472024 -1.13039277e-07 74 225 74 0.802807689 
-0.833379269 -0.145193875 0.276408583 -1.06345396e-07 58 238 58 0.656793177 
-0.942292392 -0.395376027 -0.396160275 -6.0943421e-08 295 280 44 0.437738359 
-0.821431518 0.290129095 1.01925719 1.51863787e-07 273 261 57 0.898738027 
0.820010722 0.170749307 0.221558601 -1.25084625e-07 94 261 55 0.638928592 
-1.22193527 0.221057311 0.762625754 8.67701892e-05 162 292 101 0.81515348 
0.198483378 -0.0618007444 -0.068215169 -0.0155135179 109 109 109 0.544549644 
-0.680171192 0.2870529 0.791650176 -0.0032307175 133 133 133 0.824606717 
-0.778089464 -0.0991381109 0.359495521 -8.70786607e-08 45 55 176 0.683854461 
-0.750635266 0.256002754 0.765364707 -0.00286362576 79 79 79 0.816045582 
-0.963867962 0.385599256 0.94384706 6.53641764e-05 292 277 41 0.874177039 
-0.772807539 0.203716487 0.741977215 -0.0128296353 95 95 95 0.808428347 
-0.924194157 0.0469977148 0.712420583 -8.2061888e-08 52 209 52 0.79880172 
-0.280393869 0.363277614 0.851087451 1.6045291e-05 312 66 66 0.843965352 
