ply
format ascii 1.0
comment created by gply, a Houdini tool.
comment converted from .[b]geo
comment for more information about Houdini, try:
comment www.sidefx.com
element vertex 778
property float x
property float y
property float z
property float depth
property uchar red
property uchar green
property uchar blue
element face 0
property list uchar int vertex_indices
end_header
1.07025146 -0.0194163825 -0.165339202 0.256608784 91 79 77 
1.15823638 0.0233024657 -0.189029157 0.000304937596 111 94 74 
1.08678389 0.00430411659 -0.213748634 0.222917527 62 29 14 
1.16294944 -0.0212715752 -0.213530526 0.0492960513 43 28 17 
1.04514682 -0.0542435199 -0.200961232 0.149277613 99 86 84 
1.0811609 0.0591956638 -0.193505287 0.129345313 106 72 37 
1.11089408 -0.0331821106 -0.191143572 0.203983068 51 35 20 
1.112041 0.0148586631 -0.171922952 0.13501659 72 54 38 
1.12072074 -0.0267358217 -0.239740089 0.182391211 56 32 14 
1.13869178 0.0203149579 -0.234942898 0.056053225 104 72 48 
1.16046977 -0.0528529286 -0.255173951 0.127635434 108 79 42 
1.08144736 0.0399356671 -0.0651765764 0.143002331 24 15 9 
1.12756956 0.0108072115 -0.0708621517 0.0883933231 35 21 15 
1.09984684 0.00497562485 -0.123231508 0.150577888 34 23 17 
1.14792514 0.0195726473 -0.1344776 0.000545321731 34 23 17 
1.07100523 -0.0355402678 -0.118023746 0.224818826 86 75 73 
1.07791615 0.0639629364 -0.110712901 0.150988668 87 59 36 
1.13916266 -0.0214368254 -0.107255369 0.107105777 34 23 17 
1.12508595 0.0498946384 -0.101937965 0.0166639704 24 14 6 
1.11334038 -0.0454097763 -0.142722204 0.199627534 30 21 14 
1.09829831 -0.0464807451 -0.0494351648 0.255487025 77 67 62 
1.12971497 0.0623534396 -0.152875498 0.0186454058 117 91 62 
1.12462938 0.0581103973 -0.0477204919 0.00218671327 24 15 9 
1.15134919 -0.0199354403 -0.164907113 0.0574327521 51 35 20 
1.14609408 -0.0456067137 -0.0640270039 0.200351432 79 60 47 
1.08701456 0.108092703 -0.202121168 0.000307380484 149 118 85 
1.12830007 0.0622843057 -0.209847733 0.000307559792 62 29 14 
1.11435258 0.0981657133 -0.109203577 0.000328778231 87 59 36 
1.05377901 0.0812203735 -0.151826799 0.170870826 99 67 56 
1.08988583 0.130148456 -0.0795861557 0.00030726174 119 90 58 
1.17762482 -0.0429614186 -0.37756604 0.000308214891 137 109 91 
1.17814195 -0.0211244244 -0.315027177 0.00619899854 122 78 44 
1.20366049 -0.0442996025 -0.278830618 0.000307678623 99 68 37 
1.17640376 0.00487269508 -0.0867722332 0.000307440991 79 60 47 
1.18220997 -0.0351627283 -0.128674254 0.0313157514 86 53 31 
1.21112454 -0.0310847163 -0.0880991891 0.000306605769 54 31 22 
1.23197794 -0.0562562048 -0.131281897 0.000308037561 103 63 37 
1.21475363 -0.0214054175 -0.0392068364 0.000307678623 205 158 123 
-0.06005973 0.111808106 0.724311948 0.12548396 54 43 31 
-0.0175708067 0.0904361084 0.709621847 0.00030726174 51 40 30 
0.0301999226 0.154518813 0.740586817 0.123384841 40 30 21 
0.0285698362 0.288746089 0.591862619 0.000307559792 60 48 41 
0.015454486 0.183903545 0.662469745 0.000301002467 49 39 29 
-0.000189922663 0.222979933 0.629002869 0.000302911387 53 42 34 
0.0400401577 0.251719773 0.623299658 0.000310659438 52 41 35 
0.021313902 0.141496718 0.695247054 0.000306903414 47 36 27 
0.0229492672 0.231755391 0.671598077 0.100105129 46 37 28 
0.0278808381 0.276447177 0.692622364 0.22972779 52 41 35 
-0.042434793 0.159144655 0.764125526 0.278917164 51 40 30 
0.0025689872 0.23483938 0.717386723 0.240617529 47 37 29 
0.0716107935 0.133164242 0.723771393 0.000308990071 43 31 22 
0.0490485504 0.248967782 0.728994071 0.25191626 45 36 27 
-0.0228042547 0.212084904 0.677272499 0.12647821 53 42 34 
0.00322247343 0.185344398 0.711007237 0.137193441 49 39 29 
0.0492646396 0.197381645 0.695339441 0.0705785751 42 32 24 
0.00645513786 0.331271321 0.604443431 0.129787773 62 49 42 
0.0632922128 0.322276324 0.577676654 0.00202757213 64 54 46 
0.0194705296 0.332190871 0.556111217 0.000528277073 70 57 49 
-0.0302755143 0.313753515 0.632047653 0.196095362 67 54 47 
0.0491226986 0.341813236 0.628367722 0.176548705 56 47 39 
-0.0246587526 0.290090889 0.580898523 0.0182738416 67 54 47 
-0.0056740623 0.271230608 0.623281956 0.0766270384 57 45 38 
0.0685959086 0.296430916 0.620381296 0.0551614426 56 47 40 
-0.0422969274 0.336844772 0.67465806 0.356798559 67 54 47 
0.065254651 0.317279577 0.669032633 0.219313204 56 47 40 
0.0318807811 0.324783742 0.704842567 0.348542005 52 41 35 
-0.0198602676 0.261389196 0.670122325 0.19093889 53 42 34 
0.0212017465 0.303019553 0.651409924 0.182314664 53 43 34 
-0.0111337816 0.303760737 0.695791721 0.323262751 53 43 34 
0.0740612671 0.287094504 0.70776844 0.252962083 54 42 36 
-0.0102663524 0.463243335 -0.0152981617 0.00030726174 131 119 104 
0.0135606145 0.405538917 0.50825119 0.0285293609 72 63 58 
0.066920571 0.399486512 0.515044212 0.000308513583 71 61 52 
-0.0269443747 0.412950993 0.479839116 0.000369430432 82 71 69 
-0.0250305757 0.373853505 0.511691272 0.000305711757 75 66 61 
-0.033848837 0.456663281 0.503290117 0.152131081 82 71 69 
0.0098422328 0.446822822 0.479785889 0.0496833101 80 69 67 
-0.0281866062 0.33392781 0.54111445 0.000310242089 74 61 53 
-0.00633252086 0.438372284 0.540128231 0.185428157 73 62 58 
0.0585649386 0.360604316 0.545135915 0.000307380484 64 54 46 
0.0827572867 0.487877637 0.558095455 0.278930634 77 67 62 
0.0138585912 0.413439572 0.586652458 0.237555891 72 63 58 
0.0342015028 0.397190392 0.629056156 0.296436965 64 54 46 
-0.0302256197 0.434463233 0.583837032 0.301750749 73 62 58 
-0.0151712671 0.391388357 0.630993009 0.326663584 70 57 49 
0.0416432247 0.426938623 0.547459722 0.15022555 71 60 56 
0.00995938946 0.405537993 0.672084689 0.437430322 65 55 47 
-0.0125544118 0.487836927 0.562699497 0.344888359 80 69 67 
0.00538114179 0.379781961 0.550255597 0.0872960016 70 57 49 
0.0464919172 0.445146263 0.621844351 0.365594685 71 61 52 
0.000897835591 0.348099619 0.649877667 0.27965948 60 48 41 
-0.00361426058 0.438582152 0.625535071 0.395160139 70 57 49 
0.0356459133 0.368425995 0.58849746 0.138897449 65 55 47 
-0.0365260057 0.392196417 0.676107645 0.457815886 62 49 42 
0.0589229241 0.408738554 0.682178795 0.433016717 59 47 40 
-0.0130411405 0.399709612 0.725227058 0.576739192 60 48 41 
0.0376306586 0.420364469 0.728793383 0.586394668 56 47 40 
-0.00410007825 0.359652102 0.698141754 0.426281214 60 48 41 
-0.0353578702 0.443573445 0.719430506 0.631489277 101 72 49 
0.0429216549 0.362226516 0.673274577 0.332417339 56 47 39 
0.0470199846 0.45580256 0.694411278 0.556174755 59 47 40 
-0.00529641984 0.329660803 0.737372875 0.469371796 53 43 34 
0.00999442209 0.462319523 0.72729367 0.610588372 100 69 42 
0.0378677323 0.371601164 0.72192353 0.475625038 56 47 40 
0.0676140189 0.459110349 0.739915192 0.585925817 100 69 42 
0.0238699596 0.486192435 0.0298202373 0.000307440991 124 111 99 
0.0787910447 0.497037292 0.0269509032 0.000307142996 138 123 108 
-0.0352882594 0.490803331 -0.0489634722 0.132443517 128 114 101 
-0.0242104046 0.47926867 0.0413491242 0.00030726174 127 114 101 
0.0141171133 0.498481512 -0.0474221967 0.124074988 131 116 102 
-0.0253640804 0.52569741 -0.0147501361 0.197621971 121 108 96 
0.0231018197 0.522275031 -0.00470766146 0.144996688 124 111 99 
-0.00326945796 0.538060248 0.0351018347 0.168552533 119 107 95 
0.0476551354 0.54622227 0.0316433571 0.162293494 133 118 104 
0.00193472963 0.50679177 0.0737609193 0.0340564772 119 107 95 
0.0411907919 0.509819269 0.104551055 0.000307678623 116 104 92 
-0.00458285073 0.505090058 0.125197068 0.000305832335 118 105 93 
0.0889364555 0.519903362 0.115655251 0.000307559792 146 130 115 
-0.0260144416 0.506333888 0.170121267 0.000324905152 119 107 95 
-0.0305428412 0.52513355 0.245860189 0.046995651 114 101 95 
0.0264768433 0.529504776 0.240419403 0.0211756155 116 103 97 
-0.00689007901 0.54598099 0.207039133 0.102825806 114 101 95 
0.0328706615 0.519875228 0.192038134 0.000307559792 119 107 95 
0.00227588532 0.518069685 0.28277716 0.000306605769 107 95 89 
-0.0179247409 0.507777989 0.327201635 0.000308333896 99 86 84 
0.0300228782 0.521601379 0.326343238 0.000308037561 108 96 89 
0.0315472521 0.498407006 0.39842841 0.00030463899 89 77 76 
-0.0147058107 0.492937356 0.381596893 0.000308394519 99 86 84 
0.0604437217 0.522794843 0.365865111 0.000305236405 106 93 90 
-0.00736456504 0.517942429 0.430015713 0.131225735 89 77 76 
0.0132531496 0.472631037 0.437124133 0.0148365395 89 77 76 
-0.0122421728 0.53990829 0.365026355 0.118460648 99 86 84 
0.0243648924 0.573176801 0.362884641 0.183557972 97 88 84 
0.00730468426 0.480738252 0.517710686 0.212063029 77 67 62 
0.05764696 0.51464504 0.52503556 0.275675237 79 69 64 
-0.0181689654 0.491546392 0.470909238 0.149297133 80 69 67 
0.0639105886 0.470638007 0.447761506 0.000306308299 94 82 79 
-0.0089388825 0.528118789 0.521850765 0.337427795 80 69 67 
0.0391333364 0.496277452 0.48238942 0.150203586 77 67 62 
0.00748602999 0.534083903 0.47500816 0.243640959 89 77 76 
-0.00508712418 0.562657475 0.557698607 0.423284054 70 39 23 
0.0452137999 0.5217219 0.440262973 0.12346302 94 82 80 
0.0237781219 0.522200704 0.561082244 0.393726349 77 67 62 
0.0123860464 0.482357174 0.606932819 0.42580539 71 60 56 
0.0615591668 0.488961041 0.603255689 0.401746035 71 61 52 
-0.0134362653 0.505577564 0.643298149 0.523107409 94 64 43 
0.0353273079 0.473499209 0.563503623 0.288820833 71 60 56 
0.0354990289 0.514658272 0.636466861 0.488393515 91 58 35 
-0.00939330086 0.526073217 0.598513722 0.496141225 78 49 31 
0.0189817417 0.566738129 0.601089239 0.383718222 94 61 39 
0.00921576656 0.541701615 0.669602275 0.416686028 85 53 28 
0.0863858759 0.521766782 0.631612778 0.466673583 93 62 44 
0.0200916193 0.470738053 0.655858457 0.517079055 71 60 56 
0.0270281136 0.501792669 0.693954825 0.506688178 95 64 39 
-0.0464290939 0.512175024 0.724144518 0.436092496 96 66 42 
0.0394750498 0.500282466 0.742257893 0.463429958 100 69 42 
-0.0385319516 0.542481422 0.684310377 0.374989867 94 64 43 
0.0521300323 0.56182009 0.638303459 0.345055312 91 58 35 
-0.00211065379 0.534607828 0.717505634 0.413911372 96 66 42 
0.0464692414 0.543334782 0.72026813 0.34610486 95 64 39 
0.00734823942 0.566181064 -0.0225681979 0.221290484 114 81 51 
0.0735009164 0.569542825 -0.00664079655 0.148752645 121 87 64 
-0.041595526 0.576450884 -0.0316724479 0.172284693 145 123 110 
-0.0162708759 0.58378768 0.0507827438 0.233076021 177 154 140 
-0.00543327117 0.606343925 -0.0494380817 0.0916048437 173 155 139 
0.0294531379 0.591292977 0.0202563237 0.158506557 136 97 64 
-0.0167354811 0.601114929 0.00387400133 0.14738135 162 126 93 
0.049187284 0.609903097 -0.0233518183 0.0452933162 120 86 53 
-0.00625841226 0.646381736 0.0267369412 0.0320055634 159 131 95 
0.0427635647 0.640048146 0.0199493095 0.0062342817 154 117 81 
-0.0142910928 0.546621501 0.0993765816 0.151855439 118 105 93 
0.0239466652 0.563350439 0.0717965662 0.195178404 119 107 95 
-0.0205155145 0.581642866 0.134385809 0.229262277 118 105 93 
0.0349277481 0.556879461 0.120063752 0.143462583 116 104 92 
-0.025802359 0.656615913 0.0715164766 0.0330457091 177 156 129 
0.0205584001 0.615149617 0.0632283092 0.139654696 108 79 51 
0.0141810188 0.628986239 0.110796817 0.147630244 166 137 107 
0.0564170629 0.604167819 0.101351701 0.159854889 131 97 74 
0.00514725829 0.543180764 0.157641754 0.102120087 119 107 95 
0.065431945 0.534470677 0.156912878 0.0414834432 127 112 100 
-0.0408805571 0.555634201 0.171790048 0.164620906 119 107 95 
-0.00467187306 0.593363047 0.191655338 0.260902435 119 107 95 
-0.0417375527 0.620717585 0.157241747 0.160087317 97 67 45 
0.0229209978 0.600402415 0.150598705 0.244338363 104 73 58 
0.0728737488 0.575828075 0.222583637 0.14214389 127 114 101 
-0.0126340585 0.612558424 0.237085223 0.256002605 87 55 43 
0.0413651653 0.568638444 0.184445456 0.152673528 127 112 100 
0.0236372948 0.57831651 0.229832113 0.17961973 116 103 97 
-0.00556906546 0.554721713 0.315769672 0.129469812 107 95 89 
0.0548731536 0.597301841 0.264037907 0.208763093 117 104 93 
0.0738319382 0.569715679 0.357841253 0.115865126 99 86 84 
-0.037007533 0.596102357 0.303610176 0.283422917 107 95 88 
0.0383230224 0.552785218 0.283202767 0.0793510303 108 96 89 
-0.0193621591 0.633896589 0.331215143 0.23103191 90 55 36 
0.016343534 0.600185633 0.321770906 0.251813769 108 96 89 
-0.00365540432 0.577474952 0.271752357 0.191801533 107 95 89 
0.0628579408 0.585109532 0.311712921 0.158017814 111 99 92 
-0.0141801918 0.579589248 0.3990089 0.268919855 99 86 84 
0.0620313771 0.581325829 0.446439207 0.269886076 99 86 84 
-0.0439606532 0.539602041 0.403656572 0.185482204 86 80 75 
0.0587092191 0.554235041 0.404556572 0.1369427 99 86 84 
-0.0343600921 0.623186588 0.412077576 0.254404813 73 41 26 
0.0343867913 0.598053277 0.405090094 0.281816036 106 93 90 
0.000143632002 0.622857213 0.375843167 0.289246231 90 55 36 
0.0478410758 0.623973429 0.363185376 0.241894633 111 72 52 
-0.0139356917 0.576584041 0.510502338 0.389650911 90 59 41 
0.0643664449 0.601424396 0.502025485 0.2927894 97 69 50 
0.016377518 0.561704457 0.434352458 0.240969121 89 77 76 
-0.0539039969 0.606538892 0.514761567 0.266586572 90 59 41 
0.0247213487 0.580721378 0.479401439 0.343901426 94 82 80 
-0.00393496733 0.605532944 0.447659671 0.3453224 73 41 26 
-0.0328863524 0.648135185 0.570796788 0.145340383 92 55 33 
0.0368905105 0.627666354 0.46819061 0.249434546 99 63 38 
0.0226610377 0.60482198 0.529816568 0.307075351 81 45 22 
0.0115401577 0.60981226 0.577437699 0.281374961 88 49 25 
0.0702857003 0.594167113 0.604791641 0.261286825 94 61 39 
-0.0508686937 0.563878596 0.594504952 0.374846011 78 49 31 
0.00945603196 0.586045921 0.646508336 0.304454118 91 58 35 
0.0296932403 0.55585295 0.522574246 0.371769607 94 82 80 
0.0403232835 0.577609003 0.684202731 0.278637767 85 53 28 
-0.0385722406 0.599547565 0.561850429 0.288833708 93 63 39 
0.0517472252 0.636858881 0.565961599 0.164688453 81 45 22 
0.012743203 0.6583426 0.588908076 0.134400249 171 145 125 
0.0518294834 0.610823035 0.647943974 0.187169135 91 58 35 
0.0170326419 0.581332028 0.734372497 0.253673702 100 69 42 
-0.0163686424 0.610678613 0.773234189 0.144700989 106 76 52 
-0.0169166941 0.619425476 0.723947763 0.147752881 103 79 54 
-0.0425572582 0.598014832 0.65770185 0.220651329 94 64 43 
0.0305997264 0.62428534 0.698640704 0.14128153 85 53 28 
0.024998093 0.627547443 0.75019908 0.103005931 138 111 86 
0.0116862869 0.642630279 -0.0197296459 0.000302254979 172 158 153 
0.0030267518 0.677399457 0.106711015 0.000306426809 166 137 107 
0.0228526108 0.665079713 0.0624828637 0.000300108339 183 166 159 
-0.0456446111 0.670128524 0.115405507 0.000587819668 172 142 118 
0.0442397296 0.660438895 0.136440575 0.04134221 161 125 105 
-0.0046824743 0.656594217 0.151275113 0.0981340185 151 119 86 
0.0327471457 0.689682662 0.175311372 0.000308632647 180 154 141 
-0.0186248068 0.641094267 0.196707457 0.165707484 81 48 38 
0.0308715403 0.648694515 0.203830689 0.141056627 115 72 47 
-0.0189158805 0.705792785 0.26653412 0.00030726174 188 158 131 
0.0258850791 0.701529443 0.223394439 0.00562649919 144 106 77 
-0.00213316176 0.662632763 0.238548949 0.140322343 187 161 138 
-0.029130619 0.699839175 0.35386017 0.0227039643 161 124 99 
0.0564616136 0.646392703 0.272931635 0.155537099 103 55 35 
0.0342175178 0.646876812 0.320879012 0.188377172 95 55 36 
-0.0278816186 0.675741136 0.305448711 0.0966662392 162 139 122 
0.0165904481 0.674763501 0.283205509 0.115803629 139 95 60 
0.000931828516 0.71491009 0.317006946 0.00174624019 177 152 131 
0.0487091653 0.70563066 0.305551976 0.000289796764 95 55 36 
0.0153744007 0.641725719 0.419326097 0.23043412 143 124 106 
0.0440794937 0.673394978 0.445542753 0.103780471 99 63 38 
-0.0394450016 0.653560221 0.372513235 0.156868696 90 55 36 
0.0491519384 0.668968618 0.395416886 0.112359039 86 48 34 
-0.0172108561 0.716262937 0.41346997 0.000285982591 180 148 119 
0.0326297432 0.712616563 0.412744164 0.000307678623 143 124 106 
0.00158841431 0.678374469 0.386839777 0.131505072 177 126 94 
0.0372340605 0.687445104 0.350646943 0.0793019757 129 83 55 
-0.00349070597 0.630475879 0.496856213 0.254071623 92 61 42 
0.0710000917 0.697885871 0.482322365 0.000387192122 99 63 38 
-0.0270933248 0.670647502 0.477705121 0.1164914 88 51 28 
0.0212878007 0.673174083 0.489867151 0.134025037 109 72 47 
-0.0111466758 0.713978589 0.495251834 0.000303148903 174 144 117 
-0.0170022734 0.693441868 0.539760292 0.0424041376 132 94 63 
0.0255263112 0.715673625 0.461959332 0.000312210235 164 138 113 
0.0226802081 0.705662131 0.567377508 0.000253201084 172 147 134 
-0.040502619 0.646547735 0.624823868 0.104086325 78 49 31 
0.010520841 0.651671588 0.539335966 0.180863202 170 141 117 
-0.0175781846 0.689477205 0.635650873 0.000299751206 168 141 107 
0.0633660555 0.683177948 0.58343333 0.00823532976 88 49 25 
0.00947076734 0.633775949 0.631767154 0.182112128 167 137 115 
0.0277147181 0.696473897 0.615873694 0.000351190742 135 99 78 
-0.0129704345 0.633697748 0.676477075 0.146154851 94 64 43 
0.0139178075 0.670547783 0.727514446 0.000296770653 165 141 120 
-0.0338832103 0.66549927 0.716875076 0.000486434234 126 103 83 
-0.000100652585 0.68439728 0.681925654 0.000307380484 167 145 119 
0.0684971511 0.219676882 0.656603158 0.000308333896 45 36 27 
0.11652308 0.233608589 0.659262061 0.000323236076 49 37 30 
0.0669638589 0.269148022 0.661782086 0.108430266 51 42 35 
0.141093224 0.245438412 0.700864196 0.114619084 46 35 27 
0.0796717256 0.181610927 0.731551886 0.105953209 41 32 22 
0.086800538 0.240090847 0.698413312 0.131112173 46 36 27 
0.121348046 0.160708204 0.717608333 0.00031632217 41 32 22 
0.114467651 0.273662716 0.732397377 0.264401674 45 35 25 
0.098151423 0.192302898 0.686290443 0.000307380484 46 36 27 
0.148077399 0.196642712 0.695086777 0.00030726174 46 35 27 
0.112046964 0.324566275 0.588411987 0.000306426809 56 47 39 
0.0987217054 0.333095968 0.635106325 0.141456977 54 43 36 
0.139181703 0.318026662 0.660310566 0.153861135 49 39 31 
0.0928419307 0.358276844 0.678532958 0.303066075 54 43 36 
0.115126796 0.321612656 0.704239488 0.283974618 49 37 30 
0.0693780035 0.326302081 0.738405228 0.407974035 54 42 36 
0.116825931 0.33030197 0.752877355 0.42362389 49 37 30 
0.111554228 0.273312837 0.628099203 0.000306963862 54 42 36 
0.11231187 0.279653698 0.67791003 0.138149902 49 37 30 
0.156324938 0.293139488 0.699846685 0.197169736 47 36 27 
0.113473013 0.416820467 0.511214316 0.00030726174 69 59 50 
0.0768219084 0.43736881 0.484248132 0.000317751983 79 69 64 
0.162117854 0.415461689 0.523007989 0.000308513583 68 58 49 
0.10737171 0.362701297 0.556065381 0.00030881245 59 47 40 
0.117305614 0.467345119 0.528514028 0.145532802 79 69 64 
0.135525256 0.452653408 0.48493132 0.000490845006 79 69 64 
0.1749672 0.462815553 0.52932024 0.105813026 76 66 61 
0.11144086 0.404309034 0.604626715 0.202158034 56 47 39 
0.0639672726 0.409518331 0.590140283 0.204963461 71 61 52 
0.0814470723 0.389836431 0.641982436 0.281537056 59 47 40 
0.127734378 0.407738239 0.558265388 0.0878621861 66 56 48 
0.133362934 0.438769192 0.633554459 0.333129913 66 56 48 
0.0832685009 0.363795638 0.599716246 0.124239683 59 47 40 
0.0887232721 0.438206434 0.557601273 0.170659751 69 59 50 
0.169503659 0.337569416 0.588265777 0.000308333896 58 49 41 
0.140380174 0.454388708 0.570971131 0.208849058 66 56 48 
0.134062693 0.361242801 0.614140689 0.126770273 56 47 39 
0.0937964469 0.451137036 0.60557133 0.310622633 69 59 50 
0.166473344 0.358341217 0.651994109 0.203096971 51 41 34 
0.156117886 0.477414459 0.612158418 0.349523485 68 58 49 
0.105411269 0.402984053 0.693993747 0.422910124 56 47 39 
0.174937397 0.406125367 0.669053614 0.339387178 58 49 41 
0.0915100202 0.415817052 0.746732771 0.587533891 54 43 36 
0.133790225 0.376241505 0.741850138 0.476478368 49 39 31 
0.0869735107 0.438107908 0.653080106 0.403327942 59 47 40 
0.143744379 0.450158596 0.680478513 0.467896253 56 47 39 
0.0864730254 0.370351911 0.726146281 0.450038373 54 43 36 
0.0964371338 0.451714545 0.700270355 0.540354371 56 47 39 
0.139694393 0.363819659 0.693604827 0.328013659 49 39 31 
0.151119009 0.41205442 0.712383449 0.467265278 58 49 41 
0.110031687 0.482018113 -0.0215872191 0.00030726174 156 139 124 
0.0507246256 0.54174149 -0.0414006412 0.190901741 116 93 70 
0.116436869 0.530233502 -0.0100173233 0.126334086 149 133 118 
0.0973190069 0.549078405 0.0321573056 0.138934657 136 121 106 
0.163691387 0.502430558 0.0222484972 0.000452399981 143 127 113 
0.0728410408 0.524011791 0.0684921294 0.0461515002 133 118 104 
0.125351623 0.513243258 0.0524711572 0.00030910928 136 121 106 
0.114995308 0.528733134 0.15792048 0.000307440991 138 122 108 
0.135299146 0.535505056 0.105483368 0.0358795896 139 124 109 
0.0806629434 0.529979408 0.204418689 0.000307142996 138 122 108 
0.0770588145 0.53731513 0.320475847 0.000307380484 111 99 92 
0.128759593 0.555177391 0.32462883 0.000305832335 110 98 91 
0.128333554 0.522315979 0.414043874 0.000317454222 89 78 73 
0.0811026841 0.507027745 0.408602983 0.000304460817 94 82 79 
0.108132303 0.519205809 0.518752694 0.238817483 79 69 64 
0.153424457 0.49691698 0.499712169 0.117479883 78 68 63 
0.0918495432 0.48456949 0.486670882 0.0995381549 77 67 62 
0.128324702 0.488069147 0.450437129 0.000328183261 89 78 73 
0.0576834008 0.542792439 0.483105034 0.249528408 94 82 79 
0.13379389 0.537599146 0.480310619 0.172905833 89 78 73 
0.0928518027 0.522787094 0.454542756 0.115999773 93 82 77 
0.123753004 0.572859287 0.541667402 0.366654843 88 54 35 
0.157182515 0.539782941 0.524446368 0.262292773 90 79 73 
0.112600565 0.496556908 0.597268701 0.374496669 79 69 64 
0.0548051 0.465503454 0.518804908 0.154719725 79 69 64 
0.0676104948 0.484026998 0.658782005 0.510300815 69 59 50 
0.138320282 0.503948689 0.555167317 0.274173021 78 68 63 
0.116265036 0.483116508 0.647278607 0.466143042 66 56 48 
0.0585534945 0.53791219 0.593219638 0.432366461 94 61 39 
0.0999303609 0.533881605 0.565352738 0.379766792 79 69 64 
0.132118672 0.53728348 0.618187547 0.434197962 71 47 29 
0.123816319 0.492695123 0.695766747 0.499744058 63 38 23 
0.173464879 0.488254935 0.691973984 0.457050085 73 50 29 
0.0741026253 0.495111555 0.706789851 0.497854024 95 64 39 
0.153459176 0.491873503 0.735679865 0.436223984 73 50 29 
0.0689976215 0.534908772 0.676309884 0.400039673 98 65 45 
0.118122846 0.533961356 0.667704344 0.415928513 63 38 23 
0.103787668 0.534610868 0.715865016 0.383556724 95 64 39 
0.152569458 0.532492936 0.706167161 0.344527215 63 38 23 
0.119101152 0.585572124 0.00594638707 0.144778028 112 69 35 
0.151975393 0.550970256 0.0209003612 0.145926297 143 127 113 
0.095856823 0.55820775 -0.0551416725 0.151258081 117 94 74 
0.0647104904 0.586742938 0.05527867 0.154396355 108 79 51 
0.138102189 0.580035269 -0.0398713686 0.152186751 159 138 123 
0.114681602 0.589684367 0.0556637384 0.157965332 101 61 37 
0.105208844 0.625085592 -0.0210434105 0.000310064002 146 119 94 
0.0880041644 0.619472802 0.0254824311 0.0240651518 114 78 53 
0.158458069 0.604975224 0.0298721436 0.146761701 201 170 159 
0.0885393694 0.564594507 0.093178235 0.150836781 146 130 115 
0.155233353 0.56419456 0.0697962046 0.142419323 138 122 109 
0.0692066699 0.58306849 0.144753337 0.177285314 127 112 100 
0.123206347 0.61873734 0.165048718 0.163378179 94 60 44 
0.0623106807 0.652605534 0.0905178264 0.0042291265 130 91 59 
0.146940246 0.622164845 0.0753206313 0.125959843 174 144 118 
0.100517996 0.61776185 0.120502293 0.119925678 131 97 74 
0.158538729 0.593374491 0.117270201 0.204575807 136 121 107 
0.102056101 0.576768339 0.182039991 0.14718841 138 122 108 
0.166900024 0.597559273 0.177086785 0.196311057 127 112 100 
0.10337545 0.601805687 0.252499878 0.190849677 128 114 101 
0.129429042 0.541255295 0.204085216 0.0137596251 136 121 107 
0.0607790686 0.615228474 0.181735694 0.181606859 104 73 58 
0.0714465976 0.63125205 0.227901548 0.163205028 103 56 42 
0.11680302 0.572320282 0.13375932 0.148864001 146 130 115 
0.165376082 0.584519744 0.248019546 0.114522055 126 111 99 
0.0845571831 0.656195462 0.165689111 0.0319172591 104 73 58 
0.135623038 0.607205033 0.214910805 0.194486961 128 114 101 
0.0744061321 0.534551322 0.25380075 0.000307739188 127 114 101 
0.115400821 0.596400559 0.349526674 0.148569554 110 98 91 
0.133821622 0.546198785 0.253554225 0.000304759305 128 114 101 
0.0996035039 0.564216018 0.285202265 0.0634605959 111 99 92 
0.0825213939 0.628376484 0.327287525 0.206337675 120 83 61 
0.119710907 0.607354581 0.300570548 0.171266481 110 98 91 
0.164599642 0.585438728 0.298022956 0.0768539682 108 96 90 
0.106468208 0.564343512 0.430882633 0.15397419 95 83 81 
0.165377945 0.552825749 0.390979052 0.000289142219 89 77 75 
0.114230253 0.543638408 0.371076703 0.000326514622 95 83 81 
0.132110521 0.589091539 0.396199256 0.135377809 89 77 75 
0.0640967935 0.63186121 0.426048994 0.220513195 94 63 47 
0.131083369 0.639087021 0.394019127 0.202125371 104 71 58 
0.0854470357 0.605656505 0.390586942 0.216051683 95 83 81 
0.160621732 0.612949371 0.362750262 0.161788374 108 96 90 
0.0800052732 0.559836864 0.525146604 0.348798066 93 82 77 
0.165434614 0.591063023 0.520285368 0.294036984 100 64 44 
0.0977971703 0.572160542 0.480224282 0.278873414 93 82 77 
0.101226456 0.63078779 0.516292632 0.19454287 97 69 50 
0.136071548 0.611375272 0.485886097 0.27423799 105 72 52 
0.102245659 0.610776365 0.448894054 0.256699115 93 53 35 
0.0548509993 0.648247361 0.517340004 0.151361614 92 58 40 
0.149683952 0.622769177 0.438859373 0.252300203 86 74 72 
0.137122527 0.61976403 0.5497877 0.235901207 83 44 25 
0.113642082 0.574935615 0.590681612 0.346173674 102 67 43 
0.147684291 0.58433795 0.626746714 0.290487885 72 39 21 
0.0493418388 0.577438354 0.563391507 0.34881556 81 45 22 
0.0878295302 0.592865944 0.681672513 0.217926919 98 65 45 
0.166797251 0.597680748 0.582701147 0.252125978 68 40 21 
0.10107138 0.570763171 0.638915539 0.322018027 93 62 44 
0.089995712 0.605349839 0.559066892 0.254725784 88 54 35 
0.125084206 0.622204363 0.597312272 0.211355478 102 67 43 
0.105777144 0.620082617 0.643830419 0.174399257 93 62 44 
0.14998211 0.64204061 0.635325611 0.134175867 178 148 124 
0.134747893 0.580074787 0.674781859 0.276771069 63 38 23 
0.177707672 0.601362824 0.688934445 0.141092628 63 38 23 
0.0820893124 0.576708913 0.728579342 0.232978612 95 64 39 
0.13158834 0.574060202 0.724207759 0.263279766 66 39 20 
0.0768006891 0.641466618 0.678898692 0.0642791539 93 62 44 
0.137911603 0.631145418 0.682479978 0.130577415 168 141 118 
0.108887076 0.618542731 0.719829261 0.131738573 98 65 45 
0.158491597 0.615048587 0.735669732 0.10363657 66 39 20 
0.12864688 0.64709729 0.0341417901 0.000520288944 200 174 159 
0.150537372 0.643315077 -0.0106455591 0.000306903414 182 135 98 
0.112137899 0.654986799 0.0893006027 0.000305414869 154 116 83 
0.172662675 0.659562767 0.0543111116 0.000306784787 204 171 149 
0.133648902 0.6567837 0.134360567 0.0450414605 104 66 45 
0.135741755 0.685028911 0.175541207 0.000307082548 179 134 96 
0.0704263672 0.680153549 0.210628018 0.00549644232 103 56 42 
0.112408653 0.650737822 0.206843913 0.0965770334 113 68 54 
0.061175324 0.693966925 0.257996798 0.000319898973 103 55 35 
0.109529078 0.687106729 0.240982965 0.000314593897 97 57 40 
0.127811313 0.643761337 0.341074467 0.17598933 120 83 61 
0.152450249 0.661628187 0.238774061 0.122413427 101 55 37 
0.162508264 0.670992136 0.364921689 0.128574073 193 133 94 
0.0857068002 0.672350287 0.304102927 0.0625687987 118 76 61 
0.113031179 0.647092581 0.270663321 0.140151814 97 57 40 
0.138594449 0.704863966 0.336535245 0.0116307111 209 178 152 
0.127174541 0.695086956 0.287886143 0.0192641784 134 85 52 
0.175873265 0.70598495 0.285604954 0.000310837757 215 191 169 
0.10683731 0.657741547 0.432875186 0.132993236 94 63 47 
0.180484682 0.636992812 0.40205124 0.192773432 80 45 33 
0.0892027169 0.651166737 0.371121496 0.140486091 111 72 52 
0.154754773 0.675009131 0.423187971 0.113983348 171 151 131 
0.0801656097 0.698143721 0.421423614 0.000285208022 94 63 47 
0.0909242928 0.695150375 0.347984105 0.000265359675 120 83 61 
0.121865921 0.688865244 0.388172954 0.0472925603 81 47 29 
0.121075414 0.699083626 0.497111291 0.00031632217 159 131 105 
0.141602337 0.660523117 0.521273792 0.121816978 159 131 105 
0.0812549517 0.649595678 0.475019008 0.147600427 105 72 52 
0.138409004 0.659262717 0.471609384 0.137148812 93 53 35 
0.0404471308 0.707562029 0.520597756 0.000303686567 148 119 99 
0.122292422 0.70428288 0.447424054 0.00283074169 138 88 57 
0.167169482 0.690793991 0.560622334 0.000304937596 172 149 124 
0.0809140354 0.642755806 0.606976092 0.107884429 102 67 43 
0.159009978 0.685137331 0.611613035 0.00929529034 164 134 98 
0.0983083472 0.654609978 0.561474442 0.10181091 88 54 35 
0.0499607138 0.660751581 0.641592681 0.0541249812 91 58 35 
0.119666964 0.697065592 0.546990454 0.000336290395 124 84 54 
0.146149457 0.678455532 0.668912649 0.000280558306 168 141 118 
0.11087878 0.686244607 0.598947108 0.000402510632 163 134 113 
0.102425955 0.670003414 0.64545995 0.0200213194 98 59 34 
0.109748982 0.665691257 0.705097616 0.00030148006 166 137 107 
0.157095164 0.66081202 0.719029069 0.000342548534 154 125 96 
0.0612143613 0.654592156 0.723787487 0.000302554254 95 64 39 
0.181145072 0.230961129 0.674627781 0.000306903414 49 37 29 
0.228914559 0.244977519 0.669060469 0.000312865101 51 40 30 
0.177620187 0.169749558 0.725174367 0.000308037561 43 33 23 
0.173916429 0.224217251 0.730990827 0.129678696 46 36 25 
0.21936667 0.245151341 0.725949764 0.14169167 50 40 29 
0.208979055 0.202043176 0.703754306 0.000423669379 49 38 27 
0.258557886 0.204483569 0.706045389 0.000593246543 57 45 33 
0.203065395 0.336810708 0.625180483 0.0808244869 59 50 41 
0.186151534 0.303331852 0.658017039 0.101095431 53 42 32 
0.155867159 0.299326748 0.617110252 0.000307380484 49 39 31 
0.226065531 0.293128341 0.630121589 0.000307559792 52 44 35 
0.197706968 0.336439848 0.693473458 0.254106164 53 42 32 
0.243079692 0.336111844 0.654384911 0.143801436 52 44 35 
0.213507965 0.344392151 0.744127572 0.393767446 52 44 35 
0.154215395 0.265930533 0.653425217 0.0273042172 47 36 27 
0.205835342 0.28554216 0.700351596 0.167039111 51 40 30 
0.256473541 0.278705209 0.747832894 0.253471285 53 42 32 
0.248695269 0.290343463 0.674492359 0.101492517 56 47 39 
0.2560215 0.41823715 0.534619927 0.00030726174 72 63 58 
0.201289564 0.442867637 0.566684604 0.147747919 68 58 50 
0.215661883 0.438849419 0.51352495 0.000307559792 77 65 61 
0.217933655 0.426852643 0.611112714 0.222581655 63 53 45 
0.240454346 0.397862315 0.577390611 0.0726220235 62 50 43 
0.169052586 0.384603471 0.57343781 0.0591535605 68 58 49 
0.130326688 0.392341733 0.652172923 0.285801768 56 47 39 
0.205101654 0.399691135 0.542812526 0.000309883704 68 58 50 
0.221164957 0.423891425 0.660429955 0.339984953 59 50 41 
0.215501815 0.354482651 0.580538273 0.000676690892 59 50 41 
0.16880165 0.426225126 0.600943208 0.212271675 68 58 49 
0.240535095 0.372545451 0.620752335 0.131606638 59 50 42 
0.257247806 0.443593204 0.576992631 0.158137217 72 63 58 
0.191728652 0.385055453 0.617733479 0.162961513 58 49 41 
0.20802103 0.475969911 0.612553239 0.326888561 63 53 45 
0.261756659 0.417399913 0.631962776 0.245068818 62 50 43 
0.179230854 0.372799456 0.722465336 0.404770255 53 42 32 
0.261871427 0.400918841 0.679175258 0.330468833 55 46 38 
0.186957091 0.418251306 0.744009197 0.548343897 53 42 32 
0.231854185 0.397142828 0.751835883 0.515022039 52 44 35 
0.180871919 0.449336469 0.645088494 0.365068763 68 58 50 
0.213027865 0.374407113 0.662005961 0.246616289 59 50 41 
0.216696277 0.472017258 0.671955109 0.466751844 63 53 45 
0.216202796 0.400385588 0.704163671 0.404350966 59 50 42 
0.188867077 0.441919357 0.700684547 0.486056209 59 50 41 
0.243671432 0.359872222 0.698425829 0.302747488 56 47 39 
0.235727996 0.443624347 0.719841838 0.50782007 59 50 42 
0.205298588 0.48991847 -0.0024555421 0.000307380484 154 138 122 
0.160718128 0.483842611 -0.024008628 0.000307142996 157 141 127 
0.202501804 0.472330183 -0.0490822233 0.00030726174 152 135 120 
0.19767943 0.521353245 -0.0408064462 0.13747476 152 135 120 
0.207575187 0.523183763 0.0348199494 0.0628441796 156 139 124 
0.233339772 0.531630576 -0.0072182389 0.133040413 156 139 124 
0.172145873 0.517065883 0.0695359185 0.000552655023 144 124 111 
0.22034961 0.514846623 0.0822799131 0.000307142996 152 136 121 
0.18281877 0.526414752 0.117926665 0.000385044928 136 121 107 
0.200386003 0.536607265 0.174488872 0.000307739188 130 115 103 
0.248399019 0.529830039 0.162555665 0.000307082548 157 136 122 
0.155072555 0.556205451 0.439223349 0.103761025 89 77 75 
0.197800726 0.477122754 0.487018675 0.018243853 76 66 61 
0.249198258 0.475749105 0.51254791 0.0623843446 77 65 61 
0.174899563 0.505530775 0.452827662 0.0086640697 90 79 73 
0.188948199 0.540046036 0.486081719 0.150045976 87 76 71 
0.239393115 0.49783054 0.468800008 0.000307559792 80 70 65 
0.2092112 0.535465837 0.432348996 0.000307440991 82 71 69 
0.19553569 0.508213103 0.526939452 0.181300521 76 66 61 
0.263782799 0.531359613 0.440855116 0.000304759305 82 71 69 
0.243575051 0.521654129 0.532009244 0.20617485 80 70 65 
0.178432405 0.522256672 0.607067227 0.402795762 76 66 61 
0.256118864 0.465827048 0.62196964 0.316673756 62 50 43 
0.183018774 0.488002181 0.570849001 0.255694866 76 66 61 
0.230963573 0.481592923 0.559079111 0.195415393 77 65 61 
0.207587048 0.513311684 0.645748317 0.404946268 78 51 33 
0.15283069 0.547994852 0.573835909 0.396582842 68 40 21 
0.214595526 0.527097821 0.572654665 0.323147148 77 65 61 
0.243032709 0.512632728 0.611217499 0.371868759 77 65 61 
0.200602934 0.53045845 0.692308009 0.315948695 85 56 34 
0.249421492 0.489121497 0.705657482 0.424710453 40 22 12 
0.202607125 0.478822708 0.731360316 0.440940946 73 50 29 
0.246822998 0.488252729 0.755278587 0.393280029 38 19 9 
0.157706693 0.509930372 0.650018334 0.451030135 71 47 29 
0.239912286 0.547086835 0.662249029 0.29089734 86 57 35 
0.235763758 0.531827152 0.727194667 0.283376336 85 56 34 
0.297066331 0.562296569 0.732797146 0.152595669 40 22 12 
0.227110967 0.576867163 -0.0274652392 0.0959619954 149 130 133 
0.240755722 0.572018266 0.0214249138 0.10909047 114 80 59 
0.179975539 0.562619388 -0.0188420806 0.192157581 147 131 116 
0.193988755 0.571084023 0.0390006267 0.189766586 144 124 111 
0.27470088 0.587808073 -0.0167217851 0.000307380484 173 152 157 
0.2410326 0.603372991 0.0612851083 0.053531561 107 72 58 
0.188622326 0.610958934 -0.0095532462 0.0822694302 186 141 101 
0.237659588 0.617126167 0.000143729674 0.000309289258 129 88 48 
0.203735501 0.62501663 0.0359403342 0.0613596663 157 118 83 
0.201977745 0.560731709 0.0872860476 0.134808987 152 136 121 
0.247461513 0.554226935 0.0676422119 0.129570708 157 141 125 
0.159862608 0.555081487 0.151845574 0.0746897012 136 121 107 
0.219482198 0.559034526 0.134091973 0.100625597 145 129 116 
0.194020033 0.60981667 0.0862144455 0.148957312 82 47 27 
0.221001834 0.649911106 0.0756749511 0.000199139278 187 162 146 
0.259167165 0.62515521 0.102463417 0.000307082548 95 58 34 
0.214427963 0.583571613 0.183482334 0.1418138 130 115 103 
0.25919196 0.578642845 0.161809132 0.143811285 115 81 65 
0.17714712 0.546269119 0.218075931 0.00770325307 127 112 100 
0.212636903 0.578097761 0.23314023 0.0987473652 122 109 97 
0.180540711 0.630727947 0.142266214 0.144221306 202 168 144 
0.159570783 0.630789757 0.277402073 0.208213672 97 57 40 
0.224831685 0.608735919 0.134885103 0.123348504 104 63 37 
0.232699215 0.644493937 0.236054942 0.0721527636 71 38 28 
0.207875028 0.632955968 0.185212478 0.127257496 107 62 32 
0.252592832 0.605715394 0.206811056 0.135823518 79 51 38 
0.212431923 0.557717621 0.279269516 0.000307142996 121 108 101 
0.24984619 0.60227412 0.256625324 0.160225451 122 108 96 
0.172869667 0.568388104 0.344069064 0.000303506531 108 96 90 
0.211074635 0.588128388 0.318986028 0.0539425649 105 93 87 
0.203029245 0.606399059 0.273188531 0.148775846 122 109 97 
0.213915899 0.564711213 0.392068952 0.00169390207 82 71 69 
0.262770563 0.562221885 0.401575774 0.0128196534 82 71 69 
0.185787126 0.592051029 0.423138827 0.134576157 86 74 72 
0.228639498 0.645065725 0.408309221 0.108746305 80 45 33 
0.234865963 0.63641566 0.357787043 0.124557376 113 78 57 
0.244063184 0.581009865 0.355890065 0.034997765 104 91 88 
0.212608054 0.608577013 0.529709637 0.193580538 100 64 44 
0.269514978 0.582431495 0.509124875 0.242077917 99 63 45 
0.177258447 0.58662194 0.472133309 0.221348673 86 74 72 
0.234378815 0.563714981 0.464877725 0.127411425 82 71 69 
0.178227276 0.634554267 0.499382406 0.177563518 100 64 44 
0.223631084 0.562959552 0.513600171 0.250163138 80 70 65 
0.220895708 0.609246433 0.480405539 0.204520658 118 84 65 
0.182314351 0.638097346 0.555632055 0.131251529 102 78 60 
0.234855056 0.602008998 0.433035225 0.151168987 82 71 69 
0.235292166 0.642154872 0.55901587 0.0563805997 98 61 39 
0.194359943 0.568068206 0.612675667 0.277587295 83 52 33 
0.263598204 0.607084274 0.622601271 0.137461007 87 57 35 
0.194506913 0.567876518 0.553737104 0.305269927 98 61 39 
0.176164344 0.557285786 0.657875896 0.289765 71 47 29 
0.218056858 0.601039946 0.582870126 0.1778723 68 40 21 
0.243841723 0.562407851 0.615026295 0.27039364 83 52 33 
0.243475825 0.649943292 0.607364655 0.000277281681 87 57 35 
0.190954566 0.61708051 0.622038603 0.137287304 62 34 19 
0.224484727 0.59263134 0.650008917 0.153188229 78 51 33 
0.2191412 0.576241493 0.696987033 0.166638896 85 56 34 
0.26884824 0.579260826 0.690019667 0.188129112 86 57 35 
0.181698859 0.571172178 0.728290141 0.182220325 73 50 29 
0.250019908 0.578736007 0.736569047 0.144743845 131 98 70 
0.233869076 0.640615821 0.660286546 0.000497342669 78 51 33 
0.229029372 0.623697817 0.709074795 0.00745879812 86 57 35 
0.182863206 0.667813897 0.102524385 0.000307380484 189 146 111 
0.179828182 0.680781782 0.150713056 0.00039392733 204 179 164 
0.223888159 0.657732368 0.144863993 0.00773448125 107 62 32 
0.256703794 0.64855212 0.181453586 0.000305055757 99 64 53 
0.159831136 0.644697309 0.192327812 0.150084198 179 134 96 
0.219293907 0.678569555 0.201875538 0.000292240555 181 144 122 
0.190294251 0.694284618 0.239288419 0.0103104692 208 168 133 
0.186580792 0.626109064 0.2302728 0.20486553 71 38 28 
0.193076044 0.633076966 0.330799222 0.162192643 105 93 87 
0.251143277 0.668051422 0.322731733 0.000305055757 92 53 41 
0.161275551 0.666720688 0.312014401 0.132312521 212 182 154 
0.215506986 0.653281689 0.290918738 0.0975064412 112 62 36 
0.188410908 0.706194341 0.340562612 0.000307082548 185 146 110 
0.190375879 0.648043573 0.452800721 0.140221119 125 98 81 
0.270553797 0.668299794 0.422210038 0.000297726132 112 71 54 
0.177866146 0.710136473 0.391862661 0.000307142996 193 133 94 
0.211168051 0.677205682 0.374347419 0.05305079 113 68 43 
0.238486767 0.646160662 0.509198904 0.0673912019 102 70 51 
0.21366477 0.681129873 0.484087884 0.000306784787 132 106 89 
0.240051746 0.649105668 0.456940114 0.0749266967 118 78 56 
0.170471236 0.696364224 0.503984332 0.000331938383 159 143 127 
0.197440088 0.695570469 0.439055055 0.00048983231 173 150 136 
0.200907886 0.668495595 0.590170085 0.000288070005 68 40 21 
0.194377482 0.663081706 0.638858855 0.000325263391 72 39 21 
0.206312403 0.675769746 0.533247173 0.000309467054 100 64 44 
0.192071274 0.648687422 0.686659098 0.000439880881 71 47 29 
0.287455499 0.26216498 0.661605537 0.000301002467 60 49 39 
0.344260812 0.26058203 0.710057437 0.000664650055 41 32 25 
0.263129205 0.254503489 0.704223692 0.101831943 53 42 32 
0.342900217 0.2275341 0.746751726 0.000322698732 41 32 23 
0.305984885 0.229812503 0.704171479 0.000483451906 57 45 33 
0.304396152 0.332441896 0.607821107 0.000308214891 53 45 35 
0.254734606 0.326153934 0.606878817 0.00047641847 59 50 42 
0.320755213 0.293588966 0.68094629 0.0652910694 56 46 36 
0.28680563 0.311715841 0.649731696 0.0703713074 60 49 39 
0.370526105 0.297215581 0.688119054 0.00030910928 33 26 21 
0.242756799 0.313493103 0.717416763 0.260274947 53 42 32 
0.291942537 0.324196666 0.706521153 0.220824987 56 46 36 
0.338051051 0.311017185 0.637920499 0.000315845013 56 46 38 
0.300501019 0.279160082 0.725173891 0.147893727 41 32 25 
0.338582247 0.315743595 0.722158551 0.146969751 43 34 26 
0.294642806 0.460582227 0.498194546 0.000304759305 78 68 63 
0.301321685 0.396870106 0.55427289 0.00030726174 62 50 43 
0.337186337 0.457989991 0.571186781 0.17805092 67 56 51 
0.297504485 0.422312587 0.59746778 0.16002813 62 50 43 
0.344758213 0.412022173 0.587047338 0.106865488 60 50 42 
0.296055555 0.44584468 0.545855224 0.0837714225 64 56 51 
0.318472177 0.411901832 0.646386206 0.25346303 60 51 43 
0.343906045 0.415334284 0.535776436 0.000899134669 67 56 51 
0.345998317 0.446064651 0.623037219 0.265942395 60 50 42 
0.27586171 0.362837434 0.580276132 0.000307559792 62 50 43 
0.275613159 0.490115523 0.58133316 0.261939704 72 63 58 
0.338305205 0.36243102 0.587896764 0.000305354624 60 50 42 
0.316945672 0.484218776 0.608183682 0.314349204 64 56 51 
0.289961874 0.376911044 0.625157356 0.137930691 55 46 38 
0.299301833 0.457476676 0.646204352 0.353176415 62 50 43 
0.335413456 0.360779107 0.637444079 0.11470595 56 46 38 
0.375421524 0.442695141 0.663210809 0.326443404 53 44 36 
0.309774965 0.395128161 0.692372978 0.328032702 53 45 35 
0.361785144 0.394435793 0.662701249 0.215235054 40 33 27 
0.273237914 0.390702963 0.726492643 0.42486614 43 34 26 
0.377529532 0.414687783 0.744955897 0.379136711 33 26 21 
0.284969062 0.35761103 0.670553327 0.213588715 53 45 35 
0.260365844 0.450943947 0.675985217 0.421855122 62 50 43 
0.32418254 0.442141742 0.686425209 0.396307617 60 50 42 
0.314519018 0.362576336 0.730364621 0.304949075 43 34 26 
0.285595179 0.440347403 0.718037963 0.454978257 40 22 12 
0.33194837 0.348993957 0.685854793 0.17930235 43 34 26 
0.384232938 0.494453669 0.726524949 0.232007235 72 47 30 
0.252979666 0.490135074 0.0126384953 0.000307440991 160 143 127 
0.361251175 0.464649677 0.00766843837 0.00030726174 154 138 122 
0.289782077 0.507611871 -0.0162338093 0.101534702 152 136 121 
0.290902227 0.495790392 0.0446386486 0.000307440991 156 139 124 
0.299338758 0.47900635 -0.0561160818 0.0671264902 149 133 118 
0.343701482 0.484934866 0.0498017743 0.00030726174 152 136 120 
0.252348453 0.484456897 -0.039915964 0.0426577851 163 146 130 
0.336689353 0.492916644 -0.0254061203 0.098821491 152 136 121 
0.325096965 0.519861579 0.0172351152 0.122016832 152 136 120 
0.371951878 0.537210047 0.0187502373 0.180795848 146 130 116 
0.26843223 0.512234092 0.0956179202 0.000307380484 157 141 125 
0.361216009 0.493977129 0.10485591 0.000307380484 151 134 119 
0.327872932 0.509828269 0.138593897 0.00030726174 152 136 121 
0.316957712 0.507282853 0.0856602564 0.0191303063 154 138 122 
0.287679225 0.538982868 0.133088276 0.0688498393 156 139 124 
0.348490208 0.543937862 0.0984369069 0.145278111 154 138 122 
0.365793884 0.506070912 0.170955077 0.000307142996 135 120 107 
0.306249678 0.536938488 0.236008778 0.00732005248 139 123 111 
0.312352926 0.522422671 0.184450299 0.00030726174 152 136 121 
0.354036838 0.524552643 0.243739635 0.000307440991 127 112 100 
0.361705929 0.508292615 0.396538228 0.000306963862 88 77 72 
0.32397598 0.516741157 0.428275257 0.00030917002 90 78 75 
0.325327814 0.506409705 0.501219928 0.128427982 82 72 66 
0.378287047 0.486959845 0.493620664 0.122247078 82 72 67 
0.339764148 0.477808595 0.463318437 0.000490845006 82 72 66 
0.268559426 0.531815827 0.490699381 0.124265656 78 67 65 
0.307196945 0.55057615 0.516277194 0.241152808 78 68 63 
0.293638527 0.498189241 0.463496417 0.000302911387 78 68 63 
0.280793011 0.536428094 0.561199903 0.303300321 78 67 65 
0.334395438 0.54345572 0.468936116 0.151591882 90 78 75 
0.328664005 0.524707139 0.553338468 0.283619881 82 72 66 
0.304840922 0.506781101 0.652566135 0.336515784 51 30 18 
0.289937824 0.494959235 0.534077466 0.158967286 78 68 63 
0.255393088 0.49967435 0.657254279 0.432920516 86 57 35 
0.338780582 0.463027477 0.521420002 0.08287213 67 56 51 
0.358834863 0.492660105 0.636140764 0.308515102 62 35 20 
0.29298386 0.527848184 0.608959973 0.345385283 34 19 11 
0.285574436 0.559524894 0.646817207 0.262748152 40 21 10 
0.343975902 0.524545491 0.601243794 0.268709779 47 26 18 
0.29828319 0.483818829 0.696638405 0.357149929 40 22 12 
0.34655723 0.486703992 0.684175432 0.304147094 51 30 18 
0.293593913 0.470054924 0.75711745 0.354345441 74 48 31 
0.335308403 0.482587159 0.73242408 0.28215912 72 47 30 
0.279693902 0.530820787 0.688381076 0.297121823 40 22 12 
0.343406856 0.537997901 0.649730027 0.193992019 62 35 20 
0.324908704 0.525078893 0.707193255 0.198684141 40 22 12 
0.366073996 0.539959967 0.731510341 0.0893412977 72 47 30 
0.36360243 0.586517215 0.0128414724 0.0746498331 192 159 156 
0.30309397 0.551523089 -0.0361036733 0.0944971219 138 116 100 
0.283385038 0.547183633 0.0136012705 0.139932618 129 94 76 
0.331290543 0.590242326 -0.0504004546 0.000306963862 163 129 91 
0.32363075 0.5670138 0.03565979 0.133452445 146 104 75 
0.296763361 0.55408299 0.0757972002 0.14218691 156 139 124 
0.331325918 0.589372814 0.0834999979 0.110588737 175 137 103 
0.26101017 0.576092839 0.1119119 0.14698948 130 96 68 
0.315266401 0.580498636 0.130011111 0.156659558 152 114 81 
0.290379733 0.610729694 0.0643263236 0.000307142996 132 92 69 
0.356560439 0.619185328 0.0523099452 0.000310539821 181 125 69 
0.316352874 0.627245545 0.11249879 0.000306308299 168 131 98 
0.366001397 0.631278455 0.108504876 0.000305711757 209 190 181 
0.273977935 0.550317407 0.200237647 0.0542480685 144 129 114 
0.360639662 0.612394273 0.209124655 0.127029955 186 122 75 
0.253167689 0.551656425 0.245704144 0.0183155537 122 108 96 
0.329948485 0.565563321 0.202572763 0.134369522 139 123 111 
0.281348109 0.62116468 0.147656903 0.0296500754 115 81 65 
0.290112436 0.584895015 0.23255156 0.137069002 144 129 114 
0.327997088 0.604864955 0.17174387 0.127242565 135 87 65 
0.32204476 0.634766281 0.255789131 0.0870664343 153 100 65 
0.29778415 0.626997471 0.204853401 0.0647983178 124 85 68 
0.355098635 0.646717191 0.168294728 0.000306666159 196 160 132 
0.292272389 0.547331512 0.282856584 0.0003064872 125 109 104 
0.287100494 0.558121324 0.333231598 0.00286281202 108 96 89 
0.337911248 0.588203609 0.246400699 0.16916579 125 112 100 
0.353842437 0.571067393 0.336451411 0.113090761 104 92 86 
0.255681753 0.576987207 0.299298048 0.0587975197 122 108 96 
0.283648074 0.650224864 0.365445524 0.0533725172 113 78 57 
0.328022867 0.580166161 0.2947644 0.121160179 125 112 100 
0.289694369 0.610884786 0.285506874 0.140950263 121 69 48 
0.345322192 0.619029641 0.321001381 0.15018858 196 140 98 
0.310189277 0.563499093 0.41738373 0.0776523799 80 69 67 
0.333568811 0.590366721 0.452384561 0.203821942 80 69 67 
0.299848467 0.584967196 0.373396248 0.0979852378 108 96 89 
0.294470698 0.624698222 0.426695913 0.150476396 109 68 51 
0.353643775 0.592234671 0.541900098 0.142402947 34 17 10 
0.362729758 0.574121952 0.496376097 0.192363277 66 40 32 
0.290836722 0.567142904 0.46310088 0.141609848 80 69 67 
0.284631491 0.629213452 0.518013477 0.120089076 99 63 45 
0.316889167 0.596249521 0.4990367 0.226207048 178 158 151 
0.271722198 0.612584114 0.469557077 0.175877273 118 78 56 
